# .PCD v0.7 - Point Cloud Data file format
VERSION 0.7
FIELDS x y z intensity ring
SIZE 4 4 4 4 2
TYPE F F F F U
COUNT 1 1 1 1 1
WIDTH 1323
HEIGHT 1
VIEWPOINT 0 0 0 1 0 0 0
POINTS 1323
DATA ascii
0.71824956 -0.28000769 -0.44486105 7 8
0.68318194 -0.15944821 -0.45119807 8 7
0.57128096 -0.22413503 -0.44075555 14 6
0.5601595 -0.12913501 -0.45713273 13 5
0.46927637 -0.18583736 -0.44915554 10 4
0.44692707 -0.10167412 -0.44939968 8 3
0.20389035 -0.080012858 -0.21752125 3 2
nan nan nan 0 1
nan nan nan 0 0
3.3837934 -0.80995899 0.91908324 57 31
3.0898471 -1.1960711 0.75867695 63 30
3.3826048 -0.81277156 0.66445446 60 29
3.0872917 -1.1938603 0.51229328 65 28
3.3943946 -0.81870371 0.42199674 64 27
3.0941534 -1.1965319 0.3137598 66 26
3.3987713 -0.82100517 0.24084663 61 25
3.104764 -1.2006499 0.15360884 69 24
3.4032831 -0.82334262 0.080483429 64 23
3.105561 -1.201582 0 70 22
3.4102838 -0.82629102 -0.080657504 64 21
3.106673 -1.2026367 -0.1537253 71 20
3.4031274 -0.82456869 -0.23998359 66 19
3.1156306 -1.2079812 -0.29686049 71 18
3.1937146 -0.77399004 -0.37215996 18 17
2.8027596 -1.0875573 -0.41285229 6 16
3.011719 -0.72893387 -0.53416473 4 15
3.1005974 -1.2083197 -0.94233394 65 13
3.4163723 -0.82591861 -0.79700291 67 14
3.0912192 -1.2083561 -1.1359359 25 12
2.90312 -0.69534433 -1.1932154 10 11
0.79918057 -0.31352368 -0.43735108 7 9
2.5277133 -0.60301745 -1.2042303 11 10
0.72522062 -0.28567475 -0.4500339 7 8
0.68665409 -0.1627712 -0.45400053 9 7
0.57234097 -0.22686835 -0.44227016 12 6
0.55598533 -0.13023823 -0.4539021 13 5
0.46862477 -0.18747428 -0.44915554 10 4
0.44824252 -0.10360847 -0.45121911 9 3
0.20510356 -0.081338838 -0.21942933 3 2
nan nan nan 0 1
nan nan nan 0 0
3.378598 -0.82119703 0.91843879 59 31
3.0811179 -1.2050719 0.75754958 63 30
3.3821323 -0.82515419 0.66492808 63 29
3.0808055 -1.2037293 0.51190692 67 28
3.3866944 -0.82937026 0.42139086 64 27
3.0878506 -1.2058791 0.31352192 68 26
3.3934622 -0.8322717 0.24067311 64 25
3.0959032 -1.2096595 0.15337592 70 24
3.3955328 -0.83402824 0.080367371 65 23
3.0920367 -1.2087679 0 70 22
3.4002428 -0.83581066 -0.080483429 58 21
3.0954807 -1.21074 -0.15337592 70 20
3.3929617 -0.83466053 -0.23946564 64 19
3.1069715 -1.2164876 -0.29641339 72 18
3.1789322 -0.78217524 -0.37073839 16 17
2.8083572 -1.1004661 -0.41422844 6 16
3.021117 -0.74237132 -0.53631175 4 15
3.0963604 -1.2191354 -0.94233394 66 13
3.4136147 -0.8372432 -0.79700291 65 14
3.0869825 -1.2191392 -1.1359359 27 12
2.9030509 -0.705513 -1.1941527 10 11
0.79813647 -0.31617212 -0.43735108 7 9
2.5321922 -0.61342883 -1.2074189 11 10
0.72228372 -0.2872811 -0.44874069 8 8
0.68003744 -0.16373715 -0.44979683 9 7
0.57895947 -0.2317518 -0.44832867 12 6
0.56112611 -0.13337669 -0.45874804 13 5
0.46465662 -0.18765585 -0.44570053 9 4
0.44455287 -0.10433344 -0.44758025 9 3
0.19140735 -0.076441109 -0.20225659 3 2
nan nan nan 0 1
nan nan nan 0 0
3.3664737 -0.83008999 0.91586071 57 31
3.0771046 -1.2152827 0.75754958 62 30
3.3698444 -0.8340131 0.66303366 60 29
3.076797 -1.213939 0.51190692 67 28
3.3815169 -0.83999985 0.42108792 64 27
3.0789938 -1.2148205 0.31304619 67 26
3.3834217 -0.84171909 0.24015255 64 25
3.0895526 -1.2190011 0.15325947 70 24
3.3854721 -0.84347606 0.080193289 64 23
3.0856867 -1.2180954 0 70 22
3.3924534 -0.84646785 -0.080367371 65 21
3.0914488 -1.2209984 -0.15337592 70 20
3.3877549 -0.84530532 -0.23929299 64 19
3.0980768 -1.2254908 -0.29596633 71 18
3.1835515 -0.79451156 -0.3715913 13 17
2.7929902 -1.1056967 -0.41250822 6 16
3.0425408 -0.75832289 -0.54060566 4 15
3.0900679 -1.228507 -0.9416461 66 13
3.3988459 -0.84621853 -0.79421228 59 14
3.0807285 -1.2284926 -1.1351186 28 12
2.9005706 -0.71564221 -1.1941527 10 11
0.79702795 -0.31895626 -0.43735108 7 9
2.5257483 -0.62074679 -1.2052932 11 10
0.71532822 -0.28738886 -0.44486105 8 8
0.68150389 -0.16647464 -0.45119807 9 7
0.57998782 -0.23452446 -0.44984332 12 6
0.55880004 -0.13489626 -0.45713273 13 5
0.4690074 -0.19135131 -0.45088306 9 4
0.44585642 -0.10627086 -0.44939968 8 3
0.18667077 -0.075234026 -0.19653235 3 2
nan nan nan 0 1
nan nan nan 0 0
3.3612118 -0.84125125 0.91521615 57 31
3.0660589 -1.223304 0.75585866 62 30
3.3669128 -0.84577101 0.66303366 64 29
3.0702469 -1.2237555 0.51152056 67 28
3.3713441 -0.84998345 0.4201791 63 27
3.0724235 -1.2246377 0.31280831 67 26
3.3683705 -0.85048014 0.23928495 64 25
3.0806401 -1.2279258 0.15302655 70 24
3.3726642 -0.85343319 0.079961181 65 23
3.0790942 -1.2279315 0 70 22
3.3846316 -0.85708094 -0.080251321 65 21
3.0846341 -1.2313936 -0.15325947 71 20
3.3751111 -0.85468352 -0.23860238 65 19
3.0891569 -1.2344466 -0.29551923 72 18
3.173394 -0.80434912 -0.37073839 10 17
2.7914121 -1.1163604 -0.41285229 6 16
3.039741 -0.76946938 -0.54060566 5 15
3.0833149 -1.2389269 -0.9409582 66 13
3.3911455 -0.85688692 -0.79309607 57 14
3.0674422 -1.236237 -1.1318498 28 12
2.8956795 -0.72570705 -1.1932154 10 11
0.7959097 -0.32173645 -0.43735108 8 9
2.5256522 -0.63054585 -1.2063559 11 10
0.71427006 -0.29000872 -0.44486105 7 8
0.67887777 -0.16848066 -0.44979683 8 7
0.57544822 -0.23512894 -0.44681406 12 6
0.56201279 -0.13783368 -0.46036333 13 5
0.46496892 -0.1916737 -0.44742805 9 4
0.44212583 -0.1071195 -0.44576085 8 3
0.18045767 -0.073364712 -0.18890002 3 2
nan nan nan 0 1
nan nan nan 0 0
3.3487399 -0.85119176 0.91263807 59 31
3.05478 -1.2317963 0.75416774 63 30
3.356653 -0.85629034 0.66161287 63 29
3.0588698 -1.232227 0.51036155 66 28
3.3609927 -0.86049306 0.41927031 65 27
3.0656064 -1.2349591 0.31257039 67 26
3.3700628 -0.86405545 0.23963198 64 25
3.0714872 -1.2373393 0.15279363 70 24
3.3599794 -0.86272126 0.079729073 65 23
3.0722547 -1.2382724 0 70 22
3.3717833 -0.86699766 -0.080019213 64 21
3.075686 -1.2402823 -0.15302655 71 20
3.36954 -0.86642879 -0.23842974 64 19
3.0799954 -1.2438927 -0.29507217 72 18
3.1705668 -0.81542146 -0.37073839 9 17
2.7964821 -1.1303023 -0.41422844 6 16
3.0919123 -0.79412413 -0.55048168 6 15
3.076745 -1.2487767 -0.94027042 67 13
3.38326 -0.86810237 -0.79197979 60 14
3.0631082 -1.2469369 -1.1318498 30 12
2.8953753 -0.7363798 -1.1941527 10 11
0.80289185 -0.32801417 -0.44204116 7 9
2.5256295 -0.63991171 -1.2074189 11 10
0.71523029 -0.29331827 -0.44615427 7 8
0.68029517 -0.1713471 -0.45119807 9 7
0.57645935 -0.23790245 -0.44832867 12 6
0.55782044 -0.13889147 -0.45713273 13 5
0.46429703 -0.19329558 -0.44742805 9 4
0.44675222 -0.10985681 -0.45121911 9 3
0.17573248 -0.072118945 -0.18317579 3 2
nan nan nan 0 1
nan nan nan 0 0
3.3387303 -0.86107117 0.91070455 58 31
3.0527167 -1.2433722 0.75473136 62 30
3.3465128 -0.86616194 0.66019207 62 29
3.0522628 -1.2419645 0.50997519 66 28
3.353164 -0.87097549 0.4186644 63 27
3.0566683 -1.2437736 0.31209466 68 26
3.3549559 -0.87268329 0.23876438 62 25
3.064837 -1.2471105 0.15267718 71 24
3.3569474 -0.87444448 0.079729073 66 23
3.0632842 -1.2471008 0 70 22
3.3638988 -0.87750375 -0.079903156 65 21
3.0667136 -1.2491238 -0.15279363 71 20
3.3592539 -0.87630194 -0.23791179 64 19
3.0664151 -1.2508682 -0.29417801 72 18
3.1460669 -0.82085663 -0.36817962 21 17
2.8154376 -1.149433 -0.41766885 6 16
3.1224937 -0.8135801 -0.55649322 7 15
3.0701439 -1.2585957 -0.93958259 67 13
3.3754919 -0.87868255 -0.79086357 63 14
3.0587368 -1.2576214 -1.1318498 30 12
2.8927875 -0.74648201 -1.1941527 10 11
0.79154837 -0.32657576 -0.43617857 7 9
2.5189962 -0.64760149 -1.2052932 11 10
0.71815032 -0.29746309 -0.44874069 7 8
0.6716612 -0.17170179 -0.44559309 9 7
0.56829441 -0.23682255 -0.44227016 13 6
0.55362761 -0.13992168 -0.4539021 12 5
0.46195737 -0.19420581 -0.44570053 9 4
0.44969854 -0.11222365 -0.45485798 9 3
0.1695485 -0.070168965 -0.17554346 3 2
nan nan nan 0 1
nan nan nan 0 0
3.3358562 -0.87213808 0.91070455 58 31
3.0395684 -1.2497776 0.75247675 64 30
3.3388729 -0.87601221 0.65924489 62 29
3.0435593 -1.2501992 0.50920248 66 28
3.347857 -0.88146001 0.41836146 66 27
3.047924 -1.2520087 0.31161889 69 26
3.349632 -0.88316989 0.23859087 64 25
3.0583751 -1.2563165 0.15256071 71 24
3.3467786 -0.88366282 0.079554997 65 23
3.0545082 -1.2553483 0 71 22
3.356137 -0.88737971 -0.079787105 65 21
3.0602455 -1.2583354 -0.15267718 71 20
3.3490951 -0.88552934 -0.23739384 65 19
3.0691555 -1.2638789 -0.29484862 71 18
3.1577377 -0.83508408 -0.36988544 28 17
2.8642511 -1.180503 -0.42558187 7 16
3.1340687 -0.82769245 -0.55906951 8 15
3.0637331 -1.2678493 -0.93889475 67 13
3.3749161 -0.89049113 -0.79142165 67 14
3.0458236 -1.2641289 -1.1285808 31 12
2.8880529 -0.75548613 -1.1932154 10 11
0.79249692 -0.33005339 -0.43735108 7 9
2.516835 -0.65595126 -1.2052932 11 10
0.70730323 -0.29568538 -0.44227466 7 8
0.67911309 -0.1759737 -0.45119807 9 7
0.57116628 -0.24026325 -0.44529942 12 6
0.55316067 -0.1417568 -0.4539021 12 5
0.4613108 -0.19573665 -0.44570053 9 4
0.45098883 -0.11412385 -0.45667741 9 3
0.16191158 -0.067502551 -0.16600306 3 2
nan nan nan 0 1
nan nan nan 0 0
3.3281212 -0.88254219 0.90941548 58 31
3.0374362 -1.2613156 0.75304037 64 30
3.3334222 -0.88703215 0.65877134 63 29
3.0346153 -1.2589197 0.50842983 66 28
3.3375657 -0.89122534 0.41745263 66 27
3.0412371 -1.2616851 0.31138104 67 26
3.339299 -0.8929292 0.23807029 63 25
3.0493593 -1.2650677 0.15232781 70 24
3.3411026 -0.89527828 0.079496965 67 23
3.0477991 -1.2650429 0 71 22
3.3481898 -0.89779806 -0.079671048 63 21
3.0510018 -1.2676238 -0.15244426 72 20
3.3459835 -0.89721441 -0.23739384 65 19
3.0601282 -1.2726693 -0.29440156 72 18
3.1666527 -0.84986228 -0.37130699 28 17
2.8852522 -1.200979 -0.42936635 6 16
3.1429112 -0.84235275 -0.56121653 8 15
3.0590656 -1.2790698 -0.93889475 67 13
3.3623691 -0.89975339 -0.78918916 66 14
3.0389915 -1.2743686 -1.1277636 31 12
2.889746 -0.76725197 -1.1950902 10 11
0.78524125 -0.33023271 -0.43383348 7 9
2.5187902 -0.6663245 -1.2074189 11 10
0.70621473 -0.29827577 -0.44227466 7 8
0.67445487 -0.17742413 -0.44839555 8 7
0.5666272 -0.24078417 -0.44227016 13 6
0.54893929 -0.14284134 -0.45067149 12 5
0.45727608 -0.19598435 -0.44224548 9 4
0.45056751 -0.11577604 -0.45667741 9 3
0.15723976 -0.066114865 -0.16027881 3 2
nan nan nan 0 1
nan nan nan 0 0
3.3225315 -0.89410847 0.90877098 58 31
3.0283024 -1.2705523 0.75191313 64 30
3.320667 -0.89669085 0.65687692 62 29
3.0299807 -1.2700335 0.50842983 67 28
3.3222983 -0.90021563 0.41593793 64 27
3.0320032 -1.2708961 0.31090528 67 26
3.3360038 -0.90516233 0.23807029 63 25
3.0377944 -1.2733347 0.15197842 70 24
3.3331323 -0.90562814 0.079380907 67 23
3.0385327 -1.2742685 0 70 22
3.3376405 -0.90810049 -0.079496965 66 21
3.041954 -1.2763305 -0.15221134 64 20
3.3354514 -0.90751278 -0.23687588 66 19
3.050853 -1.2819444 -0.29395446 72 18
3.2331831 -0.87977183 -0.37955195 16 17
2.9150598 -1.2259694 -0.43452701 7 16
3.1447058 -0.85460651 -0.56207532 9 15
3.0523686 -1.2888038 -0.93820691 67 13
3.3519921 -0.91016048 -0.78751481 66 14
3.0323498 -1.2840463 -1.1269464 31 12
2.8892884 -0.77793497 -1.1960274 10 11
0.78402561 -0.33310854 -0.43383348 7 9
2.5120766 -0.67394435 -1.2052932 11 10
0.70713454 -0.30158469 -0.44356787 8 8
0.66982633 -0.17872587 -0.44559309 8 7
0.56578332 -0.24276061 -0.44227016 14 6
0.55767429 -0.14714374 -0.45874804 12 5
0.46155295 -0.19975933 -0.44742805 9 4
0.45182255 -0.11776957 -0.45849684 8 3
nan nan nan 0 2
nan nan nan 0 1
nan nan nan 0 0
3.3170593 -0.90506667 0.90812647 58 31
3.0193648 -1.2792119 0.75078577 64 30
3.317517 -0.90827674 0.65687692 60 29
3.0209811 -1.2786738 0.50765711 66 28
3.3191357 -0.91180706 0.41593793 64 27
3.0229664 -1.279529 0.31042951 68 26
3.3232036 -0.91416258 0.23737621 63 25
3.0333312 -1.2839309 0.15197842 71 24
3.3227208 -0.9152714 0.079206832 66 23
3.0340662 -1.2848673 0 70 22
3.3320405 -0.9190827 -0.07943894 65 21
3.0351815 -1.2859654 -0.15209487 66 20
3.3274539 -0.91782725 -0.23653059 65 19
3.0463595 -1.2925861 -0.29395446 72 18
3.3187013 -0.91542608 -0.39007136 45 17
2.9358261 -1.2468021 -0.43831149 7 16
3.1535778 -0.86884022 -0.56422228 12 15
3.0412202 -1.2966182 -0.9361434 68 13
3.3464446 -0.92121047 -0.78695667 67 14
3.0256772 -1.2936929 -1.1261293 31 12
2.8820827 -0.78679883 -1.1941527 10 11
0.79096484 -0.33934805 -0.43852359 7 9
2.5118928 -0.68330085 -1.2063559 11 10
0.70411515 -0.30319875 -0.44227466 8 8
0.67520052 -0.18266106 -0.44979683 9 7
0.57039779 -0.24712864 -0.44681406 12 6
0.5553115 -0.14860563 -0.45713273 11 5
0.46911302 -0.20503137 -0.45606562 9 4
0.44642735 -0.11806423 -0.45303854 8 3
nan nan nan 0 2
nan nan nan 0 1
nan nan nan 0 0
3.3115516 -0.91599762 0.90748197 58 31
3.0104036 -1.2878246 0.74965847 64 30
3.3119605 -0.91919672 0.6564033 60 29
3.0119579 -1.2872667 0.50688446 66 28
3.3111506 -0.92205954 0.41533205 63 27
3.0164189 -1.2885672 0.31019166 67 26
3.3175895 -0.925089 0.2372027 64 25
3.0288308 -1.2945113 0.15197842 71 24
3.3195055 -0.92686427 0.079206832 67 23
3.0249665 -1.2934812 0 71 22
3.3241594 -0.92878532 -0.079322889 65 21
3.0283787 -1.2955685 -0.15197842 71 20
3.3194249 -0.92809689 -0.23618528 65 19
3.0329034 -1.2987542 -0.2930603 72 18
3.2891679 -0.91966683 -0.38694397 45 17
2.9794564 -1.2770493 -0.4455364 8 16
3.1481531 -0.87918228 -0.56379288 18 15
3.0344687 -1.3062742 -0.93545556 68 13
3.3410237 -0.93164974 -0.78639853 67 14
3.0168059 -1.3023709 -1.1244948 31 12
2.8816922 -0.79696774 -1.1950902 10 11
0.79388267 -0.34373492 -0.44086865 7 9
2.5116744 -0.69266415 -1.2074189 11 10
0.70506537 -0.306391 -0.44356787 7 8
0.67255998 -0.18447714 -0.44839555 9 7
0.56957519 -0.2490188 -0.44681406 12 6
0.55481565 -0.15044628 -0.45713273 12 5
0.45853293 -0.20215848 -0.44570053 10 4
0.44769242 -0.11997675 -0.45485798 9 3
nan nan nan 0 2
nan nan nan 0 1
nan nan nan 0 0
3.2945368 -0.92307413 0.90361482 57 31
3.0038812 -1.2968335 0.74909484 64 30
3.3018034 -0.92818677 0.65498257 62 29
3.0031378 -1.2952881 0.50611174 67 28
3.3009081 -0.93101883 0.41442323 64 27
3.0096178 -1.2981014 0.30995378 68 26
3.3073015 -0.93405706 0.23668213 64 25
3.0199368 -1.302567 0.1517455 71 24
3.3090339 -0.93640929 0.079032749 67 23
3.0206604 -1.3035053 0 72 22
3.3160863 -0.93902463 -0.079206832 66 21
3.0192544 -1.3041482 -0.1517455 71 20
3.3067284 -0.93638825 -0.23549469 66 19
3.0306363 -1.3103228 -0.29328385 72 18
3.3241806 -0.94194973 -0.3914929 68 17
3.0158741 -1.305172 -0.45172921 14 16
3.1545463 -0.89284182 -0.56551045 24 15
3.0276868 -1.3158993 -0.93476778 67 13
3.3283689 -0.94066215 -0.78416598 69 14
3.0079112 -1.3110026 -1.1228603 31 12
2.8809838 -0.80814832 -1.1960274 10 11
0.78863668 -0.34472406 -0.43852359 7 9
2.5070615 -0.70082033 -1.2063559 11 10
0.69806856 -0.30637473 -0.43968827 7 8
0.6719119 -0.18682368 -0.44839555 8 7
0.5704748 -0.2519156 -0.44832867 11 6
0.54689139 -0.15049182 -0.45067149 11 5
0.4660233 -0.20755742 -0.4543381 9 4
0.43896252 -0.11942261 -0.44576085 8 3
nan nan nan 0 2
nan nan nan 0 1
nan nan nan 0 0
3.2888076 -0.9344846 0.90297025 58 31
2.9991078 -1.3078345 0.74909484 64 30
3.2936566 -0.93893969 0.65403533 63 29
2.9938428 -1.3043102 0.50533909 66 28
3.2950871 -0.94243038 0.41412029 67 27
3.0025589 -1.3081279 0.3097159 68 26
3.2990601 -0.94480282 0.2363351 64 25
3.0128534 -1.3126279 0.15162905 71 24
3.2985365 -0.94589269 0.078858674 67 23
3.0135715 -1.3135674 0 70 22
3.3078167 -0.94979626 -0.079090782 66 21
3.0101066 -1.3126798 -0.15151258 71 20
3.2984786 -0.94712836 -0.2351494 62 19
3.0235322 -1.3204236 -0.2930603 73 18
3.3184843 -0.95286375 -0.39120859 69 17
3.0178752 -1.3191969 -0.45276132 21 16
3.158514 -0.90587938 -0.56679863 28 15
3.0208747 -1.3254925 -0.93407989 67 13
3.3202131 -0.95151561 -0.78304976 68 14
3.0011547 -1.3205411 -1.1220431 30 12
2.8759155 -0.81756818 -1.1950902 10 11
0.7914027 -0.34940696 -0.44086865 7 9
2.5002444 -0.70833814 -1.2042303 10 10
0.70090151 -0.31055549 -0.44227466 7 8
0.66926062 -0.18861431 -0.44699433 9 7
0.56596529 -0.25227094 -0.44529942 12 6
0.55004382 -0.15340622 -0.4539021 12 5
0.46036312 -0.20693381 -0.44915554 9 4
0.44019887 -0.12139878 -0.44758025 8 3
nan nan nan 0 2
nan nan nan 0 1
nan nan nan 0 0
3.2808824 -0.94462574 0.9016813 58 31
2.9856105 -1.314364 0.74684024 64 30
3.2832828 -0.94839239 0.65261459 63 29
2.9892716 -1.3147529 0.50533909 67 28
3.2846253 -0.95185947 0.41321146 64 27
2.9934196 -1.316594 0.30924013 68 26
3.2909503 -0.95492631 0.23598805 65 25
3.0013974 -1.3201159 0.15127967 71 24
3.2952144 -0.95740098 0.078858674 67 23
3.0066803 -1.3230703 0 71 22
3.2972801 -0.95924753 -0.078916699 66 21
3.0032213 -1.3221712 -0.15139613 73 20
3.2903619 -0.95724654 -0.23480408 66 19
3.0166268 -1.3299637 -0.29283676 72 18
3.3103673 -0.9630574 -0.39063999 71 17
3.013252 -1.3297232 -0.45276132 73 16
3.1506016 -0.91552818 -0.56593984 34 15
3.0162296 -1.3360292 -0.93407989 68 13
3.307508 -0.96038812 -0.78081727 69 14
2.9922097 -1.3290877 -1.1204087 31 12
2.8752713 -0.82824147 -1.1960274 10 11
0.78614974 -0.35035858 -0.43852359 7 9
2.4999323 -0.71768355 -1.2052932 11 10
0.69981325 -0.3130002 -0.44227466 7 8
0.66660517 -0.19038872 -0.44559309 9 7
0.56870216 -0.2558921 -0.44832867 11 6
0.55502135 -0.15685408 -0.45874804 11 5
0.46127963 -0.20929496 -0.45088306 9 4
0.43977243 -0.12293462 -0.44758025 8 3
nan nan nan 0 2
nan nan nan 0 1
nan nan nan 0 0
3.2729263 -0.95472294 0.90039223 58 31
2.9854541 -1.326759 0.74796748 64 30
3.2752392 -0.95847201 0.65166736 64 29
2.9824073 -1.3241755 0.50495273 67 28
3.274138 -0.96122718 0.41230264 65 27
2.9867632 -1.3255022 0.30900225 69 26
3.2804174 -0.9643032 0.23546749 64 25
2.9944894 -1.3295697 0.15116321 70 24
3.287056 -0.96748954 0.078742616 67 23
2.9997597 -1.3325411 0 71 22
3.2868872 -0.96806318 -0.078742616 66 21
2.994025 -1.3306149 -0.15116321 72 20
3.2870004 -0.9687261 -0.23480408 66 19
3.0099258 -1.3389465 -0.29261324 73 18
3.3022194 -0.97320592 -0.39007136 69 17
3.004303 -1.3376908 -0.45207322 75 16
3.1473866 -0.92652029 -0.56593984 39 15
3.0093539 -1.345567 -0.93339205 67 13
3.3043051 -0.97135097 -0.78081727 68 14
2.9832416 -1.3375882 -1.1187742 31 12
2.8702836 -0.83712476 -1.1950902 10 11
0.78900605 -0.35478574 -0.44086865 7 9
2.4974117 -0.72640556 -1.2052932 11 10
0.70071876 -0.31620538 -0.44356787 7 8
0.66593653 -0.19271445 -0.44559309 9 7
0.56604284 -0.25694704 -0.44681406 11 6
0.54898685 -0.15714668 -0.4539021 12 5
0.4589439 -0.21006259 -0.44915554 8 4
0.44101518 -0.12484816 -0.44939968 8 3
nan nan nan 0 2
nan nan nan 0 1
nan nan nan 0 0
3.2674253 -0.96488875 0.89974773 58 31
2.9765949 -1.3346559 0.74684024 65 30
3.2673345 -0.96793681 0.65072018 64 29
2.9689863 -1.3300129 0.50340736 66 28
3.2685533 -0.97137421 0.4119997 66 27
2.9821181 -1.3359199 0.30900225 68 26
3.2772017 -0.97517616 0.23546749 64 25
2.9900639 -1.3394924 0.15116321 70 24
3.2814338 -0.97767252 0.078684591 68 23
2.9976051 -1.3435053 0 71 22
3.2786968 -0.97810507 -0.078626558 66 21
2.9850402 -1.3384895 -0.1509303 72 20
3.2789891 -0.97819847 -0.23445879 66 19
3.0006921 -1.3474019 -0.29216614 71 18
3.2942128 -0.98273456 -0.38950276 69 17
2.9973574 -1.3471529 -0.45172921 72 16
3.1726267 -0.94537085 -0.57109255 44 15
2.9939244 -1.3505899 -0.92995286 68 13
3.2938864 -0.98079801 -0.77914292 68 14
2.9787898 -1.3474736 -1.1187742 31 12
2.8673444 -0.84713882 -1.1950902 10 11
0.78374672 -0.35570154 -0.43852359 7 9
2.499332 -0.73595726 -1.2074189 11 10
0.70155501 -0.31954244 -0.44486105 7 8
0.66529375 -0.19492173 -0.44559309 8 7
0.56514245 -0.25892133 -0.44681406 11 6
0.55210555 -0.16010624 -0.45713273 11 5
0.4614808 -0.21319649 -0.45261058 9 4
0.43892547 -0.1259252 -0.44758025 8 3
nan nan nan 0 2
nan nan nan 0 1
nan nan nan 0 0
3.2594078 -0.97490734 0.89845866 59 31
2.9696994 -1.344032 0.74627656 64 30
3.256881 -0.97722471 0.64929938 62 29
2.9688251 -1.3424069 0.50418001 67 28
3.2627659 -0.98206413 0.41169676 65 27
2.9751699 -1.3452945 0.30876437 68 26
3.2618353 -0.98302013 0.23459989 65 25
2.9808204 -1.3478607 0.1509303 72 24
3.2730422 -0.98825163 0.078568533 66 23
2.988343 -1.3518968 0 72 22
3.2680838 -0.98738056 -0.078452483 64 21
2.9823883 -1.3504528 -0.15104675 73 20
3.2755547 -0.98963827 -0.23445879 68 19
2.9982376 -1.3588973 -0.29238969 70 18
3.2858326 -0.99336761 -0.38893414 70 17
2.9903822 -1.3565829 -0.45138514 72 16
3.185648 -0.96196413 -0.57409829 45 15
2.9889538 -1.361554 -0.92995286 68 13
3.2857752 -0.99088603 -0.77802664 70 14
2.9716823 -1.3573992 -1.117957 29 12
2.8642201 -0.85764247 -1.1950902 10 11
0.78049541 -0.35751006 -0.43735108 7 9
2.4879417 -0.74253297 -1.2031674 10 10
0.69649714 -0.32031134 -0.44227466 7 8
0.6725232 -0.19968459 -0.45119807 9 7
0.57139653 -0.26436076 -0.45287254 11 6
0.55151498 -0.16212873 -0.45713273 10 5
0.46069634 -0.21488647 -0.45261058 9 4
0.4401105 -0.12800078 -0.44939968 8 3
nan nan nan 0 2
nan nan nan 0 1
nan nan nan 0 0
3.2535005 -0.98614818 0.89781415 59 31
2.9603243 -1.3528796 0.74514925 65 30
3.2485793 -0.98773044 0.64835221 61 29
2.9571466 -1.350197 0.503021 67 28
3.2567704 -0.99329388 0.41139382 65 27
2.9702194 -1.3561898 0.30876437 68 26
3.2582107 -0.99496871 0.23459989 64 25
2.9758601 -1.3587769 0.1509303 70 24
3.2647913 -0.99821246 0.078452483 64 23
2.985641 -1.3638809 0 71 22
3.2596619 -0.99789232 -0.078336433 65 21
2.9753857 -1.3598156 -0.1509303 72 20
3.2719054 -1.0016372 -0.23445879 67 19
2.9909735 -1.3688396 -0.29216614 72 18
3.2775943 -1.0033807 -0.38836554 70 17
2.9808891 -1.3654686 -0.45069703 71 16
3.1964052 -0.97738874 -0.57667464 54 15
2.986366 -1.3729846 -0.9306407 67 13
3.2751281 -1.000791 -0.77635229 69 14
2.9604914 -1.364792 -1.1155053 30 12
2.8656456 -0.86897647 -1.1969647 10 11
0.78118134 -0.3613008 -0.43852359 7 9
2.4896681 -0.75251806 -1.2052932 10 10
0.69731259 -0.3236475 -0.44356787 7 8
0.6638819 -0.19967744 -0.44559309 9 7
0.56147635 -0.26210997 -0.44529942 11 6
0.54361975 -0.16191204 -0.45067149 11 5
0.45994338 -0.21649329 -0.45261058 9 4
0.43801314 -0.12906282 -0.44758025 7 3
nan nan nan 0 2
nan nan nan 0 1
nan nan nan 0 0
3.2431092 -0.99537796 0.89588058 59 31
2.953373 -1.3621832 0.74458563 65 30
3.2451117 -0.99906409 0.64835221 64 29
2.954658 -1.3615463 0.50340736 67 28
3.2509115 -1.0039254 0.41109088 65 27
2.9632075 -1.3655065 0.30852649 69 26
3.2499516 -1.004866 0.23425286 65 25
2.9688315 -1.3681097 0.15081383 70 24
3.2588987 -1.0088651 0.07839445 64 23
2.9740534 -1.3711497 0 71 22
3.2537711 -1.0085263 -0.0782784 67 21
2.9683542 -1.3691459 -0.15081383 72 20
3.2612407 -1.0108421 -0.23394082 67 19
2.983917 -1.3782262 -0.2919426 72 18
3.266953 -1.0126145 -0.38751259 69 17
2.9716105 -1.3737843 -0.45000899 72 16
3.2212124 -0.99725997 -0.58182734 63 15
2.9750168 -1.3803613 -0.92857724 67 13
3.2669578 -1.0107801 -0.77523601 69 14
2.9557092 -1.3751178 -1.1155053 31 12
2.8559465 -0.87693906 -1.1941527 10 11
0.77791721 -0.36308599 -0.43735108 7 9
2.4956839 -0.76384431 -1.2095447 9 10
0.69424397 -0.32516596 -0.44227466 7 8
0.66516376 -0.20258887 -0.44699433 9 7
0.56594539 -0.26663336 -0.44984332 11 6
0.55036968 -0.16597505 -0.45713273 11 5
0.46081311 -0.21888143 -0.4543381 8 4
0.4408524 -0.13154939 -0.45121911 8 3
nan nan nan 0 2
nan nan nan 0 1
nan nan nan 0 0
3.2350008 -1.0052624 0.89459157 58 31
2.9441853 -1.3704255 0.74345827 65 30
3.2298839 -1.0067418 0.64598423 62 29
2.9454095 -1.3697656 0.50263464 68 28
3.2473872 -1.0152673 0.41109088 65 27
2.9564071 -1.374275 0.30828863 68 26
3.2392819 -1.0139743 0.23373228 65 25
2.9617743 -1.3774098 0.15069738 71 24
3.2482009 -1.0179976 0.078220375 64 23
2.9647169 -1.3794104 0 70 22
3.2480233 -1.0185645 -0.078220375 65 21
2.9635568 -1.379499 -0.15081383 70 20
3.2576921 -1.0222198 -0.23394082 66 19
2.9793303 -1.3881135 -0.2919426 72 18
3.2562869 -1.0217865 -0.38665965 69 17
2.9670386 -1.383631 -0.45000899 72 16
3.2200625 -1.0092329 -0.58225673 63 15
2.97018 -1.3907377 -0.92857724 66 13
3.2589357 -1.0201555 -0.77411979 68 14
2.9466152 -1.3834156 -1.113871 32 12
2.8552368 -0.88709068 -1.1950902 10 11
0.78269404 -0.36850175 -0.44086865 7 9
2.49084 -0.77188361 -1.2084818 9 10
0.69702506 -0.32930651 -0.44486105 7 8
0.66049087 -0.20370507 -0.44419184 9 7
0.55430037 -0.26334283 -0.44075555 11 6
0.54433286 -0.16615622 -0.45228681 10 5
0.45358235 -0.21725093 -0.44742805 9 4
0.44205832 -0.13349526 -0.45303854 8 3
nan nan nan 0 2
nan nan nan 0 1
nan nan nan 0 0
3.2293444 -1.0152617 0.89394706 60 31
2.9396243 -1.3801812 0.74345827 65 30
3.2241864 -1.0167106 0.64551067 64 29
2.9386158 -1.378475 0.50224835 68 28
3.2416363 -1.0252837 0.41078794 65 27
2.9493394 -1.3835278 0.30805075 69 26
3.2359018 -1.0247107 0.23373228 65 25
2.9549301 -1.3861617 0.15058091 72 24
3.2448072 -1.0287634 0.078220375 67 23
2.9601262 -1.3892341 0 71 22
3.2372999 -1.0276326 -0.078046292 67 21
2.9589658 -1.3893189 -0.15081383 71 20
3.2495294 -1.0315113 -0.23359554 66 19
2.972214 -1.3974439 -0.29171908 73 18
3.2505131 -1.0318292 -0.38637537 69 17
2.955471 -1.3908118 -0.44897681 71 16
3.2425284 -1.0280746 -0.5869801 69 15
2.9612069 -1.3985236 -0.92720151 67 13
2.7604272 -0.87509513 -0.65523911 7 14
2.9398768 -1.3921666 -1.1130537 32 12
2.8366425 -0.89219761 -1.1885288 10 11
0.77741951 -0.36932564 -0.43852359 7 9
2.4861071 -0.77946448 -1.2074189 7 10
0.69201463 -0.32988396 -0.44227466 7 8
0.65981174 -0.20589422 -0.44419184 9 7
0.55337781 -0.2652761 -0.44075555 10 6
0.54192376 -0.16750126 -0.45067149 11 5
0.45444405 -0.21962792 -0.44915554 9 4
0.44487548 -0.13601831 -0.45667741 8 3
nan nan nan 0 2
nan nan nan 0 1
nan nan nan 0 0
3.2211759 -1.0250664 0.892658 60 31
2.9281876 -1.387301 0.74176735 64 30
3.2206178 -1.0279589 0.64551067 65 29
2.9315543 -1.387666 0.50186199 68 28
3.2309456 -1.0343283 0.40987912 65 27
2.9444921 -1.3938144 0.30805075 69 26
3.2275541 -1.0344808 0.23338525 66 25
2.9478171 -1.395398 0.15046446 71 24
3.2314939 -1.0375998 0.077988267 67 23
2.9552588 -1.3995583 0 72 22
3.2336929 -1.0389266 -0.078046292 63 21
2.949342 -1.3980124 -0.15058091 72 20
3.2364089 -1.0398034 -0.23290494 68 19
2.9628201 -1.4056728 -0.29127198 72 18
3.2419794 -1.0422192 -0.38580674 68 17
2.9528346 -1.4021835 -0.44932088 73 16
3.2317019 -1.0376984 -0.58569187 69 15
2.9517233 -1.4072958 -0.92582589 67 13
2.7318246 -0.87655783 -0.64909971 5 14
2.9347546 -1.4029324 -1.1130537 33 12
2.8046379 -0.89346832 -1.1763437 6 11
0.77612561 -0.37203711 -0.43852359 7 9
2.4832332 -0.78857136 -1.2074189 5 10
0.68695092 -0.33055034 -0.43968827 7 8
0.657076 -0.20769514 -0.44279063 9 7
0.56133556 -0.27167141 -0.44832867 10 6
0.54860151 -0.17172931 -0.45713273 12 5
0.44877627 -0.21888918 -0.443973 9 4
0.44109175 -0.13665511 -0.45303854 8 3
nan nan nan 0 2
nan nan nan 0 1
nan nan nan 0 0
3.2104986 -1.0346482 0.89072448 61 31
2.9230831 -1.3980241 0.74176735 64 30
3.2121558 -1.0382496 0.64456344 65 29
2.9242208 -1.3973348 0.50147563 68 28
3.2200491 -1.0438727 0.4089703 64 27
2.9371192 -1.4035226 0.30781287 68 26
3.2237408 -1.0463035 0.23338525 66 25
2.9426832 -1.4061929 0.15046446 72 24
3.2254748 -1.0481029 0.077930234 67 23
2.9433453 -1.4071411 0 71 22
3.2274861 -1.0500003 -0.077988267 63 21
2.9444442 -1.4082991 -0.15058091 72 20
3.2325759 -1.0516585 -0.23290494 66 19
2.9554033 -1.4154456 -0.29104847 73 18
3.2288713 -1.0504626 -0.38466951 70 17
2.9432111 -1.410853 -0.44863281 72 16
3.2257173 -1.0482135 -0.58526254 67 15
2.9424624 -1.4155037 -0.92445022 68 13
2.7401848 -0.89031959 -0.65189034 3 14
2.9255848 -1.4111122 -1.1114192 33 12
2.7286892 -0.87984729 -1.1454118 4 11
0.77674162 -0.37584648 -0.4396961 7 9
nan nan nan 0 10
0.68963635 -0.33482742 -0.44227466 6 8
0.66029596 -0.21123333 -0.44559309 9 7
0.553249 -0.27010918 -0.44227016 10 6
0.53888941 -0.17080776 -0.44905618 12 5
0.44800946 -0.22045437 -0.443973 9 4
0.44389075 -0.13919826 -0.45667741 8 3
nan nan nan 0 2
nan nan nan 0 1
nan nan nan 0 0
3.2045705 -1.0451013 0.89007992 60 31
2.9137995 -1.4060988 0.74063998 65 30
3.1968436 -1.0456487 0.64219546 62 29
2.9193251 -1.4075338 0.50147563 68 28
3.2140274 -1.0543346 0.40866736 65 27
2.9324486 -1.4132549 0.30781287 68 26
3.2153287 -1.055997 0.2330382 68 25
2.9355078 -1.41537 0.15034801 71 24
3.2217968 -1.0593555 0.077930234 67 23
2.9406667 -1.4184945 0 72 22
3.2216117 -1.0599177 -0.077930234 60 21
2.9395101 -1.4185684 -0.15058091 73 20
3.2194073 -1.0598232 -0.23221435 68 19
2.948452 -1.4241537 -0.29082492 73 18
3.2275448 -1.062502 -0.38495383 70 17
2.9407446 -1.4216845 -0.44897681 72 16
2.7984672 -0.92053133 -0.50754237 8 15
2.9418268 -1.4278682 -0.92582589 68 13
3.110059 -1.021553 -0.74174851 20 14
2.9185176 -1.4202806 -1.110602 34 12
2.7610221 -0.90035629 -1.1604091 4 11
0.76954609 -0.37549877 -0.43617857 7 9
nan nan nan 0 10
0.68852216 -0.33711249 -0.44227466 7 8
0.6595546 -0.21353695 -0.44559309 8 7
0.55413103 -0.27282822 -0.44378477 11 6
0.53832 -0.17259385 -0.44905618 12 5
0.45373368 -0.22518669 -0.45088306 9 4
0.44342673 -0.14066948 -0.45667741 8 3
nan nan nan 0 2
nan nan nan 0 1
nan nan nan 0 0
3.1942034 -1.0534577 0.8881464 59 31
2.9069316 -1.4146864 0.74007642 65 30
3.1933587 -1.056244 0.64219546 63 29
2.9102008 -1.4150437 0.50070292 67 28
3.2058015 -1.0634277 0.40806144 64 27
2.9252603 -1.4223926 0.30757499 68 26
3.2094421 -1.0658695 0.23286469 65 25
2.9307981 -1.4250968 0.15034801 72 24
3.2111495 -1.067673 0.077756159 67 23
2.9336991 -1.4271431 0 71 22
3.2202642 -1.0719445 -0.077988267 67 21
2.9303005 -1.4261197 -0.15034801 72 20
3.2158749 -1.0704933 -0.23221435 68 19
2.9367497 -1.4311601 -0.29015431 72 18
3.2145746 -1.070068 -0.3838166 69 17
2.92909 -1.4286798 -0.4479447 72 16
2.7790363 -0.92437875 -0.50453669 9 15
2.9349177 -1.4365578 -0.92513806 69 13
3.1596758 -1.0500391 -0.75458539 43 14
2.9116714 -1.4289085 -1.1097848 34 12
2.7424512 -0.90491867 -1.1538477 6 11
0.77218717 -0.38014412 -0.43852359 7 9
nan nan nan 0 10
0.68925649 -0.34046745 -0.44356787 7 8
0.66081297 -0.21635927 -0.44699433 9 7
0.55495292 -0.27565297 -0.44529942 11 6
0.54316813 -0.17621033 -0.4539021 12 5
0.44649854 -0.22349875 -0.443973 9 4
0.43966118 -0.1411899 -0.45303854 8 3
nan nan nan 0 2
nan nan nan 0 1
nan nan nan 0 0
3.1859231 -1.0630755 0.88685733 61 31
2.8997903 -1.4237498 0.73951274 64 30
3.1849952 -1.06583 0.64124829 65 29
2.9052434 -1.4251935 0.50070292 67 28
3.1973634 -1.0730358 0.40745559 65 27
2.9202776 -1.432595 0.30757499 68 26
3.2033374 -1.0762734 0.23269117 66 25
2.9235647 -1.4342171 0.15023154 70 24
3.2001066 -1.0770487 0.077582076 66 23
2.9242122 -1.4351689 0 72 22
3.2093954 -1.0807911 -0.077814184 65 21
2.9250536 -1.4368502 -0.15034801 73 20
3.2050261 -1.0793296 -0.2316964 66 19
2.936204 -1.4436029 -0.29060137 73 18
3.2106314 -1.0818428 -0.3838166 70 17
2.921864 -1.4378006 -0.44760063 72 16
2.7896378 -0.93926173 -0.50711298 4 15
2.9231701 -1.4441071 -0.92307454 68 13
3.0196757 -1.0153456 -0.72165596 51 14
2.9000654 -1.4364202 -1.1073331 34 12
2.7699006 -0.92521673 -1.1669704 5 11
0.76888072 -0.38184962 -0.43735108 7 9
0.9192487 -0.30784416 -0.43896481 5 10
0.6841805 -0.34107009 -0.44098148 6 8
0.66591913 -0.22071053 -0.45119807 9 7
0.55393887 -0.27768511 -0.44529942 10 6
0.54433447 -0.17878611 -0.45551741 11 5
0.44728491 -0.22595724 -0.44570053 9 4
0.4358727 -0.14176182 -0.44939968 8 3
nan nan nan 0 2
nan nan nan 0 1
nan nan nan 0 0
3.1751382 -1.0724317 0.88492376 61 31
2.8945525 -1.4343685 0.73951274 65 30
3.1764164 -1.0759249 0.64030105 63 29
2.9000003 -1.4358323 0.50070292 67 28
3.1863582 -1.0823584 0.40654677 65 27
2.9060888 -1.4388655 0.30662349 68 26
3.1922855 -1.0856031 0.23217061 66 25
2.9182885 -1.4449228 0.15023154 71 24
3.1915946 -1.086605 0.077466018 67 23
2.9144537 -1.4436548 0 71 22
3.2006798 -1.0909375 -0.077698126 59 21
2.9177837 -1.4459414 -0.15023154 72 20
3.196326 -1.0894635 -0.23135109 66 19
2.9264336 -1.4521382 -0.29015431 73 18
3.2021322 -1.0914441 -0.38324797 68 17
2.9165742 -1.4485002 -0.44760063 73 16
nan nan nan 0 15
2.9138105 -1.4521548 -0.92169887 69 13
3.2074628 -1.0914217 -0.7679804 69 14
2.8950338 -1.4465345 -1.1073331 34 12
2.773243 -0.93709987 -1.1697823 6 11
0.76944715 -0.38565999 -0.43852359 7 9
0.9203136 -0.3117713 -0.44002765 6 10
0.68489414 -0.34442359 -0.44227466 6 8
0.66121346 -0.22173281 -0.44839555 8 7
0.55119503 -0.27871221 -0.44378477 10 6
0.54733455 -0.18187004 -0.45874804 11 5
0.44649348 -0.22751719 -0.44570053 8 4
0.43047863 -0.14170749 -0.44394141 8 3
nan nan nan 0 2
nan nan nan 0 1
nan nan nan 0 0
3.1713755 -1.0835085 0.88492376 60 31
2.8873501 -1.4433732 0.73894906 65 30
3.1703184 -1.0862122 0.63982749 63 29
2.8927617 -1.4448413 0.50031662 68 28
3.1802132 -1.0926696 0.40624383 64 27
2.9010484 -1.449001 0.30662349 69 26
3.1861179 -1.0959303 0.23199709 66 25
2.9132266 -1.4551008 0.15023154 71 24
3.1854181 -1.096927 0.077408001 66 23
2.9093966 -1.4538192 0 71 22
3.1897619 -1.0996646 -0.077524051 67 21
2.9127185 -1.4561175 -0.15023154 73 20
3.1854284 -1.0981807 -0.23083314 66 19
2.9213467 -1.4623445 -0.29015431 74 18
3.1936054 -1.1009995 -0.38267937 67 17
2.904861 -1.4553403 -0.44656852 73 16
3.1766522 -1.0939478 -0.57968044 67 15
2.9087238 -1.462317 -0.92169887 69 13
3.1529274 -1.085201 -0.75570166 69 14
2.8878577 -1.4555664 -1.106516 34 12
2.8160233 -0.96247548 -1.1894661 7 11
0.76612854 -0.3873418 -0.43735108 7 9
0.91921973 -0.31498191 -0.44002765 7 10
0.67797273 -0.34389025 -0.43839508 6 8
0.66632527 -0.2260114 -0.45259929 8 7
0.55375493 -0.28245658 -0.44681406 10 6
0.54126132 -0.18198307 -0.4539021 11 5
0.44249099 -0.22740492 -0.44224548 9 4
0.43487242 -0.1448013 -0.44939968 8 3
nan nan nan 0 2
nan nan nan 0 1
nan nan nan 0 0
3.1584396 -1.0914232 0.88234574 60 31
2.88012 -1.4523448 0.73838538 65 30
3.1641874 -1.0964699 0.63935393 66 29
2.8877008 -1.4549299 0.50031662 68 28
3.1693459 -1.1013254 0.40533501 65 27
2.891784 -1.4563714 0.30614775 68 26
3.1799169 -1.1062274 0.23182356 66 25
2.9014416 -1.4618855 0.14988217 72 24
3.179209 -1.1072193 0.077349968 66 23
2.9043043 -1.4639661 0 70 22
3.1860981 -1.1102363 -0.077524051 68 21
2.9031601 -1.4640242 -0.14999864 73 20
3.1815758 -1.1092932 -0.23083314 62 19
2.9098153 -1.4686537 -0.2894837 73 18
3.1850507 -1.1105084 -0.38211071 64 17
2.8978095 -1.463847 -0.44622448 73 16
3.1681612 -1.103413 -0.5788216 67 15
2.9036014 -1.4724615 -0.92169887 68 13
3.193053 -1.1108317 -0.76630604 69 14
2.8827593 -1.4656382 -1.106516 34 12
2.8128161 -0.97180843 -1.1894661 9 11
0.76680422 -0.39088848 -0.43852359 8 9
0.92239475 -0.31965905 -0.44215339 7 10
0.68443561 -0.35005778 -0.44356787 5 8
0.66161036 -0.22700764 -0.44979683 8 7
0.5475201 -0.28154075 -0.44227016 10 6
0.54246461 -0.18438177 -0.45551741 11 5
0.44973451 -0.23307115 -0.45088306 8 4
0.43438986 -0.1462426 -0.44939968 7 3
nan nan nan 0 2
nan nan nan 0 1
nan nan nan 0 0
3.1570837 -1.1026857 0.88299024 62 31
2.875288 -1.4618876 0.73838538 65 30
3.1558995 -1.1053373 0.63840669 65 29
2.8806586 -1.4633777 0.49993023 68 28
3.1656764 -1.1118293 0.40533501 64 27
2.8844647 -1.4653281 0.30590984 68 26
3.1715245 -1.1151154 0.23147653 66 25
2.8988037 -1.4726315 0.14999864 71 24
3.1684453 -1.1152714 0.077175885 66 23
2.8994334 -1.4735889 0 72 22
3.1774874 -1.1196932 -0.077408001 65 21
2.8938384 -1.4713764 -0.14976572 73 20
3.1731739 -1.118183 -0.23048784 62 19
2.9046707 -1.478802 -0.2894837 74 18
3.1766646 -1.1194167 -0.38154212 39 17
2.8926823 -1.4739534 -0.44622448 73 16
3.1528661 -1.1098326 -0.57667464 68 15
2.8944244 -1.4798906 -0.92032325 69 13
3.1868565 -1.1211637 -0.7657479 70 14
2.8757813 -1.4741104 -1.1056987 35 12
2.8247268 -0.9869591 -1.1960274 10 11
0.76151341 -0.39153257 -0.43617857 7 9
0.92346716 -0.32345837 -0.44321629 7 10
0.67561632 -0.34849706 -0.43839508 5 8
0.6647715 -0.23054166 -0.45259929 8 7
0.5518195 -0.2862193 -0.44681406 10 6
0.53277981 -0.18321858 -0.44744086 12 5
0.44252995 -0.23125717 -0.443973 7 4
0.42899659 -0.14613272 -0.44394141 7 3
nan nan nan 0 2
nan nan nan 0 1
nan nan nan 0 0
3.1418245 -1.1096855 0.87976766 61 31
2.8701677 -1.4719154 0.73838538 65 30
3.1543362 -1.1171645 0.63888031 64 29
2.8755329 -1.4734242 0.49993023 68 28
3.1524196 -1.1195576 0.40412325 64 27
2.881546 -1.4765242 0.30614775 67 26
3.1629114 -1.1245117 0.23112948 65 25
2.8892019 -1.4804604 0.14976572 71 24
3.162178 -1.1254883 0.07711786 68 23
2.8920484 -1.482559 0 71 22
3.1688495 -1.1291034 -0.077291943 67 21
2.8886847 -1.4814689 -0.14976572 72 20
3.1645515 -1.127582 -0.23014253 64 19
2.8972769 -1.4877931 -0.28926015 73 18
3.1703973 -1.1296666 -0.3812578 21 17
2.885318 -1.4829084 -0.44588044 73 16
nan nan nan 0 15
2.8871055 -1.4888819 -0.91963536 69 13
nan nan nan 0 14
2.8727164 -1.4852264 -1.106516 36 12
2.8190787 -0.99604309 -1.1950902 10 11
0.76601392 -0.39725414 -0.4396961 7 9
0.91592753 -0.32443064 -0.44002765 7 10
0.6781854 -0.35284036 -0.44098148 5 8
0.66004992 -0.23150581 -0.44979683 9 7
0.54554129 -0.28535625 -0.44227016 10 6
0.53755325 -0.18692949 -0.45228681 11 5
0.4465023 -0.23535399 -0.44915554 9 4
0.43335831 -0.14927162 -0.44939968 7 3
nan nan nan 0 2
nan nan nan 0 1
nan nan nan 0 0
3.1379318 -1.1206459 0.87976766 61 31
2.8628497 -1.4808048 0.73782176 66 30
3.1481059 -1.1273426 0.63840669 66 29
2.8681786 -1.4823172 0.49954388 68 28
3.1484923 -1.1305548 0.40412325 64 27
2.8719544 -1.4842854 0.30567196 68 26
3.1566193 -1.1347035 0.23095596 65 25
2.879581 -1.4882405 0.14953279 70 24
3.1533272 -1.1353806 0.077001803 67 23
2.8779757 -1.4880462 0 71 22
3.1601849 -1.1384672 -0.077175885 65 21
2.8832352 -1.4920465 -0.14976572 70 20
3.1582489 -1.1377779 -0.22996989 65 19
2.8876455 -1.4956042 -0.28881308 69 18
3.1638985 -1.1404387 -0.38097349 7 17
2.8801241 -1.4929709 -0.44588044 73 16
nan nan nan 0 15
2.8773663 -1.4972318 -0.91825968 70 13
2.9151766 -1.0487317 -0.70156348 8 14
2.8672535 -1.4957453 -1.106516 37 12
2.8154092 -1.0063688 -1.1950902 10 11
0.76071519 -0.3978681 -0.43735108 7 9
0.91899675 -0.32930064 -0.44215339 7 10
0.67121404 -0.35232222 -0.43710187 5 8
0.65138119 -0.23118488 -0.44419184 8 7
0.54975718 -0.29016066 -0.44681406 10 6
0.52965194 -0.18640231 -0.44582558 12 5
0.44245476 -0.23527491 -0.44570053 8 4
0.42793992 -0.1491988 -0.44394141 6 3
nan nan nan 0 2
nan nan nan 0 1
nan nan nan 0 0
3.131531 -1.1313205 0.87912309 62 31
2.857403 -1.4912877 0.73782176 66 30
3.1393359 -1.1372048 0.63745952 63 29
2.8649158 -1.4939631 0.49993023 67 28
3.1419945 -1.1412416 0.40382031 64 27
2.864289 -1.4936496 0.30543411 68 26
3.1454058 -1.143714 0.2304354 65 25
2.8718934 -1.4976286 0.14941634 71 24
3.1446464 -1.1446747 0.076885752 68 23
2.8725021 -1.4985845 0 70 22
3.1489444 -1.1474801 -0.077001803 67 21
2.8735838 -1.4997878 -0.14953279 65 20
3.1470258 -1.1467892 -0.22945194 67 19
2.8821445 -1.5061779 -0.28881308 73 18
3.0945382 -1.1277125 -0.37301287 3 17
2.8746328 -1.5035172 -0.44588044 73 16
nan nan nan 0 15
2.8699951 -1.5061483 -0.9175719 69 13
3.1449614 -1.1442193 -0.75849229 8 14
2.8599248 -1.5046432 -1.1056987 34 12
2.8162396 -1.0177618 -1.1969647 10 11
0.75730187 -0.39961767 -0.43617857 7 9
0.91997123 -0.33327153 -0.44321629 7 10
0.66998011 -0.35466304 -0.43710187 5 8
0.6544733 -0.23484012 -0.44699433 8 7
0.54874104 -0.2920779 -0.44681406 11 6
0.53440094 -0.19014101 -0.45067149 11 5
0.44639471 -0.23940562 -0.45088306 9 4
0.43389988 -0.15292789 -0.45121911 7 3
nan nan nan 0 2
nan nan nan 0 1
nan nan nan 0 0
3.1207542 -1.1397637 0.87718958 61 31
2.8500257 -1.5001168 0.73725814 65 30
3.1307356 -1.1464714 0.63651234 63 29
2.8531277 -1.5005009 0.49877122 68 28
3.1310012 -1.1496413 0.40291145 64 27
2.8568559 -1.5024787 0.30519623 67 26
3.1367114 -1.152969 0.23008834 66 25
2.8666482 -1.5076441 0.14941634 71 24
3.1359394 -1.1539218 0.076769695 68 23
2.865042 -1.5074366 0 69 22
3.1425738 -1.1576028 -0.076943778 67 21
2.8661218 -1.5086446 -0.14941634 65 20
3.1430037 -1.1577674 -0.22945194 64 19
2.8746674 -1.5150667 -0.28858954 73 18
3.0882514 -1.1376507 -0.37272856 5 17
2.8671775 -1.5123855 -0.4455364 73 16
nan nan nan 0 15
2.8625965 -1.5150315 -0.91688406 70 13
3.1478112 -1.1577088 -0.76016665 69 14
2.8504822 -1.5123994 -1.1040642 34 12
2.8104923 -1.0267928 -1.1960274 10 11
0.76368743 -0.40642953 -0.44086865 7 9
0.91454852 -0.33493593 -0.44109055 7 10
0.67250633 -0.35902691 -0.43968827 6 8
0.65170044 -0.23642497 -0.44559309 8 7
0.54771817 -0.2939916 -0.44681406 10 6
0.53553271 -0.19264185 -0.45228681 13 5
0.44555628 -0.24096236 -0.45088306 8 4
0.43336344 -0.15444155 -0.45121911 7 3
nan nan nan 0 2
nan nan nan 0 1
nan nan nan 0 0
3.1190233 -1.1514852 0.87783408 61 31
2.8426213 -1.5089127 0.73669446 64 30
3.1244118 -1.1565422 0.63603872 63 29
2.8456912 -1.5092922 0.49838486 67 28
3.1269691 -1.1605633 0.40291145 66 27
2.8518579 -1.5119441 0.30519623 67 26
3.1326678 -1.1639111 0.23008834 66 25
2.8613679 -1.5176414 0.14941634 70 24
3.131892 -1.1648612 0.076769695 67 23
2.8575552 -1.516255 0 70 22
3.136375 -1.1671476 -0.076885752 63 21
2.854223 -1.5151229 -0.14906695 65 20
3.1319296 -1.1661258 -0.22893398 67 19
2.865231 -1.5222516 -0.28814244 73 18
3.0935748 -1.1518835 -0.37386578 7 17
2.8599608 -1.520721 -0.44519237 73 16
nan nan nan 0 15
2.8530512 -1.5227481 -0.91550833 69 13
3.139385 -1.1664468 -0.75905037 67 14
2.8451858 -1.5223402 -1.1040642 38 12
2.8114219 -1.0377084 -1.1979021 10 11
0.75844985 -0.40686145 -0.43852359 6 9
0.91762221 -0.33968601 -0.44321629 7 10
0.6675505 -0.35921523 -0.43710187 6 8
0.65087122 -0.23869839 -0.44559309 8 7
0.54324931 -0.293899 -0.44378477 11 6
0.53309435 -0.19377412 -0.45067149 12 5
0.44633684 -0.2433119 -0.45261058 8 4
0.4296149 -0.15473764 -0.44758025 7 3
nan nan nan 0 2
nan nan nan 0 1
nan nan nan 0 0
3.1061325 -1.1584525 0.875256 63 31
2.8354552 -1.5171802 0.73613077 65 30
3.1159599 -1.1651807 0.63509154 65 29
2.8363159 -1.5163887 0.49761218 67 28
3.1184547 -1.1691875 0.40230557 67 27
2.8399808 -1.5183651 0.30448258 68 26
3.1241198 -1.172544 0.22974132 66 25
2.8519166 -1.5247637 0.14918341 70 24
3.1184464 -1.1722754 0.076537587 65 23
2.8525112 -1.5257226 0 71 22
3.1276016 -1.1763324 -0.076769695 64 21
2.8467162 -1.5238968 -0.1489505 62 20
3.1280453 -1.1765052 -0.22893398 67 19
2.8598998 -1.532244 -0.28814244 73 18
3.0918603 -1.1635482 -0.3741501 7 17
2.8546352 -1.5306948 -0.44519237 73 16
3.1010551 -1.165785 -0.57152194 6 15
2.8477185 -1.5326978 -0.91550833 69 13
3.139858 -1.1791081 -0.76016665 70 14
2.8356977 -1.5300157 -1.1024299 40 12
2.8075995 -1.0480058 -1.1979021 10 11
0.76090324 -0.41161832 -0.44086865 6 9
0.91430938 -0.34209973 -0.44215339 6 10
0.67373759 -0.36576667 -0.44227466 6 8
0.65197819 -0.24168074 -0.44699433 8 7
0.54391038 -0.29684818 -0.44529942 11 6
0.5377633 -0.19767419 -0.45551741 11 5
0.44228435 -0.24318787 -0.44915554 8 4
0.43227467 -0.15746321 -0.45121911 6 3
nan nan nan 0 2
nan nan nan 0 1
nan nan nan 0 0
3.0996048 -1.1689786 0.8746115 62 31
2.8298752 -1.5275625 0.73613077 65 30
3.1093717 -1.1757269 0.63461792 66 29
2.8285661 -1.5256 0.49722585 67 28
3.1118276 -1.1797315 0.40200263 66 27
2.8343968 -1.5287639 0.30448258 68 26
3.1151364 -1.18222 0.22939426 66 25
2.8419147 -1.5328324 0.1489505 71 24
3.1119983 -1.1822679 0.076479562 68 23
2.8425016 -1.53379 0 71 22
3.1185958 -1.1860142 -0.076653644 65 21
2.8457727 -1.5361998 -0.14918341 62 20
3.1190486 -1.1861925 -0.22858869 67 19
2.8542645 -1.5427157 -0.28814244 73 18
3.0692022 -1.1672843 -0.37187561 11 17
2.8468287 -1.5399677 -0.4448483 73 16
3.1269054 -1.1879511 -0.57710403 70 15
2.8381281 -1.5403332 -0.91413271 69 13
3.1332364 -1.1897451 -0.75960851 70 14
2.8282647 -1.5387741 -1.1016126 42 12
2.8039241 -1.0577998 -1.1979021 10 11
0.7516486 -0.41015232 -0.43617857 7 9
0.91310966 -0.3452892 -0.44215339 6 10
0.67620361 -0.37018296 -0.44486105 6 8
0.6588974 -0.24682964 -0.45259929 9 7
0.53939372 -0.29681277 -0.44227016 10 6
0.53527802 -0.19889469 -0.4539021 12 5
0.44616011 -0.24738419 -0.4543381 8 4
0.43172237 -0.15897116 -0.45121911 6 3
nan nan nan 0 2
nan nan nan 0 1
nan nan nan 0 0
3.0932477 -1.1789324 0.87396699 62 31
2.8223875 -1.5362653 0.73556709 65 30
3.1052485 -1.1865735 0.63461792 65 29
2.8210542 -1.5342827 0.49683949 67 28
3.1007364 -1.1879282 0.40109381 66 27
2.8290434 -1.5386486 0.30448258 68 26
3.1063323 -1.1913042 0.22904722 65 25
2.8343539 -1.5415485 0.14883403 71 24
3.1055186 -1.1922295 0.076421537 68 23
2.8393254 -1.5448993 0 70 22
3.11677 -1.1977878 -0.07671167 61 21
2.8382006 -1.5449287 -0.14906695 66 20
3.1032457 -1.1926081 -0.22772543 68 19
2.8444912 -1.5502834 -0.28769538 73 18
3.0488751 -1.1717656 -0.36988544 11 17
2.8414357 -1.5498955 -0.4448483 73 16
3.1204395 -1.1979779 -0.57667464 70 15
2.8348413 -1.5513859 -0.91482049 34 13
3.122237 -1.198061 -0.75793415 71 14
2.8187351 -1.5463617 -1.0999782 15 12
2.7980483 -1.066757 -1.1969647 10 11
0.75600684 -0.4159829 -0.4396961 6 9
0.9055512 -0.34606826 -0.43896481 6 10
0.67303753 -0.37150121 -0.44356787 6 8
0.65027511 -0.24622647 -0.44699433 9 7
0.54182476 -0.30063811 -0.44529942 10 6
0.53637022 -0.20142365 -0.45551741 12 5
0.4437212 -0.24804994 -0.45261058 8 4
0.43116486 -0.16047719 -0.45121911 7 3
nan nan nan 0 2
nan nan nan 0 1
nan nan nan 0 0
3.0868587 -1.1888562 0.87332243 63 31
2.8127389 -1.5437613 0.73443985 66 30
3.0896344 -1.1929932 0.63224995 65 29
2.8178465 -1.5453098 0.49722585 67 28
3.0919411 -1.1969563 0.40048793 67 27
2.8214741 -1.5473164 0.30424473 67 26
3.0975025 -1.2003411 0.22870018 66 25
2.8355219 -1.5550398 0.14918341 71 24
3.0966763 -1.2012582 0.076305479 69 23
2.8273423 -1.5511889 0 70 22
3.1079094 -1.2068541 -0.076595619 67 21
2.8240368 -1.5500141 -0.14860111 70 20
3.1013894 -1.2043343 -0.22789809 68 19
2.8346994 -1.5578016 -0.28724828 73 18
3.0378182 -1.1797087 -0.36903253 4 17
2.8338394 -1.55861 -0.44450429 73 16
3.1139421 -1.207974 -0.57624531 70 15
2.4717996 -1.3636167 -0.79788858 18 13
3.118036 -1.2089522 -0.75793415 71 14
nan nan nan 0 12
2.7964711 -1.0773489 -1.1979021 10 11
0.74876684 -0.41538978 -0.43617857 7 9
0.91278994 -0.35246491 -0.44321629 6 10
0.67360282 -0.37489468 -0.44486105 6 8
0.64941156 -0.24849488 -0.44699433 9 7
0.53557676 -0.299593 -0.44075555 10 6
0.53030175 -0.20129097 -0.45067149 12 5
0.44128308 -0.24870169 -0.45088306 8 4
0.4322108 -0.16257413 -0.45303854 7 3
nan nan nan 0 2
nan nan nan 0 1
nan nan nan 0 0
3.0804384 -1.1987499 0.87267798 62 31
2.8115935 -1.5559317 0.73556709 65 30
3.0854514 -1.2037706 0.63224995 63 29
2.8081136 -1.552743 0.49645314 66 28
3.087744 -1.207742 0.40048793 66 27
2.8163276 -1.5566642 0.30424473 67 26
3.090971 -1.2102386 0.22852667 67 25
2.8213382 -1.5600883 0.14871758 69 24
3.092464 -1.2120602 0.076305479 69 23
2.8262839 -1.563472 0 70 22
3.0945802 -1.2135106 -0.076363511 69 21
2.8229775 -1.5622838 -0.14883403 72 20
3.0901992 -1.2124252 -0.22738014 68 19
2.8295181 -1.5671933 -0.28724828 73 18
3.0336816 -1.1903055 -0.36903253 4 17
2.8308201 -1.5692006 -0.4448483 72 16
3.1028252 -1.216145 -0.57495707 70 15
2.4460294 -1.3605365 -0.79101026 13 13
3.1072001 -1.216625 -0.75625974 70 14
2.3932848 -1.3343929 -0.93571693 17 12
2.7928829 -1.0866164 -1.1979021 10 11
0.7512337 -0.42003632 -0.43852359 7 9
0.90733361 -0.35401535 -0.44109055 7 10
0.66863048 -0.37502119 -0.44227466 6 8
0.64854026 -0.25076023 -0.44699433 8 7
0.53976583 -0.3043192 -0.44529942 10 6
0.53141648 -0.20372221 -0.45228681 12 5
0.43732277 -0.24836202 -0.44742805 8 4
0.42845571 -0.16281007 -0.44939968 7 3
nan nan nan 0 2
nan nan nan 0 1
nan nan nan 0 0
3.0764463 -1.2089585 0.87267798 62 31
2.8000395 -1.5616832 0.73387617 65 30
3.0768733 -1.2121997 0.63130277 65 29
2.802949 -1.5620465 0.49645314 68 28
3.0767958 -1.2152449 0.39957911 66 27
2.8108766 -1.5664854 0.30424473 68 26
3.0846205 -1.2195666 0.22835314 67 25
2.8161492 -1.5694357 0.14871758 70 24
3.0812414 -1.2200923 0.076131403 68 23
2.8123529 -1.5679603 0 71 22
3.0903254 -1.2243054 -0.076363511 69 21
2.8131471 -1.5696917 -0.14860111 72 20
3.0861619 -1.2226659 -0.22738014 67 19
2.8218575 -1.5758451 -0.28702477 73 18
3.0295084 -1.2008878 -0.36903253 3 17
2.8231647 -1.5778629 -0.44450429 73 16
3.0985613 -1.2269685 -0.57495707 70 15
2.4454565 -1.371421 -0.79238588 12 13
3.100668 -1.2265691 -0.75570166 70 14
2.6541696 -1.4923116 -1.0411383 37 12
2.7910395 -1.0976919 -1.1988394 10 11
0.75168329 -0.42374563 -0.4396961 7 9
0.9039849 -0.3563562 -0.44002765 7 10
0.66725147 -0.37746933 -0.44227466 6 8
0.64379811 -0.25153118 -0.44419184 8 7
0.53692192 -0.30530521 -0.44378477 10 6
0.5360142 -0.20770973 -0.45713273 11 5
0.43640953 -0.24996322 -0.44742805 7 4
0.42304233 -0.16256709 -0.44394141 7 3
nan nan nan 0 2
nan nan nan 0 1
nan nan nan 0 0
3.0719945 -1.2202262 0.87267798 61 31
2.7964189 -1.5731311 0.73443985 66 30
