# .PCD v0.7 - Point Cloud Data file format
VERSION 0.7
FIELDS x y z intensity ring
SIZE 4 4 4 4 2
TYPE F F F F U
COUNT 1 1 1 1 1
WIDTH 1302
HEIGHT 1
VIEWPOINT 0 0 0 1 0 0 0
POINTS 1302
DATA ascii
3.5385535 -0.44824615 -0.4042868 8 17
3.0742087 -0.81224626 -0.43693531 7 16
3.499397 -0.4420909 -0.60887909 3 15
3.3669186 -0.89541954 -0.9870432 63 13
3.7096791 -0.46720958 -0.84835047 5 14
3.3161972 -0.88558364 -1.1751624 22 12
2.9648373 -0.36768642 -1.1941527 10 11
2.2378066 -0.60426283 -1.2123888 4 9
2.5814245 -0.31777209 -1.2052932 10 10
0.75254488 -0.20305483 -0.4500339 9 8
1.8232114 -0.21730092 -1.2190754 18 7
0.60556483 -0.16483739 -0.45135793 16 6
0.57272542 -0.0680985 -0.45874804 14 5
0.49529991 -0.13651539 -0.45779315 12 4
0.4655202 -0.053927958 -0.46031627 12 3
0.37597206 -0.10456844 -0.41977787 5 2
nan nan nan 0 1
nan nan nan 0 0
3.6767325 -0.46831039 0.97966802 64 31
3.3444602 -0.89382738 0.79305977 61 30
3.6624434 -0.46972367 0.70565724 58 29
3.33656 -0.89048147 0.53470129 65 28
1.0434505 -0.13651788 0.12420579 7 27
3.3423126 -0.8920334 0.32731879 63 26
1.0410229 -0.13656941 0.070622891 47 25
3.3537812 -0.89510834 0.16024697 67 24
1.1645963 -0.15289445 0.026460305 8 23
3.3451579 -0.89342654 0 66 22
1.1670214 -0.153622 -0.02651833 8 21
3.3510563 -0.89563268 -0.16013053 69 20
1.1349398 -0.14947285 -0.076829277 8 19
3.3625371 -0.90058959 -0.30937871 68 18
3.5197246 -0.45836198 -0.40229663 7 17
3.061646 -0.82093644 -0.43555915 7 16
nan nan nan 0 15
3.3614523 -0.9065395 -0.98635536 65 13
3.1423922 -0.4078528 -0.71774912 2 14
3.3358867 -0.90334445 -1.1833346 23 12
2.9589372 -0.37745082 -1.192278 10 11
nan nan nan 0 9
2.5780542 -0.32649896 -1.2042303 10 10
0.74770761 -0.20453838 -0.44744751 9 8
1.8224418 -0.22366379 -1.2190754 18 7
0.59924036 -0.16533959 -0.44681406 15 6
0.57437932 -0.070319556 -0.46036333 15 5
0.49655825 -0.13873886 -0.45952067 12 4
0.47044045 -0.056128636 -0.46577457 10 3
0.36938059 -0.10414635 -0.4121455 5 2
nan nan nan 0 1
nan nan nan 0 0
3.6630988 -0.47958201 0.97644538 63 31
3.3319182 -0.90294194 0.79080516 62 30
3.6559138 -0.48186687 0.70471007 58 29
3.3286638 -0.9008292 0.53392857 65 28
1.0478882 -0.1408089 0.12481167 6 27
3.3369343 -0.90246069 0.32708094 64 26
1.0578467 -0.14249319 0.071837537 37 25
3.3385861 -0.90354019 0.15966469 67 24
1.166533 -0.15728754 0.02651833 8 23
3.3420188 -0.90509778 0 67 22
1.1615504 -0.15683261 -0.026402276 8 21
3.3454998 -0.90666991 -0.16001406 69 20
1.1195779 -0.15145971 -0.075793378 8 19
3.3571298 -0.91108149 -0.30915517 70 18
3.5254893 -0.47162828 -0.40314955 7 17
3.027848 -0.82262295 -0.43108657 7 16
3.2301085 -0.43119186 -0.56207532 4 15
3.3536315 -0.91699672 -0.98497969 65 13
3.1675961 -0.42178851 -0.72388846 2 14
3.3030996 -0.9068321 -1.1727108 21 12
2.9599674 -0.38755986 -1.1932154 10 11
nan nan nan 0 9
2.579143 -0.33578593 -1.2052932 10 10
0.74290514 -0.20586096 -0.44486105 8 8
1.82165 -0.23002395 -1.2190754 17 7
0.60825545 -0.17004192 -0.45438719 18 6
0.5779317 -0.07268101 -0.46359396 15 5
0.49088669 -0.13888131 -0.4543381 11 4
0.46514237 -0.057095382 -0.46031627 10 3
0.36903322 -0.10537069 -0.4121455 4 2
nan nan nan 0 1
nan nan nan 0 0
3.6543057 -0.49076703 0.97451186 62 31
3.3218608 -0.91204679 0.78911418 61 30
3.6445642 -0.49267882 0.70281565 60 29
3.3208947 -0.91055316 0.53315586 65 28
1.0597111 -0.14594768 0.12632638 6 27
3.3241653 -0.91146487 0.32612941 64 26
1.0672537 -0.14734218 0.072531618 18 25
3.333163 -0.91394448 0.15954822 68 24
1.1783592 -0.1630459 0.026808467 8 23
3.3365886 -0.91551232 0 67 22
1.1758542 -0.16291367 -0.02675044 8 21
3.3399069 -0.91767913 -0.1598976 68 20
1.1165984 -0.15483436 -0.075620733 7 19
3.3491282 -0.92147034 -0.30870807 70 18
3.5508919 -0.48763019 -0.40627697 7 17
2.9915423 -0.82395774 -0.42626995 9 16
3.2139418 -0.44046912 -0.55949897 4 15
3.3434629 -0.92676699 -0.98291618 65 13
nan nan nan 0 14
3.2953629 -0.91708672 -1.1710763 22 12
2.9585273 -0.39840609 -1.1932154 10 11
nan nan nan 0 9
2.5801983 -0.34508449 -1.2063559 10 10
0.74420351 -0.20916788 -0.44615427 9 8
1.8146753 -0.23559099 -1.2148718 14 7
0.60762817 -0.17227015 -0.45438719 15 6
0.58144838 -0.075269774 -0.46682456 13 5
0.49731195 -0.14270958 -0.46124819 14 4
0.4700371 -0.059411529 -0.46577457 11 3
0.3593733 -0.10389586 -0.40069702 4 2
nan nan nan 0 1
nan nan nan 0 0
3.6453035 -0.50317144 0.97257829 62 31
3.3161497 -0.92356098 0.78855056 62 30
3.6354389 -0.50502515 0.70139492 56 29
3.3103976 -0.92072856 0.53199685 65 28
1.0419636 -0.14743717 0.12420579 6 27
3.3231993 -0.9243108 0.32636726 66 26
1.0741167 -0.15228638 0.07305219 9 25
3.3273854 -0.9254843 0.15943177 67 24
1.180258 -0.16750427 0.026866494 8 23
3.3308024 -0.92706352 0 67 22
1.1678238 -0.16618134 -0.026576359 8 21
3.3294673 -0.92731726 -0.15954822 68 20
1.1283727 -0.16065705 -0.07648398 8 19
3.3433304 -0.93306845 -0.30848452 71 18
3.5565472 -0.50105661 -0.40712988 7 17
2.9813488 -0.8329128 -0.42523783 10 16
3.1953108 -0.44929782 -0.55649322 2 15
3.3355803 -0.93712896 -0.9815405 65 13
3.6761551 -0.51589799 -0.84221101 66 14
3.3103297 -0.93372738 -1.1776141 28 12
2.9640067 -0.40967685 -1.1960274 10 11
nan nan nan 0 9
2.5789781 -0.35408893 -1.2063559 11 10
0.74346882 -0.21176437 -0.44615427 9 8
1.8241051 -0.24327697 -1.2218781 10 7
0.60511369 -0.17383322 -0.45287254 16 6
0.57550412 -0.076572597 -0.46197864 15 5
0.48814774 -0.14187691 -0.45261058 13 4
0.46812522 -0.060842067 -0.46395513 11 3
0.35899007 -0.10521233 -0.40069702 4 2
nan nan nan 0 1
nan nan nan 0 0
3.6339569 -0.51454484 0.97000021 65 31
3.3082182 -0.93380445 0.78742319 62 30
3.6287935 -0.51702297 0.70044774 61 29
3.3024099 -0.93093508 0.53122419 66 28
3.6995902 -0.53033054 0.45198792 11 27
3.3151631 -0.93455172 0.32589152 67 26
1.0711097 -0.1556817 0.072878659 9 25
3.3217316 -0.93641418 0.1593153 68 24
1.1722441 -0.17055885 0.026692413 8 23
3.3251405 -0.93800426 0 67 22
1.1796062 -0.17203487 -0.026866494 8 21
3.3190014 -0.9368937 -0.15919885 70 20
nan nan nan 0 19
3.3376577 -0.94405407 -0.30826101 70 18
3.571986 -0.51594198 -0.40912005 8 17
2.9617491 -0.83858055 -0.42282954 10 16
nan nan nan 0 15
3.3253551 -0.9467876 -0.97947699 58 13
3.6719201 -0.52838159 -0.84165293 63 14
3.2956939 -0.94202262 -1.173528 31 12
2.9625583 -0.42002067 -1.1960274 10 11
0.82937998 -0.23815328 -0.4396961 8 9
2.5799673 -0.36340249 -1.2074189 11 10
0.74888641 -0.21615764 -0.4500339 9 8
1.8088831 -0.24769846 -1.2120693 9 7
0.60831803 -0.17707153 -0.4559018 15 6
0.57144976 -0.07808356 -0.45874804 15 5
0.49457276 -0.14565837 -0.45952067 11 4
0.47301272 -0.063123092 -0.46941343 11 3
0.36171061 -0.10740773 -0.40451318 4 2
nan nan nan 0 1
nan nan nan 0 0
3.6297486 -0.52688128 0.9693557 65 31
3.297915 -0.94333261 0.78573227 62 30
3.61725 -0.52827436 0.69855332 56 29
3.292016 -0.94041687 0.53006512 66 28
3.6412408 -0.53498226 0.44502026 35 27
3.3072605 -0.94417059 0.32541576 67 26
1.0779625 -0.16050485 0.073399231 17 25
3.3112402 -0.94594097 0.15896593 68 24
1.1741143 -0.17501308 0.02675044 8 23
3.3194427 -0.94891679 0 67 22
1.1765565 -0.17558183 -0.026808467 8 21
3.3085091 -0.94640845 -0.15884948 62 20
nan nan nan 0 19
3.3321152 -0.95442969 -0.30803746 71 18
3.5726204 -0.52876931 -0.40940437 8 17
2.958952 -0.84839749 -0.42282954 9 16
3.6477554 -0.53855497 -0.63678968 74 15
3.3220301 -0.9583894 -0.97947699 65 13
3.6653249 -0.53984821 -0.84053665 63 14
3.2946544 -0.95417982 -1.1743453 32 12
2.9588556 -0.42951164 -1.1950902 10 11
0.81375635 -0.2365462 -0.43148842 8 9
2.5809228 -0.37272722 -1.2084818 11 10
0.74611372 -0.21803325 -0.44874069 8 8
1.8100579 -0.25429606 -1.2134706 7 7
0.60201085 -0.17737816 -0.45135793 15 6
0.57118767 -0.079978131 -0.45874804 15 5
0.49235791 -0.1467723 -0.45779315 12 4
0.46940041 -0.06424848 -0.46577457 10 3
0.35826564 -0.10765344 -0.40069702 4 2
nan nan nan 0 1
nan nan nan 0 0
3.6136444 -0.53679532 0.96548861 65 31
3.2900906 -0.95290548 0.78460497 62 30
3.6130502 -0.53990555 0.69807971 59 29
3.2817628 -0.94926488 0.52890611 65 28
3.6198127 -0.54411626 0.44259673 51 27
3.3039443 -0.95570928 0.32541576 66 26
1.082357 -0.16481847 0.073746271 21 25
3.3032882 -0.9555254 0.15873303 69 24
1.1834137 -0.18039197 0.026982548 8 23
3.3090746 -0.9578293 0 67 22
1.1685221 -0.17857037 -0.026634384 8 21
3.3077507 -0.95807093 -0.15896593 70 20
nan nan nan 0 19
3.3239815 -0.9646641 -0.30759037 71 18
3.5708473 -0.54061371 -0.40940437 8 17
2.9488401 -0.85664338 -0.42179739 8 16
3.6386425 -0.54954988 -0.63550144 65 15
3.3142202 -0.96804965 -0.97810131 64 13
3.6537788 -0.55119181 -0.83830416 62 14
3.2869387 -0.96376741 -1.1727108 32 12
2.9573383 -0.43983734 -1.1950902 10 11
0.83620483 -0.24631187 -0.44438621 9 9
2.5774338 -0.38095522 -1.2074189 11 10
0.7453481 -0.22063634 -0.44874069 8 8
1.8235531 -0.26233909 -1.2232791 5 7
0.6013881 -0.17947848 -0.45135793 16 6
0.57090497 -0.081971459 -0.45874804 16 5
0.4970243 -0.15008415 -0.46297571 12 4
0.46917328 -0.065886602 -0.46577457 11 3
0.35480419 -0.10793943 -0.39688087 4 2
nan nan nan 0 1
nan nan nan 0 0
3.606972 -0.54868281 0.9641996 66 31
3.2820709 -0.96300966 0.78347766 62 30
3.6087165 -0.55214453 0.69760615 57 29
3.2784293 -0.96071464 0.52890611 66 28
3.6056266 -0.55486947 0.44108203 56 27
3.2982008 -0.96653515 0.32517791 66 26
1.0916355 -0.17010972 0.074440353 21 25
3.2951405 -0.96564257 0.15850011 69 24
1.1802744 -0.18434753 0.026924521 8 23
3.2985156 -0.96725923 0 67 22
1.1604815 -0.18150499 -0.026460305 8 21
3.3018212 -0.96948296 -0.15884948 70 20
nan nan nan 0 19
3.3158171 -0.9748534 -0.3071433 71 18
3.5712967 -0.55407697 -0.40968868 8 17
2.9363317 -0.86412829 -0.42042121 8 16
3.6219993 -0.56063199 -0.63292515 46 15
3.3037376 -0.97813886 -0.9760378 64 13
3.6421981 -0.56246138 -0.83607167 62 14
3.2833841 -0.97580814 -1.1727108 33 12
2.9602892 -0.45136827 -1.1969647 10 11
0.82688367 -0.24668097 -0.4396961 9 9
2.5737829 -0.3900626 -1.2063559 10 10
0.74862915 -0.22460921 -0.45132709 9 8
1.8123358 -0.26752478 -1.216273 3 7
0.60262764 -0.18226498 -0.45287254 15 6
0.57437891 -0.084600426 -0.46197864 14 5
0.49129507 -0.15029174 -0.45779315 12 4
0.47062722 -0.067839347 -0.467594 10 3
0.34980512 -0.10771524 -0.39115664 4 2
nan nan nan 0 1
nan nan nan 0 0
3.5977757 -0.56078821 0.96226597 63 31
3.2738512 -0.97364098 0.78235036 63 30
3.5921168 -0.5630964 0.69476455 57 29
3.2701519 -0.97131461 0.52813345 67 28
3.5962141 -0.56692672 0.44017321 59 27
3.2898655 -0.97719681 0.32470214 67 26
1.0959321 -0.17488475 0.074787393 12 25
3.2915792 -0.97771341 0.15850011 68 24
1.1870302 -0.18963411 0.027098602 8 23
3.2925522 -0.97862858 0 68 22
1.1449963 -0.18341644 -0.026112143 8 21
3.2936308 -0.97957575 -0.15861656 70 20
3.6134932 -0.57351089 -0.25086054 60 19
3.3026786 -0.98414946 -0.30624914 71 18
3.5668876 -0.5661521 -0.40940437 8 17
2.9189107 -0.87062782 -0.41835696 8 16
3.2137437 -0.50921458 -0.56121653 7 15
3.2933977 -0.98758954 -0.97397435 63 13
3.6352975 -0.57504874 -0.83495545 61 14
3.275434 -0.98589844 -1.1710763 32 12
2.9518251 -0.46063283 -1.1941527 10 11
0.83442092 -0.25228927 -0.44438621 9 9
2.5746419 -0.39938903 -1.2074189 11 10
0.74579543 -0.22659266 -0.4500339 9 8
nan nan nan 0 7
0.60198772 -0.18436745 -0.45287254 15 6
0.57974452 -0.087430194 -0.46682456 15 5
0.49076748 -0.15200578 -0.45779315 12 4
0.46359658 -0.068523698 -0.46031627 10 3
0.34786975 -0.10850362 -0.38924855 4 2
nan nan nan 0 1
nan nan nan 0 0
3.5910251 -0.572586 0.96097696 66 31
3.2681007 -0.98435891 0.78178668 63 30
3.5877049 -0.57524478 0.694291 56 29
3.2620115 -0.98129743 0.52736074 66 28
3.5868626 -0.57829636 0.43926439 62 27
3.2794588 -0.98594689 0.32398853 66 26
1.1027017 -0.17989768 0.07530795 9 25
3.2833643 -0.98775518 0.15826719 69 24
1.1937635 -0.19497009 0.027272681 8 23
3.2795424 -0.98722714 0 67 22
1.1320448 -0.18522085 -0.025822006 9 21
3.2878008 -0.99034488 -0.15850011 70 20
3.6040831 -0.5849272 -0.25034261 64 19
3.3017802 -0.99581671 -0.30647269 71 18
3.5673413 -0.57899565 -0.40968868 10 17
2.8899372 -0.87241149 -0.41457251 7 16
3.1900635 -0.5169009 -0.55735195 4 15
3.2876308 -0.99837959 -0.97328651 64 13
3.621341 -0.58516514 -0.83216482 61 14
3.2674534 -0.99594504 -1.1694418 32 12
2.9479921 -0.47005594 -1.1932154 10 11
0.82514143 -0.25244766 -0.4396961 8 9
2.5732322 -0.40837377 -1.2074189 11 10
0.74708295 -0.2296997 -0.45132709 9 8
nan nan nan 0 7
0.60706526 -0.18815199 -0.45741642 16 6
0.57567698 -0.088789478 -0.46359396 15 5
0.49026066 -0.15363239 -0.45779315 12 4
0.46676069 -0.070550933 -0.46395513 11 3
0.34750801 -0.1096566 -0.38924855 4 2
nan nan nan 0 1
nan nan nan 0 0
3.5771849 -0.5825581 0.95775437 65 31
3.2601597 -0.9937675 0.78065938 64 30
3.5736639 -0.58516395 0.69192296 56 29
3.2563772 -0.99138844 0.52697438 67 28
3.5751295 -0.58858174 0.43805262 60 27
3.2736168 -0.99666196 0.32375064 67 26
1.109482 -0.18476637 0.075828515 8 25
3.2752936 -0.99718004 0.15803427 69 24
1.1931102 -0.19892766 0.027272681 8 23
3.2762506 -0.99809706 0 67 22
1.1091976 -0.18550909 -0.025299765 9 21
3.2773335 -0.99905306 -0.15815073 70 20
3.5947411 -0.59565735 -0.24982464 62 19
3.2959032 -1.0066072 -0.30624914 69 18
3.5801058 -0.59324849 -0.41139451 7 17
2.8560967 -0.87306082 -0.41009992 6 16
3.1859016 -0.52707654 -0.55692255 10 15
3.277411 -1.0071536 -0.971223 64 13
3.6120627 -0.59661591 -0.83049047 61 14
3.2596188 -1.0053792 -1.1678075 31 12
2.9486213 -0.48071441 -1.1941527 10 11
0.82004058 -0.25400805 -0.43735108 8 9
2.5651617 -0.41582519 -1.2042303 10 10
0.74423575 -0.23166382 -0.4500339 9 8
nan nan nan 0 7
0.59882355 -0.18785767 -0.45135793 15 6
0.58102226 -0.091662303 -0.46843988 15 5
0.48628211 -0.15423192 -0.4543381 12 4
0.4648155 -0.071928747 -0.4621357 10 3
0.3455883 -0.11036552 -0.38734049 4 2
nan nan nan 0 1
nan nan nan 0 0
3.5679805 -0.59385645 0.95582086 61 31
3.2473638 -1.0022622 0.77840477 63 30
3.5691783 -0.59723127 0.6914494 56 29
3.2528968 -1.0027492 0.52697438 66 28
3.5632634 -0.59941775 0.43684086 60 27
3.2629845 -1.0058789 0.323037 66 26
1.0989921 -0.18698639 0.075134434 7 25
3.2670207 -1.0071324 0.15780134 69 24
1.1849793 -0.20205404 0.027098602 8 23
3.2679698 -1.0080504 0 69 22
1.1134722 -0.1902108 -0.025415819 21 21
3.2712641 -1.0103198 -0.15803427 69 20
3.5828025 -0.60654318 -0.24913403 65 19
3.2852345 -1.0158945 -0.30557853 69 18
3.4603484 -0.5865249 -0.3977477 25 17
2.8435719 -0.88008958 -0.40872374 4 16
3.1790915 -0.53793192 -0.55606383 11 15
3.2278094 -1.0048404 -0.9574663 64 13
3.6075544 -0.60881686 -0.82993233 23 14
3.2491479 -1.0152011 -1.1653558 31 12
2.9445531 -0.49113908 -1.1932154 10 11
0.82967383 -0.26020163 -0.44321367 8 9
2.5703185 -0.42632821 -1.2074189 11 10
0.74542016 -0.23503982 -0.45132709 9 8
nan nan nan 0 7
0.60191721 -0.19127122 -0.45438719 15 6
0.57502687 -0.092906624 -0.46359396 15 5
0.4891488 -0.15713666 -0.45779315 11 4
0.46454877 -0.073631898 -0.4621357 10 3
0.33600241 -0.10851837 -0.37589198 4 2
nan nan nan 0 1
nan nan nan 0 0
3.5586352 -0.60571879 0.95388722 58 31
3.2413442 -1.0134293 0.77784109 64 30
3.5524464 -0.60783505 0.68860781 57 29
3.2444851 -1.0131894 0.52620173 67 28
3.5561504 -0.6116358 0.43623498 60 27
3.2545257 -1.0163449 0.32256123 66 26
1.0982995 -0.19101314 0.075134434 7 25
3.2609243 -1.0183539 0.15768489 68 24
1.1941195 -0.20788392 0.02733071 8 23
3.2570961 -1.0177797 0 66 22
1.1078417 -0.19344153 -0.025299765 33 21
3.2629516 -1.0202389 -0.15780134 69 20
3.5731826 -0.6183998 -0.2486161 63 19
3.2696106 -1.0241994 -0.30446082 70 18
3.4656231 -0.59986591 -0.39860064 38 17
2.7907197 -0.87491226 -0.40149882 4 16
3.174767 -0.54860818 -0.55563438 13 15
3.2678282 -1.0298564 -0.97053516 41 13
3.3146927 -0.57209986 -0.76239914 8 14
3.2500887 -1.0279647 -1.1669903 19 12
2.9451058 -0.50180185 -1.1941527 11 11
0.82240707 -0.26121807 -0.4396961 8 9
2.5665832 -0.43492189 -1.2063559 10 10
0.74255896 -0.23698348 -0.4500339 8 8
nan nan nan 0 7
0.60313684 -0.19398771 -0.4559018 16 6
0.58223557 -0.096119083 -0.47005519 15 5
0.49202853 -0.15997858 -0.46124819 12 4
0.46598315 -0.075516209 -0.46395513 11 3
0.33713365 -0.11026357 -0.37780005 4 2
nan nan nan 0 1
nan nan nan 0 0
3.5588794 -0.61854899 0.95453179 63 31
3.2354655 -1.0240011 0.77727747 64 30
3.5430477 -0.61896938 0.68718702 56 29
3.2362196 -1.0230166 0.52542901 66 28
3.5515492 -0.62361777 0.43593201 63 27
3.2440202 -1.0248778 0.32184762 67 26
1.097626 -0.19484577 0.075134434 7 25
3.2525885 -1.028222 0.15745197 69 24
1.1810781 -0.20988947 0.027040575 8 23
3.2511406 -1.0283875 0 69 22
1.1022708 -0.19624874 -0.025183709 36 21
3.2546098 -1.0301124 -0.15756844 70 20
3.5636332 -0.62957209 -0.24809815 65 19
3.2614498 -1.0335287 -0.30401376 70 18
3.4292612 -0.60593325 -0.39462033 29 17
2.7972422 -0.88716334 -0.40287501 4 16
3.1655552 -0.55840898 -0.5543462 13 15
3.0741971 -0.98050547 -0.91344488 6 13
3.3199782 -0.58435053 -0.76407349 8 14
2.7515507 -0.88049382 -0.98720181 4 12
2.9411418 -0.51117045 -1.1932154 10 11
0.82783705 -0.26598746 -0.44321367 8 9
2.5650494 -0.44387826 -1.2063559 10 10
0.74380302 -0.24010824 -0.45132709 9 8
0.69551969 -0.11933464 -0.45400053 4 7
0.60249019 -0.19598673 -0.4559018 14 6
0.57249808 -0.096510835 -0.46197864 15 5
0.49149531 -0.16160934 -0.46124819 11 4
0.45726344 -0.075717032 -0.45485798 10 3
0.33064818 -0.10930298 -0.37016773 4 2
nan nan nan 0 1
nan nan nan 0 0
3.5449152 -0.62824798 0.95130914 58 31
3.2320518 -1.0347246 0.77727747 65 30
3.5409756 -0.63071513 0.68718702 57 29
3.2304575 -1.0329889 0.52504265 66 28
3.5372467 -0.63321376 0.43441734 61 27
3.2404227 -1.0361954 0.32184762 66 26
nan nan nan 0 25
3.2467825 -1.0382401 0.1573355 70 24
1.1754552 -0.212924 0.026924521 8 23
3.2429512 -1.0376362 0 69 22
1.1286398 -0.20494954 -0.025822006 31 21
3.2464197 -1.0393733 -0.1573355 70 20
3.5566161 -0.64050531 -0.24775285 64 19
3.2554519 -1.044145 -0.30379021 70 18
3.3881168 -0.61028475 -0.39007136 21 17
2.8176999 -0.90450829 -0.40631542 4 16
3.1539891 -0.56716716 -0.55262864 13 15
nan nan nan 0 13
3.5721953 -0.64141273 -0.8232348 65 14
2.7373791 -0.88596696 -0.98311573 4 12
2.941622 -0.52183676 -1.1941527 10 11
0.82060993 -0.26680994 -0.4396961 8 9
2.5635631 -0.45238185 -1.2063559 10 10
0.73686528 -0.24069093 -0.44744751 9 8
0.68899769 -0.12059389 -0.44979683 7 7
0.59802896 -0.19682971 -0.45287254 15 6
0.56839365 -0.09788011 -0.45874804 15 5
0.48750475 -0.16216521 -0.45779315 11 4
0.46038112 -0.077862144 -0.45849684 10 3
0.32415393 -0.10835718 -0.36253542 4 2
nan nan nan 0 1
nan nan nan 0 0
3.535569 -0.63933372 0.94937563 58 31
3.2261038 -1.045248 0.77671385 65 30
3.5315058 -0.64175987 0.68576622 57 29
3.2244823 -1.043497 0.5246563 67 28
3.5276904 -0.6442247 0.43350849 64 27
3.2320514 -1.0459646 0.32137185 67 26
3.5743563 -0.65399688 0.25039026 28 25
3.2383878 -1.0480263 0.1571026 68 24
1.179584 -0.21812977 0.027040575 8 23
3.2369311 -1.0481781 0 69 22
1.130376 -0.20933788 -0.025880035 31 21
3.2402139 -1.0504935 -0.15721907 70 20
3.5494523 -0.65201843 -0.24740754 68 19
3.2517872 -1.0555023 -0.30379021 70 18
3.3443241 -0.61509091 -0.38523811 16 17
2.788626 -0.90590316 -0.40253097 7 16
3.1494663 -0.57828039 -0.55219924 13 15
nan nan nan 0 13
3.5651398 -0.65300322 -0.82211852 65 14
2.7453368 -0.89968169 -0.98720181 3 12
2.9442511 -0.53343719 -1.1960274 10 11
0.82595992 -0.27176031 -0.44321367 8 9
2.5574334 -0.46097642 -1.2042303 10 10
0.74003661 -0.2447464 -0.4500339 9 8
0.69670916 -0.12454366 -0.45540178 9 7
0.59541911 -0.1983839 -0.45135793 16 6
0.57179284 -0.10060504 -0.46197864 14 5
0.48348793 -0.16277958 -0.4543381 12 4
0.45670992 -0.078987174 -0.45485798 10 3
0.32377371 -0.10948802 -0.36253542 4 2
nan nan nan 0 1
nan nan nan 0 0
3.5332017 -0.65228796 0.94937563 63 31
3.2176235 -1.0555439 0.77558649 64 30
3.5218887 -0.65336096 0.68434548 58 29
3.2135959 -1.0529962 0.52349728 67 28
3.5179856 -0.65579081 0.43259969 62 27
3.2234671 -1.0562507 0.32089612 66 26
3.5400608 -0.6611625 0.24813449 51 25
3.2321522 -1.0591093 0.15698613 70 24
1.1640735 -0.21949773 0.026692413 8 23
3.2283177 -1.0584741 0 69 22
1.1369716 -0.21485618 -0.026054114 38 21
3.2317824 -1.0602375 -0.15698613 71 20
3.5445869 -0.6645655 -0.2472349 67 19
3.2384365 -1.0642977 -0.30289605 67 18
3.3348322 -0.62539297 -0.3843852 20 17
2.8958149 -0.9525646 -0.41870102 8 16
3.1377442 -0.58746517 -0.55048168 10 15
3.2052178 -1.0595086 -0.95609063 55 13
3.5579314 -0.66517347 -0.8210023 65 14
3.1950631 -1.0598259 -1.1522802 22 12
2.9423711 -0.54371136 -1.1960274 10 11
0.82077247 -0.27337873 -0.44086865 8 9
2.5602605 -0.47071463 -1.2063559 11 10
0.73917776 -0.24732815 -0.4500339 9 8
0.69219363 -0.126248 -0.45259929 9 7
0.60036957 -0.20238993 -0.4559018 16 6
0.56955838 -0.10227262 -0.46036333 14 5
0.48633188 -0.16564955 -0.45779315 11 4
0.46150255 -0.08144135 -0.46031627 10 3
0.31575084 -0.10799524 -0.35299501 4 2
nan nan nan 0 1
nan nan nan 0 0
3.5190325 -0.66239125 0.94615304 58 31
3.2069862 -1.0644627 0.77389556 64 30
3.509937 -0.66383266 0.68245107 58 29
3.2052128 -1.0626497 0.52272457 67 28
3.513237 -0.66760522 0.43229672 64 27
3.2103138 -1.0643575 0.31994462 67 26
3.5205793 -0.67026234 0.24691986 60 25
3.2236958 -1.0688103 0.15675323 70 24
1.1583894 -0.22262652 0.026576359 8 23
3.2198586 -1.0681592 0 69 22
1.1558564 -0.2225634 -0.02651833 24 21
3.2185833 -1.068359 -0.15652031 70 20
3.5348954 -0.67553496 -0.24671695 67 19
3.2323399 -1.0748084 -0.30267251 68 18
3.3472686 -0.6398173 -0.38609105 21 17
2.8971698 -0.96423435 -0.4193891 9 16
3.1332545 -0.59795451 -0.55005229 7 15
3.2174523 -1.0760373 -0.96090543 62 13
3.5507994 -0.67667979 -0.81988603 66 14
3.2003016 -1.073985 -1.1555492 29 12
2.9381773 -0.55355173 -1.1950902 10 11
0.8239941 -0.27766377 -0.44321367 7 9
2.5608263 -0.48006344 -1.2074189 11 10
0.73628545 -0.2492145 -0.44874069 8 8
0.69378567 -0.12903397 -0.45400053 10 7
0.59589958 -0.20318535 -0.45287254 15 6
0.57483369 -0.10526299 -0.46520928 15 5
0.48745611 -0.16794373 -0.45952067 11 4
0.45614737 -0.082173653 -0.45485798 10 3
0.31384996 -0.1085557 -0.35108691 4 2
nan nan nan 0 1
nan nan nan 0 0
3.5119541 -0.67376411 0.94486403 61 31
3.2055593 -1.0764275 0.77445918 64 30
3.5003667 -0.67469186 0.68103033 58 29
3.1991427 -1.0730445 0.52233821 67 28
3.5084484 -0.67939454 0.43199378 65 27
3.2044075 -1.0742049 0.31970674 68 26
3.5133214 -0.68160081 0.24657282 65 25
3.2128437 -1.0776695 0.15640384 70 24
1.1526979 -0.22571836 0.026460305 8 23
3.2066321 -1.0762042 0 70 22
nan nan nan 0 21
3.2172012 -1.080384 -0.15663676 70 20
3.532516 -0.68786991 -0.24671695 66 19
3.2240381 -1.0839312 -0.30222544 72 18
3.3547678 -0.65338975 -0.38722828 22 17
2.8963032 -0.97462791 -0.41973314 8 16
3.1190588 -0.60654676 -0.54790533 10 15
3.2091243 -1.0857182 -0.95952982 66 13
3.5389657 -0.68660104 -0.81765354 67 14
3.1965334 -1.0851495 -1.1555492 29 12
2.938602 -0.5637266 -1.1960274 10 11
0.81471658 -0.27752367 -0.43852359 7 9
2.5613582 -0.4894219 -1.2084818 11 10
0.73747718 -0.25235379 -0.4500339 9 8
0.69536674 -0.13183261 -0.45540178 10 7
0.60273343 -0.20778325 -0.45893103 14 6
0.56884903 -0.10614709 -0.46036333 13 5
0.48519307 -0.16895604 -0.45779315 10 4
0.45587233 -0.083685845 -0.45485798 10 3
0.30892766 -0.10795755 -0.34536269 4 2
nan nan nan 0 1
nan nan nan 0 0
3.4978454 -0.68309993 0.94164139 58 31
3.195055 -1.0846981 0.77276826 63 30
3.4908824 -0.684883 0.67960948 59 29
3.1862125 -1.0804683 0.52079284 67 28
3.503741 -0.69054705 0.43169087 66 27
3.198282 -1.0845829 0.31946883 67 26
3.5012536 -0.69132185 0.24587874 67 25
3.2045236 -1.0867106 0.15617093 70 24
1.1347779 -0.22615638 0.026054114 7 23
3.2006788 -1.0860271 0 70 22
3.5327363 -0.70007193 -0.082804501 39 21
3.204144 -1.0878291 -0.15617093 71 20
3.5179815 -0.69716465 -0.24585369 68 19
3.2178781 -1.0943754 -0.30200189 72 18
3.3477092 -0.66354865 -0.38665965 21 17
2.8905396 -0.9839322 -0.4193891 8 16
3.1146138 -0.61641037 -0.54747593 11 15
3.2032325 -1.0955747 -0.95884198 66 13
3.5293741 -0.69753766 -0.81597918 67 14
nan nan nan 0 12
2.9411664 -0.57486612 -1.1979021 10 11
0.81999952 -0.28254098 -0.44204116 8 9
2.5574994 -0.49748313 -1.2074189 11 10
0.73861146 -0.25563261 -0.45132709 8 8
0.69696009 -0.13452221 -0.45680299 10 7
0.59637815 -0.20789906 -0.45438719 15 6
0.5647226 -0.10743797 -0.45713273 14 5
0.48800305 -0.17186698 -0.46124819 12 4
0.46232682 -0.086493462 -0.4621357 10 3
0.30703068 -0.10848385 -0.3434546 4 2
nan nan nan 0 1
nan nan nan 0 0
3.4907005 -0.69436628 0.94035232 58 31
3.1843395 -1.0934665 0.77107728 64 30
3.4812479 -0.69562638 0.67818874 59 29
3.1824212 -1.0915836 0.52079284 67 28
3.4940093 -0.7013132 0.43078202 65 27
3.1874163 -1.0933135 0.31875521 69 26
3.493928 -0.70255929 0.24553169 67 25
3.1959875 -1.0962663 0.15593801 69 24
1.12414 -0.22834484 0.025822006 7 23
3.1968684 -1.0971929 0 71 22
3.5057685 -0.70747203 -0.082224235 60 21
3.2001355 -1.0995657 -0.15617093 72 20
3.5155263 -0.70944041 -0.24585369 67 19
3.2069764 -1.1031666 -0.30133128 72 18
3.3525596 -0.67728454 -0.38751259 23 17
2.8917689 -0.99563181 -0.42007717 8 16
3.1075044 -0.62685162 -0.54661715 11 15
3.194654 -1.1057324 -0.9574663 65 13
3.5221393 -0.70889491 -0.81486291 68 14
2.8385541 -0.98551124 -1.0272456 7 12
2.9344931 -0.58474022 -1.1960274 10 11
0.81484234 -0.28393698 -0.4396961 8 9
2.557879 -0.5072915 -1.2084818 11 10
0.73766953 -0.25833803 -0.45132709 8 8
0.68629754 -0.13511652 -0.44979683 10 7
0.59748518 -0.21075267 -0.4559018 14 6
0.56245005 -0.10915311 -0.45551741 14 5
0.48397163 -0.17242365 -0.45779315 12 4
0.46200669 -0.088187389 -0.4621357 10 3
0.30058473 -0.10732812 -0.33582228 4 2
nan nan nan 0 1
nan nan nan 0 0
3.476294 -0.70476443 0.9371298 57 31
3.1780105 -1.1043295 0.77051365 64 30
3.4714582 -0.70691675 0.67676795 59 29
3.1737335 -1.1016177 0.52002019 68 28
3.4889836 -0.71361905 0.43047911 64 27
3.1786866 -1.1033535 0.31827947 69 26
3.4888861 -0.71486169 0.24535817 66 25
3.1872308 -1.1063319 0.15570509 69 24
1.1257846 -0.2327683 0.025880035 8 23
3.1857421 -1.1064373 0 70 22
3.5007033 -0.71981484 -0.08216621 67 21
3.1868443 -1.1074445 -0.15570509 68 20
3.5006862 -0.71981752 -0.24499044 67 19
3.2005603 -1.1140933 -0.30110773 72 18
3.330709 -0.68499428 -0.38523811 12 17
2.9114778 -1.0143877 -0.42351761 7 16
3.100472 -0.63670796 -0.54575837 10 15
nan nan nan 0 13
3.5171294 -0.72131145 -0.81430477 68 14
2.8885846 -1.0142391 -1.0468589 5 12
2.934706 -0.59543884 -1.1969647 10 11
0.81795675 -0.28840148 -0.44204116 8 9
2.558311 -0.51666278 -1.2095447 12 10
0.73474872 -0.26019087 -0.4500339 8 8
0.69801122 -0.13990501 -0.45820424 9 7
0.59487522 -0.21216129 -0.45438719 14 6
0.56956053 -0.1125577 -0.46197864 14 5
0.49185157 -0.17721862 -0.46643078 11 4
0.46169603 -0.089799561 -0.4621357 10 3
0.30018935 -0.10842909 -0.33582228 4 2
nan nan nan 0 1
nan nan nan 0 0
3.4761784 -0.71738112 0.9377743 64 31
3.1695414 -1.1137979 0.76938635 64 30
3.4617572 -0.71754044 0.67534715 60 29
3.1675389 -1.1118697 0.51963383 66 28
3.4791818 -0.72428125 0.42957026 66 27
3.1726623 -1.1130629 0.31804159 69 26
3.4839275 -0.72652829 0.24518466 66 25
3.1762822 -1.1149646 0.15535572 69 24
nan nan nan 0 23
3.1771443 -1.115891 0 71 22
3.4934032 -0.73039991 -0.082050152 66 21
3.1829591 -1.1185619 -0.15570509 70 20
3.4932694 -0.73101449 -0.24464515 66 19
3.1921515 -1.1230448 -0.30066067 68 18
3.2966888 -0.69002455 -0.38154212 8 17
2.9174385 -1.0273335 -0.42489377 6 16
3.0885859 -0.6455189 -0.5440408 10 15
2.8901114 -1.0227503 -0.86735988 7 13
3.5099468 -0.73197907 -0.81318855 68 14
3.1588118 -1.1217527 -1.147377 27 12
2.928175 -0.60423458 -1.1950902 10 11
0.81491798 -0.29036549 -0.44086865 8 9
2.5542753 -0.52513635 -1.2084818 11 10
0.73589396 -0.26335317 -0.45132709 8 8
0.69548845 -0.14193463 -0.45680299 9 7
0.59790522 -0.21549658 -0.45741642 14 6
0.56169403 -0.11297904 -0.45551741 13 5
0.48787138 -0.17759477 -0.46297571 11 4
0.46307981 -0.091651969 -0.46395513 10 3
0.2983157 -0.10885668 -0.33391422 3 2
nan nan nan 0 1
nan nan nan 0 0
3.4619594 -0.72643286 0.93455172 58 31
3.1635361 -1.1234857 0.76882267 63 30
3.4545541 -0.72800714 0.67439997 62 29
3.1568522 -1.1198854 0.51847482 67 28
3.4694765 -0.73427826 0.42866144 62 27
3.1640677 -1.1224633 0.31756583 69 26
3.4766188 -0.7370463 0.24483761 67 25
3.1725674 -1.1254914 0.15535572 71 24
nan nan nan 0 23
3.1687155 -1.124745 0 71 22
3.4883878 -0.74207145 -0.081992127 67 21
3.1698213 -1.1257615 -0.15523927 72 20
3.4835062 -0.74104273 -0.24412718 67 19
3.1835213 -1.1325084 -0.30021358 74 18
3.299242 -0.70198315 -0.38211071 6 17
2.9324915 -1.0441692 -0.42764613 7 16
3.0791993 -0.65422755 -0.54275262 10 15
3.1287973 -1.1191059 -0.9409582 10 13
3.5026016 -0.74321824 -0.81207228 67 14
3.1572978 -1.1330211 -1.1481941 29 12
2.9283164 -0.61492646 -1.1960274 10 11
0.82220036 -0.29622468 -0.44555873 9 9
2.5547349 -0.53406459 -1.2095447 11 10
0.73095101 -0.26445186 -0.44874069 8 8
0.69907159 -0.14506572 -0.45960549 9 7
0.59528333 -0.21689394 -0.4559018 14 6
0.56878114 -0.11643194 -0.46197864 14 5
0.48894122 -0.17992957 -0.46470326 11 4
0.46107411 -0.092940114 -0.4621357 9 3
0.30548605 -0.1127601 -0.3434546 3 2
nan nan nan 0 1
nan nan nan 0 0
3.4523141 -0.737005 0.93261814 58 31
3.1550117 -1.1328725 0.76769537 64 30
3.4447904 -0.73852271 0.67297918 60 29
3.1482751 -1.1292272 0.5177021 66 28
3.4571869 -0.74430209 0.42744967 65 27
3.1531045 -1.130976 0.31685221 68 26
3.4691486 -0.74812943 0.24449058 66 25
3.1639192 -1.1348696 0.1551228 71 24
nan nan nan 0 23
3.1624177 -1.134953 0 71 22
3.4784467 -0.75266302 -0.081818044 66 21
3.1635227 -1.1359738 -0.1551228 72 20
3.4735844 -0.75162065 -0.24360923 67 19
3.1748638 -1.1419256 -0.29976651 72 18
3.2846315 -0.71087736 -0.38068917 9 17
2.9497921 -1.061963 -0.43074253 7 16
3.0720818 -0.6639353 -0.54189384 9 15
3.1519883 -1.1398474 -0.94921225 59 13
3.4904566 -0.75339019 -0.80983979 68 14
3.1511033 -1.1432281 -1.147377 30 12
2.926152 -0.62514442 -1.1960274 10 11
0.81287104 -0.29604757 -0.44086865 8 9
2.552855 -0.54297894 -1.2095447 11 10
0.7300235 -0.26700175 -0.44874069 8 8
0.68842411 -0.1454058 -0.45259929 9 7
0.5907954 -0.21758071 -0.45287254 14 6
0.56650126 -0.11803688 -0.46036333 13 5
0.4849292 -0.18035764 -0.46124819 11 4
0.46242869 -0.094882615 -0.46395513 9 3
nan nan nan 0 2
nan nan nan 0 1
nan nan nan 0 0
3.4448683 -0.74863088 0.93132913 60 31
3.1462605 -1.1427624 0.76656806 64 30
3.437263 -0.75010014 0.672032 64 29
3.141794 -1.1399148 0.51731575 67 28
3.4544358 -0.75696832 0.42744967 65 27
3.153616 -1.1442258 0.31732798 69 26
3.4590738 -0.75924045 0.24397001 66 25
3.1550441 -1.1447515 0.15488988 72 24
3.4783731 -0.76472872 0.081876069 50 23
3.1558871 -1.1456815 0 71 22
3.4683409 -0.76379955 -0.081643969 67 21
3.1569912 -1.1467069 -0.15500633 72 20
3.4659345 -0.76327753 -0.24326394 63 19
3.1659782 -1.1518488 -0.29931942 71 18
3.2722998 -0.72078127 -0.37955195 17 17
2.9435539 -1.0719184 -0.43039846 7 16
3.0672221 -0.67466336 -0.54146445 9 15
3.143276 -1.1497381 -0.94783658 67 13
3.485291 -0.76565707 -0.80928171 68 14
3.1446743 -1.1539543 -1.1465597 30 12
2.926106 -0.6363557 -1.1969647 10 11
0.81385028 -0.29979384 -0.44204116 8 9
2.5464239 -0.55137867 -1.2074189 11 10
0.72503132 -0.26817843 -0.44615427 8 8
0.68991238 -0.14835529 -0.45400053 9 7
0.59185499 -0.22044638 -0.45438719 15 6
0.5735389 -0.12165885 -0.46682456 14 5
0.48595297 -0.18277875 -0.46297571 11 4
0.45871669 -0.095897317 -0.46031627 9 3
0.26550761 -0.099776171 -0.29384449 4 2
nan nan nan 0 1
nan nan nan 0 0
3.4327981 -0.75857311 0.92875105 59 31
3.1376808 -1.152056 0.76544076 64 30
3.4298301 -0.76103377 0.67108482 59 29
3.1308408 -1.1483184 0.51615673 68 28
3.4372368 -0.76579416 0.42563203 66 27
3.142796 -1.1521029 0.31661433 69 26
3.4490993 -0.76968575 0.24344945 65 25
3.1463411 -1.1540347 0.15465696 71 24
3.451287 -0.77143079 0.081295803 65 23
3.1424835 -1.1532394 0 71 22
3.4609101 -0.7742089 -0.081527911 66 21
3.1482818 -1.1559954 -0.15477343 71 20
3.4535122 -0.77319837 -0.24257334 63 19
3.1598048 -1.1614807 -0.2990959 70 18
3.2503707 -0.72787154 -0.37727749 20 17
2.9213967 -1.0748205 -0.42764613 5 16
3.0504248 -0.68215245 -0.5388881 8 15
3.1482584 -1.1640433 -0.95058793 67 13
3.4755967 -0.77562314 -0.80760729 67 14
3.1317687 -1.1616315 -1.1432909 29 12
2.9262433 -0.64655364 -1.1979021 10 11
0.81698608 -0.30404258 -0.44438621 8 9
2.546694 -0.5607484 -1.2084818 12 10
0.7221362 -0.26982605 -0.44486105 7 8
0.68331736 -0.1494596 -0.44979683 9 7
0.58740336 -0.22099198 -0.45135793 15 6
0.57313228 -0.12356012 -0.46682456 14 5
0.48365825 -0.18373865 -0.46124819 11 4
0.4634344 -0.098453976 -0.46577457 9 3
nan nan nan 0 2
nan nan nan 0 1
nan nan nan 0 0
3.4279065 -0.76942515 0.92810655 58 31
3.124711 -1.1590601 0.76318616 64 30
3.4248924 -0.77186537 0.6706112 64 29
3.1223845 -1.1569748 0.51538408 68 28
3.4322579 -0.77664232 0.42532912 64 27
3.1317563 -1.1604675 0.31590068 70 26
3.4440954 -0.78056955 0.24327591 66 25
3.1378145 -1.1627234 0.15442404 72 24
3.4462724 -0.78231984 0.081237778 67 23
3.1362982 -1.1627833 0 71 22
3.4508741 -0.78462762 -0.081353828 66 21
3.1397498 -1.1646889 -0.15454051 73 20
3.4460645 -0.78354388 -0.24222805 63 19
3.1510642 -1.1707658 -0.2986488 65 18
3.2430944 -0.73754817 -0.37670887 22 17
2.8990645 -1.0780934 -0.42489377 7 16
3.0457439 -0.69172072 -0.5384587 8 15
3.1421301 -1.1736344 -0.94990009 68 13
3.4609838 -0.78506351 -0.80481666 68 14
3.1301115 -1.172841 -1.1441081 30 12
2.9217067 -0.65625817 -1.1969647 10 11
0.81385535 -0.30610955 -0.44321367 8 9
2.5448205 -0.56919038 -1.2084818 11 10
0.72718745 -0.27463177 -0.44874069 7 8
0.68686372 -0.15260686 -0.45259929 9 7
0.58477217 -0.22232667 -0.44984332 15 6
0.57642919 -0.1263586 -0.47005519 13 5
0.47627926 -0.18280007 -0.4543381 11 4
0.45805332 -0.099017449 -0.46031627 9 3
0.23928335 -0.091490127 -0.26140711 3 2
nan nan nan 0 1
nan nan nan 0 0
3.4157784 -0.77924383 0.92552847 59 31
3.1206462 -1.1699604 0.76318616 64 30
3.4197841 -0.78326946 0.67013758 64 29
3.1137021 -1.1661313 0.51461136 68 28
3.4222693 -0.78695512 0.42442027 67 27
3.1276863 -1.1713923 0.31590068 70 26
3.4316266 -0.79035473 0.24258183 67 25
3.1313989 -1.1727921 0.15430759 72 24
3.4360747 -0.79326415 0.081063695 68 23
3.1275392 -1.1719663 0 71 22
3.4408076 -0.79498583 -0.081179753 67 21
3.1354597 -1.1761889 -0.15454051 73 20
3.4384475 -0.79444855 -0.24188274 68 19
3.1399672 -1.1791273 -0.29797819 67 18
3.2161663 -0.74385095 -0.37386578 26 17
2.9022355 -1.0908251 -0.42592594 6 16
3.0479884 -0.70398396 -0.53931749 7 15
3.1333115 -1.1834415 -0.94852448 67 13
3.455847 -0.79659414 -0.80425853 68 14
3.1213739 -1.1826283 -1.1424736 30 12
2.9102423 -0.66490537 -1.1932154 9 11
0.80659664 -0.30657798 -0.4396961 8 9
2.5427172 -0.57851386 -1.2084818 11 10
0.72218323 -0.27575612 -0.44615427 7 8
0.6923635 -0.1564687 -0.45680299 9 7
0.59136772 -0.22735325 -0.4559018 15 6
0.57223344 -0.12765816 -0.46682456 14 5
0.48233107 -0.18719491 -0.46124819 11 4
0.46104115 -0.10141034 -0.46395513 9 3
0.22696084 -0.087534219 -0.24614246 3 2
nan nan nan 0 1
nan nan nan 0 0
3.4105458 -0.79121381 0.9248839 60 31
3.1095061 -1.1787953 0.76149517 65 30
3.4097168 -0.79413289 0.66871685 64 29
3.1070976 -1.1766593 0.51422501 68 28
3.4145284 -0.79836643 0.42381439 66 27
3.1163919 -1.1801993 0.31518707 70 26
3.4214208 -0.80122614 0.24206127 65 25
3.1224096 -1.1824894 0.15407467 72 24
3.4259839 -0.80354649 0.080889612 67 23
3.1185484 -1.1816468 0 73 22
3.4305704 -0.80588204 -0.08100567 64 21
3.1219966 -1.1835792 -0.15407467 72 20
3.4282277 -0.80533975 -0.24136479 65 19
3.1356244 -1.1906281 -0.29797819 71 18
3.203877 -0.75280762 -0.37272856 24 17
2.8797054 -1.0944042 -0.42317358 5 16
3.0359194 -0.71237624 -0.53759992 7 15
3.1291616 -1.1943715 -0.94852448 29 13
3.4529045 -0.80925512 -0.80425853 70 14
3.1106091 -1.1909776 -1.1400219 30 12
2.9146779 -0.67662632 -1.1960274 10 11
0.81370288 -0.31272322 -0.44438621 8 9
2.5428877 -0.58789355 -1.2095447 12 10
0.72919095 -0.28138131 -0.45132709 7 8
0.69181305 -0.15888456 -0.45680299 9 7
0.58686829 -0.22796081 -0.45287254 14 6
0.56433266 -0.12800421 -0.46036333 14 5
0.47831684 -0.18754049 -0.45779315 11 4
0.45900869 -0.10265586 -0.4621357 9 3
0.21914846 -0.085343868 -0.23660207 3 2
nan nan nan 0 1
nan nan nan 0 0
3.3983574 -0.80090445 0.92230582 60 31
3.1053724 -1.1896424 0.76149517 64 30
3.3973675 -0.80377644 0.66682243 63 29
3.1052775 -1.1883825 0.51461136 68 28
3.4093058 -0.80970871 0.42351145 67 27
3.1099296 -1.1901793 0.31494918 69 26
3.4113233 -0.81143796 0.24154072 63 25
3.1159313 -1.1924874 0.15395822 72 24
3.415863 -0.81376791 0.080715537 68 23
3.1120706 -1.1916298 0 72 22
3.4228733 -0.81669533 -0.080889612 61 21
3.1155148 -1.1935749 -0.15395822 72 20
3.4229693 -0.81672448 -0.24119213 68 19
3.1244764 -1.1988852 -0.29730755 73 18
3.198813 -0.76341188 -0.37244424 20 17
2.8088496 -1.0786566 -0.4131963 6 16
3.0453956 -0.7258147 -0.53974688 6 15
3.1182475 -1.2026877 -0.9464609 63 13
3.4405742 -0.81905234 -0.80202603 67 14
3.1020269 -1.2001204 -1.1383874 29 12
2.9122982 -0.68679637 -1.1960274 10 11
0.80643815 -0.31314686 -0.44086865 8 9
2.5430231 -0.59728146 -1.2106074 12 10
0.72223151 -0.28157461 -0.44744751 7 8
0.69327223 -0.16176105 -0.45820424 9 7
0.5916146 -0.23221032 -0.45741642 14 6
0.56574392 -0.13039249 -0.46197864 14 5
0.48101249 -0.19055763 -0.46124819 10 4
0.45195013 -0.10278127 -0.45485798 9 3
0.21585745 -0.084889233 -0.23278591 4 2
nan nan nan 0 1
nan nan nan 0 0
3.3931916 -0.81220144 0.92166132 59 31
3.0989304 -1.1995943 0.76093155 66 30
3.3897665 -0.81448692 0.66587526 64 29
3.091898 -1.1956451 0.51306599 69 28
3.3919821 -0.81812364 0.42169383 67 27
3.101115 -1.1992294 0.31447342 69 26
3.4036207 -0.82217294 0.24119367 66 25
3.1070926 -1.2015522 0.1537253 71 24
3.4081423 -0.82451457 0.080599479 67 23
3.1032302 -1.2006785 0 72 22
3.4127133 -0.82687789 -0.080715537 66 21
3.106673 -1.2026367 -0.1537253 73 20
3.4152491 -0.82749671 -0.24084684 68 19
3.1156306 -1.2079812 -0.29686049 73 18
3.203372 -0.77632284 -0.37329718 19 17
2.8073752 -1.0893523 -0.41354033 6 16
3.0308726 -0.73355341 -0.53759992 5 15
3.1162696 -1.2144394 -0.94714874 67 13
3.4305871 -0.82934439 -0.80035168 69 14
3.0956192 -1.2100797 -1.1375704 24 12
2.9121375 -0.69749588 -1.1969647 10 11
0.81355304 -0.31920835 -0.44555873 8 9
2.5387211 -0.60563183 -1.2095447 11 10
0.72720879 -0.28646511 -0.45132709 7 8
0.690687 -0.16371042 -0.45680299 9 7
0.58710849 -0.23279288 -0.45438719 15 6
0.56156534 -0.13151519 -0.45874804 14 5
0.47867015 -0.19155535 -0.45952067 10 4
0.45660776 -0.10548292 -0.46031627 9 3
0.20809105 -0.082568362 -0.22324549 3 2
nan nan nan 0 1
nan nan nan 0 0
3.3809457 -0.82176578 0.91908324 59 31
3.0879209 -1.207738 0.75924057 65 30
3.3869028 -0.82631445 0.66587526 65 29
3.0808055 -1.2037293 0.51190692 69 28
3.3891053 -0.82995886 0.42169383 68 27
3.0924859 -1.2076927 0.31399769 70 26
3.3958848 -0.83286405 0.24084663 66 25
3.0982285 -1.2105697 0.15349238 72 24
3.3979609 -0.8346228 0.080425397 68 23
3.0943644 -1.2096797 0 72 22
3.4050975 -0.83700043 -0.080599479 62 21
3.0978057 -1.2116511 -0.15349238 73 20
3.4050732 -0.83763087 -0.24032889 69 19
3.1116078 -1.2183064 -0.29686049 74 18
3.1909938 -0.78513342 -0.37215996 17 17
2.8083572 -1.1004661 -0.41422844 6 16
3.0235093 -0.74295712 -0.53674114 4 15
3.1120114 -1.2253098 -0.94714874 68 13
3.4230835 -0.83955842 -0.7992354 69 14
3.0891795 -1.2200086 -1.1367531 28 12
2.9098084 -0.70714909 -1.1969647 10 11
0.80633849 -0.31944773 -0.44204116 8 9
2.5365918 -0.61448991 -1.2095447 12 10
0.72426927 -0.2880781 -0.4500339 8 8
0.6921261 -0.16659701 -0.45820424 9 7
0.58817679 -0.23548521 -0.4559018 14 6
0.55926752 -0.13294488 -0.45713273 13 5
0.47468838 -0.19177017 -0.45606562 10 4
0.44956827 -0.10547475 -0.45303854 9 3
0.19886589 -0.079539686 -0.21179701 3 2
nan nan nan 0 1
nan nan nan 0 0
3.3758562 -0.83239627 0.91843879 60 31
3.0816343 -1.2170751 0.75867695 66 30
3.3769941 -0.83577716 0.66445446 64 29
3.0745001 -1.2130309 0.51152056 68 28
3.379108 -0.83940327 0.42078498 69 27
3.0882514 -1.2184802 0.31399769 70 26
3.3906834 -0.84352028 0.24067311 68 25
3.0918748 -1.2199191 0.15337592 73 24
3.3927488 -0.84528363 0.080367371 68 23
3.0880113 -1.2190149 0 72 22
3.39973 -0.84827805 -0.080541454 69 21
3.0891268 -1.2200795 -0.15325947 73 20
3.3974361 -0.84771371 -0.23998359 69 19
3.1050212 -1.2282431 -0.29663694 74 18
3.1956034 -0.79750967 -0.37301287 14 17
2.8091018 -1.1120887 -0.41491652 6 16
3.0521016 -0.76069778 -0.54232323 4 15
3.1056979 -1.2347332 -0.9464609 68 13
3.4083064 -0.84856677 -0.79644477 63 14
3.0829225 -1.2293693 -1.1359359 29 12
2.9050717 -0.7167486 -1.1960274 10 11
0.81136143 -0.32473862 -0.44555873 8 9
2.5367379 -0.62343591 -1.2106074 11 10
0.72920763 -0.2930162 -0.45391351 8 8
0.6895566 -0.16840795 -0.45680299 9 7
0.5873512 -0.23753691 -0.4559018 15 6
0.56437123 -0.13621119 -0.46197864 13 5
0.47568563 -0.19411752 -0.45779315 10 4
0.45420876 -0.10820221 -0.45849684 9 3
0.19113936 -0.077108771 -0.20225659 3 2
nan nan nan 0 1
nan nan nan 0 0
3.3682427 -0.84300554 0.91714972 60 31
3.0728438 -1.2260164 0.75754958 65 30
3.3692939 -0.8463673 0.66350722 64 29
3.0702469 -1.2237555 0.51152056 69 28
3.3713441 -0.84998345 0.4201791 67 27
3.0770459 -1.2264838 0.31328407 70 26
3.3828814 -0.85413307 0.24032606 69 25
3.0852785 -1.2297782 0.15325947 73 24
3.3847811 -0.85649025 0.080251321 68 23
3.0814159 -1.2288591 0 72 22
3.3943248 -0.8595283 -0.080483429 67 21
3.0846341 -1.2313936 -0.15325947 73 20
3.387202 -0.85773623 -0.23946564 68 19
3.0937803 -1.2362977 -0.29596633 74 18
3.1830266 -0.80678296 -0.37187561 10 17
2.8075016 -1.1228087 -0.41526055 6 16
3.0636208 -0.77549416 -0.54489958 5 15
3.0944629 -1.243415 -0.94439739 68 13
3.4029605 -0.85986352 -0.79588664 60 14
3.0762053 -1.2397758 -1.1351186 29 12
2.9024251 -0.72739148 -1.1960274 10 11
0.80408871 -0.32506922 -0.44204116 9 9
2.5322402 -0.63218349 -1.2095447 12 10
0.71624982 -0.29081988 -0.44615427 8 8
0.69295764 -0.17191556 -0.45960549 9 7
0.58647668 -0.23968807 -0.4559018 14 6
0.56757909 -0.13916901 -0.46520928 14 5
0.479972 -0.1979527 -0.46297571 10 4
0.44713295 -0.10829668 -0.45121911 9 3
0.17599563 -0.071474373 -0.18317579 3 2
nan nan nan 0 1
nan nan nan 0 0
3.3627884 -0.85475183 0.91650516 60 31
3.066071 -1.2363583 0.75698596 65 30
3.366169 -0.85871071 0.66350722 64 29
3.0611601 -1.2331513 0.51074791 68 28
3.3658016 -0.86172062 0.41987616 67 27
3.07253 -1.2377536 0.31328407 69 26
3.3700628 -0.86405545 0.23963198 68 25
3.0784345 -1.2401433 0.153143 72 24
3.3696644 -0.86520076 0.079961181 68 23
3.0745728 -1.2392086 0 72 22
3.3814673 -0.86948049 -0.080251321 68 21
3.075686 -1.2402823 -0.15302655 73 20
3.3792033 -0.86890632 -0.23912033 67 19
3.0915365 -1.2485626 -0.29618987 73 18
3.1874084 -0.8197394 -0.37272856 10 17
2.8102524 -1.1358799 -0.4162927 6 16
3.0871401 -0.79290241 -0.54962289 6 15
3.0945566 -1.2560202 -0.94577312 69 13
3.3950646 -0.8711223 -0.79477042 63 14
3.0652959 -1.2478292 -1.1326669 31 12
2.8998685 -0.73751837 -1.1960274 10 11
0.80493355 -0.32885483 -0.44321367 8 9
2.5322115 -0.64157236 -1.2106074 12 10
0.71523029 -0.29331827 -0.44615427 7 8
0.68431449 -0.17234252 -0.45400053 9 7
0.58563644 -0.24173377 -0.4559018 14 6
0.57079756 -0.14205255 -0.46843988 14 5
0.47761354 -0.19892342 -0.46124819 10 4
0.45342284 -0.11144967 -0.45849684 9 3
0.1697924 -0.069576703 -0.17554346 3 2
nan nan nan 0 1
nan nan nan 0 0
3.3551061 -0.86528188 0.91521615 60 31
3.0617371 -1.2470534 0.75698596 65 30
3.3536434 -0.86800206 0.66161287 63 29
3.0499754 -1.241032 0.50958884 68 28
3.3507614 -0.87035328 0.41836146 68 27
3.065886 -1.2475317 0.31304619 70 26
3.3670263 -0.8758139 0.23963198 68 25
3.0694621 -1.2489961 0.1529101 74 24
3.3642046 -0.87632948 0.079903156 68 23
3.0725436 -1.2508776 0 74 22
3.3711553 -0.87939125 -0.080077231 68 21
3.0644016 -1.2481803 -0.15267718 74 20
3.3689089 -0.87881321 -0.23860238 69 19
3.0802443 -1.2565204 -0.29551923 75 18
3.1580858 -0.82398289 -0.36960116 22 17
2.8131461 -1.1484956 -0.41732484 7 16
3.1177263 -0.81234181 -0.55563438 7 15
3.079037 -1.2622484 -0.94233394 68 13
3.3849268 -0.88113135 -0.79309607 68 14
3.0565524 -1.2567215 -1.1310326 31 12
2.9017658 -0.74879062 -1.1979021 10 11
0.79970324 -0.32996696 -0.44086865 8 9
2.5299568 -0.65040749 -1.2106074 11 10
0.72209853 -0.29911304 -0.45132709 8 8
0.68973255 -0.17624435 -0.45820424 9 7
0.58845448 -0.24532191 -0.45893103 15 6
0.56103677 -0.14175388 -0.46036333 12 5
0.47857836 -0.2012987 -0.46297571 10 4
0.45136479 -0.11262769 -0.45667741 9 3
0.16213453 -0.066965267 -0.16600306 3 2
nan nan nan 0 1
nan nan nan 0 0
3.3522179 -0.87640303 0.91521615 60 31
3.0508285 -1.2544163 0.75529498 65 30
3.3412476 -0.87663341 0.65971845 60 29
3.0435593 -1.2501992 0.50920248 68 28
3.3454566 -0.88082981 0.41805851 68 27
3.0571294 -1.2557973 0.31257039 71 26
3.3592799 -0.88570642 0.23928495 68 25
3.0606844 -1.257267 0.15267718 73 24
3.3588634 -0.88684446 0.079845123 68 23
3.0660667 -1.2601076 0 73 22
3.3633871 -0.88929123 -0.079961181 68 21
3.0579364 -1.2573841 -0.15256071 73 20
3.3611529 -0.88870841 -0.23825708 70 19
3.0737591 -1.2657783 -0.29529572 74 18
3.1625414 -0.83635056 -0.37045407 29 17
2.8688283 -1.1823934 -0.42626995 7 16
3.1197789 -0.8239302 -0.55649322 8 15
3.0748341 -1.2724521 -0.94233394 69 13
3.3796296 -0.89173126 -0.79253793 69 14
3.0501869 -1.2659434 -1.1302153 31 12
2.8970237 -0.75782448 -1.1969647 10 11
0.79860461 -0.33261707 -0.44086865 7 9
2.527786 -0.65879357 -1.2106074 11 10
0.71913135 -0.30067447 -0.4500339 8 8
0.68312562 -0.17699647 -0.45400053 9 7
0.58946788 -0.24805067 -0.46044567 14 6
0.56241447 -0.14407778 -0.46197864 14 5
0.47956795 -0.20359942 -0.46470326 9 4
0.45265374 -0.11453341 -0.45849684 9 3
0.15746959 -0.065565586 -0.16027881 3 2
nan nan nan 0 1
nan nan nan 0 0
3.342133 -0.88624686 0.91328263 60 31
3.0419338 -1.2631868 0.75416774 65 30
3.3334222 -0.88703215 0.65877134 65 29
3.0368962 -1.2598677 0.50881618 68 28
3.3375657 -0.89122534 0.41745263 69 27
3.0481315 -1.2645507 0.31209466 70 26
3.348938 -0.89549941 0.23876438 68 25
3.0539711 -1.2669846 0.15256071 73 24
3.3483465 -0.89721382 0.079671048 69 23
3.059341 -1.2698426 0 73 22
3.3554335 -0.89973497 -0.079845123 68 21
3.0533073 -1.2685834 -0.15256071 74 20
3.3556211 -0.89979136 -0.23808445 71 19
3.0670235 -1.2755424 -0.29507217 74 18
3.1762502 -0.85243034 -0.37244424 29 17
2.8852522 -1.200979 -0.42936635 7 16
3.150049 -0.84425998 -0.56250471 8 15
3.065716 -1.2818558 -0.9409582 68 13
3.3741415 -0.90289462 -0.79197979 70 14
3.0455263 -1.2771143 -1.1302153 31 12
2.8964674 -0.76903033 -1.1979021 10 11
0.80150455 -0.33712605 -0.44321367 8 9
2.5209785 -0.66690099 -1.2084818 12 10
0.7140879 -0.30163074 -0.44744751 7 8
0.68848538 -0.18105528 -0.45820424 9 7
0.58490014 -0.24863863 -0.45741642 14 6
0.56373161 -0.14660911 -0.46359396 12 5
0.47550425 -0.20391397 -0.46124819 10 4
0.44557735 -0.11452907 -0.45121911 9 3
0.15576136 -0.065464042 -0.15837073 3 2
nan nan nan 0 1
nan nan nan 0 0
3.3295302 -0.89598644 0.91070455 59 31
3.0350382 -1.2733837 0.75360405 66 30
3.3254075 -0.89796722 0.6578241 65 29
3.0299807 -1.2700335 0.50842983 69 28
3.3294852 -0.90215749 0.41684675 68 27
3.0411813 -1.2747505 0.31185678 70 26
3.3384111 -0.90581369 0.23824382 67 25
3.0447021 -1.2762356 0.15232781 72 24
3.3427818 -0.90824258 0.079613015 69 23
3.0546665 -1.2810471 0 73 22
3.3497012 -0.91137278 -0.079787105 68 21
3.0442562 -1.2772983 -0.15232781 67 20
3.3450794 -0.91012508 -0.23756649 71 19
3.0600326 -1.2858088 -0.29484862 73 18
3.2403748 -0.88172305 -0.38040489 18 17
2.9150598 -1.2259694 -0.43452701 7 16
3.1447058 -0.85460651 -0.56207532 9 15
3.0523686 -1.2888038 -0.93820691 69 13
3.3590486 -0.91207105 -0.78918916 69 14
3.0345244 -1.2849691 -1.1277636 31 12
2.8892884 -0.77793497 -1.1960274 10 11
0.79823381 -0.33919233 -0.44204116 8 9
2.5230072 -0.67686498 -1.2106074 11 10
0.72089207 -0.30750391 -0.4526203 8 8
0.68184155 -0.18188024 -0.45400053 9 7
0.58220416 -0.24988699 -0.4559018 13 6
0.5558269 -0.14666632 -0.45713273 11 5
0.47478956 -0.20557256 -0.46124819 10 4
0.44683674 -0.11650519 -0.45303854 9 3
nan nan nan 0 2
nan nan nan 0 1
nan nan nan 0 0
3.3193901 -0.9057008 0.90877098 61 31
3.0260909 -1.2820669 0.75247675 66 30
3.3151488 -0.90763026 0.6564033 62 29
3.0232551 -1.2796381 0.50804347 69 28
