# .PCD v0.7 - Point Cloud Data file format
VERSION 0.7
FIELDS x y z intensity ring
SIZE 4 4 4 4 2
TYPE F F F F U
COUNT 1 1 1 1 1
WIDTH 1258
HEIGHT 1
VIEWPOINT 0 0 0 1 0 0 0
POINTS 1258
DATA ascii
-0.47153935 -0.22577652 -0.46643078 6 4
-0.33882657 -0.23146437 -0.39845559 5 3
-0.15625826 -0.076100469 -0.16409497 4 2
-0.30819991 -0.21221352 -0.44546515 4 1
nan nan nan 0 0
-0.59054327 -0.39201957 0.17982064 58 31
-0.73091537 -0.35898244 0.18036895 74 30
-0.58364624 -0.38670009 0.12834437 57 29
-0.72735554 -0.35754061 0.12131228 67 28
-0.58589542 -0.38749403 0.08149112 55 27
-0.72810006 -0.35804811 0.074217632 59 26
-0.60125738 -0.39743647 0.047718175 64 25
-0.74180567 -0.36457434 0.036917362 57 24
-0.60261923 -0.39804778 0.015957421 62 23
-0.726915 -0.3571479 0 61 22
-0.60060775 -0.3965584 -0.015899394 64 21
-0.73519927 -0.36103117 -0.036567986 60 20
-0.59116441 -0.39012134 -0.046615519 61 19
-0.72878492 -0.35759419 -0.069744334 59 18
-0.60334092 -0.39821026 -0.078753479 60 17
-0.73394871 -0.35979986 -0.10871776 60 16
-0.59018195 -0.38973534 -0.11722426 63 15
-0.72679722 -0.35495237 -0.22148287 77 13
-0.59227276 -0.39140227 -0.15460071 61 14
-0.74083346 -0.36083376 -0.27295148 69 12
-0.58130348 -0.38589728 -0.26807511 69 11
-0.29519725 -0.14427724 -0.15594555 5 9
-0.59803623 -0.39779758 -0.32098636 53 10
-0.27176234 -0.13250956 -0.16165011 6 8
-0.29791594 -0.19827037 -0.21859284 5 7
-0.44384509 -0.21310005 -0.34836349 6 6
-0.3487682 -0.23454794 -0.32629263 5 5
-0.48865011 -0.23187737 -0.483706 5 4
-0.3480621 -0.23617812 -0.40937218 5 3
-0.15797561 -0.076260448 -0.16600306 4 2
-0.30517259 -0.20859256 -0.43949908 4 1
nan nan nan 0 0
-0.58781576 -0.38738635 0.1785316 60 31
-0.73648721 -0.3586776 0.18149626 75 30
-0.58697134 -0.3861188 0.12881798 54 29
-0.73298353 -0.35727897 0.12208497 67 28
-0.58924675 -0.38691831 0.081794061 57 27
-0.73830551 -0.35984161 0.075169139 56 26
-0.6067329 -0.3981913 0.048065215 65 25
-0.74301052 -0.3621124 0.036917362 61 24
-0.60810661 -0.39880255 0.016073475 60 23
-0.73259616 -0.35691315 0 60 22
-0.61033165 -0.39996716 -0.016131502 62 21
-0.73414427 -0.35750386 -0.03645153 63 20
-0.59661764 -0.39090687 -0.04696082 61 19
-0.73451304 -0.35721391 -0.070191406 58 18
-0.59636676 -0.3907339 -0.077616245 63 17
-0.73743033 -0.35831189 -0.1090618 61 16
-0.59147114 -0.38777611 -0.11722426 64 15
-0.74096692 -0.3587895 -0.22560987 77 13
-0.60176754 -0.39470688 -0.1568332 62 14
-0.73350447 -0.35428861 -0.26968262 67 12
-0.58457762 -0.38514802 -0.26901242 66 11
-0.29769313 -0.14419407 -0.15711807 6 9
-0.60500306 -0.39957383 -0.32417497 51 10
-0.27222323 -0.13156013 -0.16165011 6 8
-0.30716404 -0.20305511 -0.22559904 4 7
-0.43378395 -0.20647776 -0.33927575 6 6
-0.34800524 -0.23225877 -0.32467732 5 5
-0.48781744 -0.2294094 -0.48197848 6 4
-0.34605435 -0.23302539 -0.40573332 5 3
-0.15383616 -0.073688202 -0.16027881 4 2
-0.3121295 -0.21183392 -0.44944251 4 1
nan nan nan 0 0
-0.59521478 -0.38932014 0.18046516 61 31
-0.74212742 -0.35821015 0.18262357 72 30
-0.59446788 -0.38811496 0.13023876 55 29
-0.73645312 -0.35578659 0.12247132 66 28
-0.59059376 -0.38485909 0.081794061 55 27
-0.73731333 -0.35618576 0.074931264 59 26
-0.60603398 -0.39470282 0.047891695 65 25
-0.74877316 -0.36167705 0.037150279 58 24
-0.60747385 -0.39520103 0.016015448 63 23
-0.73609173 -0.35543472 0 61 22
-0.61172414 -0.39783427 -0.016131502 61 21
-0.73770183 -0.35588974 -0.036567986 64 20
-0.59589237 -0.38745514 -0.046788171 61 19
-0.7335096 -0.35357273 -0.069967866 61 18
-0.60195053 -0.39126694 -0.078184858 62 17
-0.74314433 -0.35787237 -0.10974989 60 16
-0.59494829 -0.38695565 -0.11765365 61 15
-0.73793715 -0.35400417 -0.22423421 77 13
-0.60314167 -0.39260393 -0.1568332 61 14
-0.74546856 -0.35666677 -0.27376872 69 12
-0.58792067 -0.38427803 -0.26994976 65 11
-0.30218938 -0.14503637 -0.15946312 5 9
-0.60457528 -0.39610672 -0.3231121 50 10
-0.26882923 -0.12874496 -0.15906371 6 8
-0.31135157 -0.20422485 -0.2284015 5 7
-0.44355515 -0.20907986 -0.34684888 6 6
-0.3583554 -0.2373687 -0.33436915 5 5
-0.50343215 -0.23441355 -0.49752614 6 4
-0.35258037 -0.23560736 -0.41301104 5 3
-0.15409245 -0.073150769 -0.16027881 4 2
-0.30415887 -0.20468949 -0.43552172 4 1
nan nan nan 0 0
-0.59865934 -0.38845786 0.18110968 57 31
-0.74343526 -0.3554877 0.18262357 73 30
-0.59588635 -0.38593349 0.13023876 50 29
-0.73552132 -0.35202473 0.12208497 68 28
-0.60031772 -0.38810974 0.083005823 57 27
-0.74985242 -0.35882226 0.076120645 58 26
-0.61374712 -0.39656043 0.048412256 64 25
-0.74783826 -0.35785827 0.037033822 63 24
-0.61303997 -0.39580354 0.016131502 61 23
-0.73964769 -0.35380715 0 61 22
-0.61736941 -0.39831346 -0.016247556 62 21
-0.7411955 -0.35438371 -0.036684446 61 20
-0.60776436 -0.39206386 -0.047651418 62 19
-0.74604976 -0.35621622 -0.071085565 64 18
-0.60956043 -0.39322385 -0.079037786 64 17
-0.74445105 -0.35514617 -0.10974989 61 16
-0.60248917 -0.38890493 -0.11894184 61 15
-0.74351537 -0.35347816 -0.22560987 75 13
-0.60457659 -0.39039063 -0.1568332 61 14
-0.74029619 -0.3510434 -0.27131706 64 12
-0.59313792 -0.3847602 -0.27182442 68 11
-0.30271891 -0.14392781 -0.15946312 5 9
-0.60595423 -0.39399394 -0.3231121 44 10
-0.27121735 -0.12870729 -0.16035691 6 8
-0.32242259 -0.20999132 -0.23680891 5 7
-0.44066951 -0.20586553 -0.34381962 6 6
-0.35759452 -0.23505741 -0.33275387 5 5
-0.50095826 -0.23115657 -0.4940711 6 4
-0.35197875 -0.23341718 -0.41119161 5 3
nan nan nan 0 2
nan nan nan 0 1
nan nan nan 0 0
-0.59595919 -0.38373607 0.17982064 58 31
-0.75128317 -0.35600159 0.18431453 69 30
-0.59722984 -0.38385108 0.13023876 56 29
-0.74791837 -0.35471737 0.1240167 65 28
-0.59750074 -0.38331744 0.082399942 56 27
-0.74659753 -0.35408181 0.075644895 62 26
-0.61512762 -0.39441568 0.048412256 61 25
-0.75360131 -0.3573738 0.037266739 60 24
-0.61861765 -0.39637196 0.016247556 59 23
-0.74087822 -0.35122314 0 63 22
-0.618756 -0.39615598 -0.016247556 62 21
-0.75372607 -0.35711074 -0.037266739 64 20
-0.60912919 -0.38993999 -0.047651418 66 19
-0.75630295 -0.3578459 -0.071979731 59 18
-0.61301666 -0.3924399 -0.079322092 63 17
-0.75689346 -0.35780725 -0.11147011 61 16
-0.60384297 -0.38679951 -0.11894184 64 15
-0.74692184 -0.35189909 -0.22629771 77 13
-0.60798281 -0.38959974 -0.15739132 61 14
-0.74794036 -0.35145375 -0.27376872 61 12
-0.60030991 -0.3864722 -0.27463639 66 11
-0.30522352 -0.1437971 -0.16063565 5 9
-0.61491334 -0.39681134 -0.32736358 46 10
-0.27166498 -0.12775978 -0.16035691 6 8
-0.31796169 -0.20545541 -0.2326052 5 7
-0.44681326 -0.20680425 -0.34836349 6 6
-0.36159474 -0.23591457 -0.33598447 5 5
-0.50835061 -0.23237996 -0.50098121 6 4
-0.35991767 -0.23695236 -0.42028877 5 3
nan nan nan 0 2
nan nan nan 0 1
nan nan nan 0 0
-0.60135669 -0.384269 0.18110968 61 31
-0.74810642 -0.3513183 0.18318723 74 30
-0.60063112 -0.3830913 0.13071236 53 29
-0.74915206 -0.35210451 0.1240167 65 28
-0.60092384 -0.3825694 0.082702883 59 27
-0.75453252 -0.35476288 0.076358527 60 26
-0.61650062 -0.39226604 0.048412256 65 25
-0.7616331 -0.35790965 0.037616115 61 24
-0.62210214 -0.39555818 0.016305583 58 23
-0.75116199 -0.35286263 0 63 22
-0.62638086 -0.39814493 -0.016421637 59 21
-0.75496805 -0.35447758 -0.037266739 64 20
-0.61468798 -0.39050025 -0.047996718 63 19
-0.75748545 -0.35533595 -0.071979731 62 18
-0.61856681 -0.39297554 -0.079890713 63 17
-0.75807583 -0.35529533 -0.11147011 62 16
-0.61141121 -0.38867438 -0.12023001 63 15
-0.75250685 -0.35131133 -0.22767338 73 13
-0.611323 -0.38889652 -0.15794946 61 14
-0.7555964 -0.35181502 -0.27622038 64 12
-0.60158813 -0.38447934 -0.27463639 65 11
-0.3016845 -0.14094377 -0.15829061 5 9
-0.60869002 -0.38975403 -0.3231121 44 10
-0.27792645 -0.12952301 -0.1642365 6 8
-0.32214612 -0.20660493 -0.23540768 5 7
-0.4438726 -0.20368132 -0.34533426 6 6
-0.36875275 -0.23890673 -0.3424457 5 5
-0.51241767 -0.23216873 -0.50443625 6 4
-0.3621299 -0.23670584 -0.4221082 5 3
nan nan nan 0 2
-0.26221931 -0.17200349 -0.36591777 4 1
nan nan nan 0 0
-0.60873312 -0.38617584 0.18304323 58 31
-0.75811058 -0.35292357 0.18544184 69 30
-0.60396755 -0.3824178 0.13118595 55 29
-0.75031549 -0.34961829 0.1240167 67 28
-0.60218918 -0.38057455 0.082702883 55 27
-0.76028341 -0.35421699 0.076834284 59 26
-0.62411034 -0.39423627 0.048932817 61 25
-0.75828296 -0.35328466 0.037383199 62 24
-0.62130135 -0.39215198 0.016247556 63 23
-0.75913525 -0.35351801 0 63 22
-0.62565726 -0.39461574 -0.01636361 62 21
-0.7697401 -0.35825938 -0.037965491 62 20
-0.61808461 -0.38979721 -0.048169367 64 19
-0.76324266 -0.35477692 -0.072426803 63 18
-0.62405944 -0.39358607 -0.080459327 62 17
-0.76380855 -0.35472113 -0.1121582 60 16
-0.60646188 -0.38268033 -0.11894184 64 15
-0.75366771 -0.34881401 -0.22767338 74 13
-0.61884534 -0.39068401 -0.15962383 60 14
-0.75461107 -0.34832317 -0.27540314 62 12
-0.60487932 -0.38362542 -0.2755737 66 11
-0.30016431 -0.13897663 -0.15711807 5 9
-0.61188442 -0.38895422 -0.32417497 39 10
-0.27642733 -0.12767062 -0.1629433 6 8
-0.32109115 -0.20441096 -0.23400643 5 7
-0.44639573 -0.2029444 -0.34684888 6 6
-0.36638829 -0.23553294 -0.3392151 5 5
-0.51652926 -0.23184292 -0.50789124 6 4
-0.36581734 -0.23732699 -0.42574707 5 3
nan nan nan 0 2
nan nan nan 0 1
nan nan nan 0 0
-0.6100775 -0.38404861 0.18304323 59 31
-0.75712353 -0.34926084 0.18487819 72 30
-0.60737276 -0.38162035 0.13165954 52 29
-0.7582671 -0.35008517 0.12517573 63 28
-0.61190522 -0.38377291 0.083914645 56 27
-0.76603973 -0.35363528 0.077310033 57 26
-0.62548268 -0.39205527 0.048932817 63 25
-0.76859182 -0.35479867 0.037849031 59 24
-0.62696242 -0.39253876 0.01636361 61 23
-0.76036471 -0.35086596 0 64 22
-0.62703091 -0.39242938 -0.01636361 62 21
-0.77104807 -0.35543573 -0.037965491 62 20
-0.62155128 -0.38896742 -0.048342019 64 19
-0.77353382 -0.35625353 -0.073320962 59 18
-0.627599 -0.39262035 -0.080743633 64 17
-0.76729435 -0.353082 -0.11250225 60 16
-0.61202669 -0.38308266 -0.11980062 62 15
-0.7636916 -0.35003161 -0.23042472 73 13
-0.62020534 -0.38852143 -0.15962383 61 14
-0.75803411 -0.34653145 -0.27622038 58 12
-0.60823864 -0.38264707 -0.27651104 65 11
-0.29460716 -0.13520956 -0.1536005 5 9
-0.62476408 -0.39399174 -0.33055216 38 10
-0.28275165 -0.12927955 -0.16682291 6 8
-0.32358065 -0.2043509 -0.23540768 5 7
-0.44713652 -0.20130689 -0.34684888 6 6
-0.38166606 -0.24351878 -0.35375291 5 5
-0.53226912 -0.2364829 -0.52343899 6 4
-0.37386054 -0.24067494 -0.4348442 5 3
nan nan nan 0 2
-0.22173002 -0.14256555 -0.30029124 4 1
nan nan nan 0 0
-0.61352539 -0.3830964 0.18368775 59 31
-0.76727086 -0.35050815 0.18713279 69 30
-0.60253108 -0.37547508 0.13023876 54 29
-0.76404303 -0.34934592 0.12594843 65 28
-0.61541033 -0.38284549 0.084217586 59 27
-0.76959664 -0.35185409 0.077547915 57 26
-0.6269154 -0.38976011 0.048932817 63 25
-0.77443475 -0.35404411 0.038081951 58 24
-0.6283288 -0.3903479 0.01636361 60 23
-0.76847517 -0.35117623 0 61 22
-0.63270324 -0.39277893 -0.016479664 62 21
-0.7677356 -0.35067883 -0.037732575 66 20
-0.62297273 -0.38668671 -0.048342019 65 19
-0.77029806 -0.35136113 -0.072873883 62 18
-0.62896574 -0.39042729 -0.080743633 64 17
-0.77083927 -0.35128835 -0.11284629 61 16
-0.61753553 -0.38355711 -0.1206594 62 15
-0.77148205 -0.35032752 -0.23248821 76 13
-0.62369061 -0.38753885 -0.16018195 60 14
-0.77001339 -0.3487277 -0.28030646 52 12
-0.6134938 -0.38299021 -0.2783857 64 11
-0.30921826 -0.14042026 -0.16180816 5 9
-0.62613559 -0.39180848 -0.33055216 37 10
-0.27733386 -0.12568928 -0.1629433 6 8
-0.32254568 -0.20210806 -0.23400643 5 7
-0.44965714 -0.20054561 -0.34836349 6 6
-0.38411927 -0.24321617 -0.3553682 5 5
-0.53474867 -0.23534378 -0.52516651 5 4
-0.37757525 -0.24123456 -0.43848306 5 3
nan nan nan 0 2
nan nan nan 0 1
nan nan nan 0 0
-0.6189568 -0.3835111 0.18497679 57 31
-0.76848972 -0.34782776 0.18713279 70 30
-0.6163379 -0.38115916 0.13308033 51 29
-0.76976293 -0.34870332 0.12672111 63 28
-0.61885017 -0.38200563 0.084520526 59 27
-0.78216821 -0.35427034 0.078737296 58 26
-0.63250858 -0.39020231 0.049279857 63 25
-0.7824983 -0.35441211 0.038431324 57 24
-0.63181078 -0.38947076 0.016421637 60 23
-0.77197641 -0.34951681 0 63 22
-0.63407046 -0.39056796 -0.016479664 61 21
-0.78262198 -0.35413897 -0.038431324 62 20
-0.63279539 -0.38976967 -0.049032617 61 19
-0.7760632 -0.3507092 -0.073320962 64 18
-0.63665617 -0.39215815 -0.081596561 64 17
-0.77883923 -0.35163471 -0.11387841 59 16
-0.61887068 -0.38139915 -0.1206594 64 15
-0.78367287 -0.35253379 -0.23592739 72 13
-0.62710953 -0.38664532 -0.16074008 59 14
-0.77122599 -0.34603775 -0.28030646 52 12
-0.61679286 -0.38207388 -0.27932301 61 11
-0.30162689 -0.13577312 -0.15711807 6 9
-0.62749946 -0.38962051 -0.33055216 36 10
-0.28168848 -0.12644178 -0.1655297 6 8
-0.33025005 -0.205405 -0.23961139 5 7
-0.45400131 -0.20056352 -0.35139275 6 6
-0.38979313 -0.24495032 -0.36021414 5 5
-0.53058738 -0.23133221 -0.51998395 6 4
-0.37408999 -0.23713103 -0.43302476 5 3
nan nan nan 0 2
nan nan nan 0 1
nan nan nan 0 0
-0.61618489 -0.37880391 0.18368775 59 31
-0.77414924 -0.34712443 0.18826009 70 30
-0.61975253 -0.38029635 0.13355392 51 29
-0.76871943 -0.34500882 0.12633477 63 28
-0.62440348 -0.38244963 0.085126407 59 27
-0.77879274 -0.34964776 0.078261547 59 26
-0.63811243 -0.39061007 0.049626898 61 25
-0.78601176 -0.35269508 0.038547784 61 24
-0.63954991 -0.39119625 0.016595718 61 23
-0.77547544 -0.34783721 0 62 22
-0.63961822 -0.39108461 -0.016595718 62 21
-0.77929056 -0.34937349 -0.038198408 67 20
-0.6320284 -0.38625082 -0.048859969 63 19
-0.7863223 -0.35218161 -0.074215122 57 18
-0.64013624 -0.39123562 -0.081880867 63 17
-0.78226388 -0.35005569 -0.11422246 59 16
-0.62648845 -0.38311246 -0.12194758 64 15
-0.7805028 -0.34785092 -0.23455173 73 13
-0.62631404 -0.38328457 -0.16018195 61 14
-0.77891392 -0.346205 -0.28275815 47 12
-0.62002635 -0.38124731 -0.28026035 61 11
-0.30612117 -0.1365422 -0.15946312 6 9
-0.62885565 -0.38742778 -0.33055216 34 10
-0.2801446 -0.12465281 -0.1642365 6 8
-0.33447319 -0.20645076 -0.24241386 5 7
-0.45831603 -0.20063351 -0.35442197 6 6
-0.39705318 -0.24773698 -0.36667538 5 5
-0.53800052 -0.23240745 -0.52689403 6 4
-0.38643226 -0.2432752 -0.44758025 5 3
nan nan nan 0 2
nan nan nan 0 1
nan nan nan 0 0
-0.63184059 -0.38561577 0.18819937 57 31
-0.78643781 -0.34947175 0.19107836 72 30
-0.61891812 -0.37695506 0.13308033 51 29
-0.77663749 -0.34545156 0.1274938 63 28
-0.62566829 -0.38037691 0.085126407 60 27
-0.78228503 -0.34793261 0.078499421 58 26
-0.64153135 -0.38979384 0.049800418 62 25
-0.78946137 -0.35109556 0.03866424 60 24
-0.63657939 -0.38646525 0.016479664 61 23
-0.78348577 -0.34829274 0 61 22
-0.63884681 -0.38754627 -0.016537691 64 21
-0.7872991 -0.34981185 -0.038547784 62 20
-0.63756192 -0.38675392 -0.04920527 63 19
-0.79210395 -0.35144272 -0.074662201 62 18
-0.64143014 -0.38911068 -0.081880867 64 17
-0.78348106 -0.34732291 -0.11422246 60 16
-0.62775552 -0.38103285 -0.12194758 63 15
-0.79706007 -0.352018 -0.23936658 69 13
-0.63180554 -0.3836396 -0.1612982 61 14
-0.78005773 -0.34362012 -0.28275815 45 12
-0.62332761 -0.3802948 -0.28119767 63 11
-0.30254409 -0.13371688 -0.15711807 6 9
-0.63206321 -0.38652763 -0.33161503 34 10
-0.28647184 -0.1262161 -0.16811611 6 8
-0.33164051 -0.2031523 -0.23961139 5 7
-0.47364393 -0.20528795 -0.36653897 6 6
-0.40114757 -0.24837852 -0.36990598 5 5
-0.53714377 -0.22982486 -0.52516651 6 4
-0.39017501 -0.24376118 -0.45121911 5 3
nan nan nan 0 2
-0.19689044 -0.12232612 -0.25852886 4 1
nan nan nan 0 0
-0.6311208 -0.38214973 0.18755485 56 31
-0.78542113 -0.3457489 0.19051471 67 30
-0.62651986 -0.37862253 0.13450111 50 29
-0.77783859 -0.34273848 0.1274938 61 28
-0.63123351 -0.38076833 0.085732289 58 27
-0.7903347 -0.34819239 0.079213053 59 26
-0.64501977 -0.38884667 0.049973939 66 25
-0.79068208 -0.34833771 0.03866424 61 24
-0.64226544 -0.38672185 0.016595718 60 23
-0.78469676 -0.34555572 0 65 22
-0.64233285 -0.38660976 -0.016595718 62 21
-0.79544115 -0.34992325 -0.03889716 62 20
-0.64530593 -0.38840532 -0.049723219 60 19
-0.79789001 -0.35066774 -0.075109281 61 18
-0.64285201 -0.38675714 -0.081880867 64 17
-0.78922826 -0.34656549 -0.11491054 58 16
-0.63335931 -0.38128403 -0.12280636 63 15
-0.79614031 -0.34813702 -0.23867874 70 13
-0.6331408 -0.38143188 -0.1612982 60 14
-0.78564823 -0.34263617 -0.2843926 40 12
-0.62669587 -0.37921444 -0.28213501 58 11
-0.30503801 -0.13353088 -0.15829061 6 9
-0.64119804 -0.38892955 -0.33586651 31 10
-0.29086789 -0.12684549 -0.1707025 6 8
-0.34119141 -0.20737356 -0.24661757 5 7
-0.47622481 -0.2043258 -0.36805359 6 6
-0.40853417 -0.25094092 -0.37636721 5 5
-0.54798603 -0.2320371 -0.53553164 6 4
-0.39541978 -0.2450681 -0.45667741 5 3
nan nan nan 0 2
-0.20245115 -0.12485516 -0.2664836 4 1
nan nan nan 0 0
-0.63045067 -0.3785834 0.18691033 57 31
-0.79115373 -0.3448025 0.19164202 66 30
-0.63000458 -0.37759277 0.1349747 50 29
-0.78588897 -0.34283045 0.12865284 58 28
-0.63475025 -0.37973326 0.086035229 57 27
-0.79617286 -0.34727165 0.079688802 56 26
-0.64644063 -0.38647994 0.049973939 64 25
-0.79882818 -0.34841517 0.039013617 61 24
-0.65003574 -0.38834381 0.016769798 61 23
-0.79054642 -0.34466386 0 64 22
-0.65445507 -0.39069286 -0.016885852 63 21
-0.80124164 -0.3491281 -0.039130077 61 20
-0.64672518 -0.3860375 -0.049723219 63 19
-0.81059843 -0.35267949 -0.076226972 55 18
-0.64632672 -0.38579077 -0.082165174 63 17
-0.79958671 -0.3475962 -0.11628672 57 16
-0.63890678 -0.38161075 -0.12366515 62 15
-0.80618262 -0.34915403 -0.24143009 66 13
-0.63871008 -0.38162258 -0.16241446 59 14
-0.79118234 -0.34175393 -0.28602701 40 12
-0.63396436 -0.38062423 -0.28494698 57 11
-0.30755752 -0.1332754 -0.15946312 6 9
-0.64255172 -0.38668904 -0.33586651 28 10
-0.29722083 -0.12832911 -0.17458212 6 8
-0.34191322 -0.2061813 -0.24661757 5 7
-0.48794124 -0.20727521 -0.37714136 6 6
-0.41427732 -0.25252211 -0.38121316 5 5
-0.54545331 -0.22874033 -0.5320766 6 4
-0.39627278 -0.24368633 -0.45667741 5 3
nan nan nan 0 2
-0.2067295 -0.12657295 -0.27244967 4 1
nan nan nan 0 0
-0.63383925 -0.3776238 0.18755485 57 31
-0.80802321 -0.34875527 0.19558759 63 30
-0.63342446 -0.37665302 0.13544831 50 29
-0.79162067 -0.34203273 0.12942553 57 28
-0.63607186 -0.37751526 0.086035229 58 27
-0.80189383 -0.34659272 0.080164559 55 26
-0.65420842 -0.3880589 0.0504945 64 25
-0.80233449 -0.34660921 0.039130077 61 24
-0.6470955 -0.38350984 0.016653745 60 23
-0.80093539 -0.34584329 0 62 22
-0.65574706 -0.38852045 -0.016885852 64 21
-0.79786474 -0.34436154 -0.03889716 63 20
-0.64592701 -0.38249993 -0.049550567 63 19
-0.81176353 -0.34998947 -0.076226972 58 18
-0.65193546 -0.38607743 -0.082733795 63 17
-0.80528831 -0.34689057 -0.11697481 55 16
-0.63812029 -0.37811562 -0.12323576 63 15
-0.80076259 -0.3435123 -0.23936658 68 13
-0.63997209 -0.37950245 -0.16241446 62 14
-0.80324388 -0.34360784 -0.29011312 38 12
-0.63919663 -0.38090652 -0.28682163 56 11
-0.30799779 -0.13225478 -0.15946312 6 9
-0.64971399 -0.3879441 -0.33905512 25 10
-0.29567134 -0.12651607 -0.1732889 6 8
-0.34263083 -0.20498656 -0.24661757 5 7
-0.47760457 -0.20107953 -0.36805359 6 6
-0.41836554 -0.253142 -0.38444376 5 5
-0.54620886 -0.22693031 -0.5320766 5 4
-0.38833374 -0.23695302 -0.44576085 5 3
nan nan nan 0 2
nan nan nan 0 1
nan nan nan 0 0
-0.63923812 -0.37799275 0.18884389 56 31
-0.8114171 -0.3470259 0.19615124 65 30
-0.63677984 -0.3758052 0.1359219 53 29
-0.80411607 -0.34423715 0.13135725 58 28
-0.6437223 -0.37920365 0.086944051 56 27
-0.8030988 -0.34379148 0.080164559 58 26
-0.66192698 -0.38970378 0.051015064 62 25
-0.81037414 -0.34687757 0.039479453 58 24
-0.65481418 -0.38518435 0.016827825 61 23
-0.80437875 -0.344163 0 63 22
-0.65924978 -0.38750246 -0.016943878 62 21
-0.81509238 -0.34854698 -0.039712369 61 20
-0.65363002 -0.38416788 -0.050068516 62 19
-0.81985742 -0.35007012 -0.076897591 57 18
-0.65534937 -0.38517889 -0.083018102 64 17
-0.80649436 -0.3440775 -0.11697481 57 16
-0.64148951 -0.37725303 -0.12366515 63 15
-0.81296927 -0.34552744 -0.24280575 66 13
-0.64548534 -0.37975156 -0.16353071 60 14
-0.81744528 -0.34644023 -0.29501644 35 12
-0.64251328 -0.3798593 -0.28775895 55 11
-0.30845755 -0.13117886 -0.15946312 6 9
-0.64905429 -0.38462707 -0.33799225 23 10
-0.30599242 -0.12958224 -0.17975491 6 8
-0.34685436 -0.20598808 -0.24942005 5 7
-0.49118036 -0.20470545 -0.37865597 6 6
-0.42250669 -0.25366381 -0.38767439 5 5
-0.54867196 -0.22570215 -0.53380412 6 4
-0.39792234 -0.24098337 -0.45667741 5 3
nan nan nan 0 2
nan nan nan 0 1
nan nan nan 0 0
-0.64471233 -0.37821758 0.19013295 55 31
-0.819359 -0.34702411 0.1978422 63 30
-0.64020193 -0.37482744 0.1363955 54 29
-0.80303633 -0.34046981 0.13097091 56 28
-0.645042 -0.37695435 0.086944051 57 27
-0.81576246 -0.34581402 0.08135394 55 26
-0.66113371 -0.38612622 0.050841544 64 25
-0.82078665 -0.34792247 0.039945286 57 24
-0.6583764 -0.38404799 0.016885852 57 23
-0.81018382 -0.3432923 0 60 22
-0.66490853 -0.38773063 -0.017059932 63 21
-0.81866658 -0.34652492 -0.039828826 61 20
-0.65496701 -0.38188395 -0.050068516 61 19
-0.82337022 -0.34817022 -0.077121131 56 18
-0.65675676 -0.38277429 -0.083018102 64 17
-0.80997384 -0.34221816 -0.11731885 57 16
-0.64499128 -0.37614706 -0.12409455 64 15
-0.81423026 -0.34254542 -0.24280575 66 13
-0.64680696 -0.37749609 -0.16353071 61 14
-0.81870955 -0.34344181 -0.29501644 30 12
-0.64789182 -0.37985998 -0.2896336 56 11
-0.31503639 -0.13262874 -0.16298069 6 9
-0.65824723 -0.38685849 -0.34224373 20 10
-0.30844453 -0.12927242 -0.18104811 6 8
-0.34760699 -0.20471542 -0.24942005 5 7
-0.47903123 -0.19765675 -0.36805359 6 6
-0.41689897 -0.24817003 -0.38121316 5 5
-0.55787969 -0.22705837 -0.54244173 6 4
-0.41051427 -0.24666353 -0.47123286 5 3
nan nan nan 0 2
nan nan nan 0 1
nan nan nan 0 0
-0.64609426 -0.37585205 0.19013295 56 31
-0.81837678 -0.3430827 0.19727854 63 30
-0.64580905 -0.37495765 0.13734268 52 29
-0.80655885 -0.33847424 0.13135725 57 28
-0.64856231 -0.37583885 0.087246992 57 27
-0.81472725 -0.34186462 0.081116065 57 26
-0.6646986 -0.38495719 0.051015064 63 25
-0.82436162 -0.34587234 0.040061742 57 24
-0.66187215 -0.38300616 0.016943878 59 23
-0.81374449 -0.34128165 0 62 22
-0.66848481 -0.386549 -0.01711796 62 21
-0.82217669 -0.34462482 -0.039945286 62 20
-0.66282755 -0.38324669 -0.050586466 60 19
-0.82923937 -0.34706151 -0.077568218 54 18
-0.66023511 -0.3817296 -0.083302408 63 17
-0.80893582 -0.33829758 -0.11697481 59 16
-0.6526835 -0.37761438 -0.12538272 63 15
-0.81764209 -0.3406198 -0.24349359 65 13
-0.65450156 -0.37880588 -0.16520509 61 14
-0.8242718 -0.34238333 -0.29665089 27 12
-0.65121329 -0.37876824 -0.29057091 52 11
-0.3032563 -0.12646329 -0.15594555 6 9
-0.65569174 -0.38226557 -0.34011799 16 10
-0.30889392 -0.12819494 -0.18104811 6 8
-0.35188031 -0.20561422 -0.25222251 4 7
-0.49816728 -0.20341484 -0.38319984 6 6
-0.42103684 -0.2486736 -0.38444376 5 5
-0.56874382 -0.2291169 -0.55280679 6 4
-0.42164195 -0.25144094 -0.48396885 5 3
nan nan nan 0 2
nan nan nan 0 1
nan nan nan 0 0
-0.64949036 -0.37480876 0.19077747 55 31
-0.826325 -0.34300837 0.19896951 63 30
-0.64923698 -0.37393329 0.13781628 51 29
-0.80773538 -0.33565679 0.13135725 56 28
-0.64987028 -0.37357271 0.087246992 58 27
-0.81821615 -0.33996773 0.08135394 57 26
-0.6703555 -0.38513315 0.051362108 62 25
-0.8278724 -0.34394506 0.040178202 59 24
-0.6718595 -0.38569817 0.017175987 62 23
-0.8241756 -0.34225136 0 58 22
-0.67415822 -0.38671404 -0.017234014 62 21
-0.83030134 -0.34460774 -0.040294662 60 20
-0.66416132 -0.38093066 -0.050586466 60 19
-0.83505094 -0.3460601 -0.078015298 55 18
-0.66586471 -0.38190791 -0.083871037 65 17
-0.81927258 -0.33923826 -0.11835098 54 16
-0.65186554 -0.37410086 -0.12495333 60 15
-0.82772303 -0.34140706 -0.24624492 64 13
-0.65792918 -0.37773922 -0.16576321 61 14
-0.8276493 -0.34039709 -0.2974681 20 12
-0.65653837 -0.37882298 -0.29244557 52 11
-0.31393048 -0.12954317 -0.16180816 6 9
-0.66288692 -0.38339329 -0.3433066 12 10
-0.31529409 -0.12951207 -0.18492772 6 8
-0.34189129 -0.19808172 -0.24381509 5 7
-0.50995916 -0.20609485 -0.39228758 6 6
-0.42026186 -0.24622795 -0.38282844 5 5
-0.56617713 -0.22580618 -0.54935181 6 4
-0.43280786 -0.25614363 -0.49670491 5 3
nan nan nan 0 2
nan nan nan 0 1
nan nan nan 0 0
-0.65497929 -0.37495333 0.19206649 56 31
-0.82075202 -0.33736101 0.19727854 64 30
-0.65692037 -0.37533903 0.13923706 51 29
-0.81347519 -0.33470333 0.13212994 54 28
-0.65547371 -0.3737745 0.087852873 57 27
-0.83085746 -0.34196019 0.082543328 57 26
-0.67385864 -0.38403252 0.051535629 61 25
-0.82906795 -0.34105319 0.040178202 59 24
-0.67753774 -0.38583788 0.017292041 57 23
-0.83230883 -0.34220743 0 61 22
-0.67977321 -0.3869628 -0.017350068 61 21
-0.82918692 -0.34076375 -0.040178202 65 20
-0.66981453 -0.38109049 -0.05093177 64 19
-0.83388823 -0.34234908 -0.077791758 56 18
-0.6715036 -0.38205156 -0.08443965 68 17
-0.82727301 -0.33932164 -0.11938312 56 16
-0.66171277 -0.37672505 -0.12667091 63 15
-0.82890975 -0.33851567 -0.24624492 63 13
-0.66129154 -0.37676862 -0.16632134 60 14
-0.82883251 -0.337506 -0.2974681 16 12
-0.65578371 -0.3754853 -0.29150826 51 11
-0.3123087 -0.12768038 -0.16063565 6 9
nan nan nan 0 10
-0.32764685 -0.13321859 -0.19268693 6 8
-0.35151944 -0.20210838 -0.25082126 5 7
-0.51988935 -0.20805545 -0.39986068 6 6
-0.43093836 -0.25064695 -0.39252031 5 5
-0.57702494 -0.22786607 -0.55971694 6 4
-0.45280433 -0.26611325 -0.52035749 5 3
nan nan nan 0 2
-0.18206048 -0.10583814 -0.23068729 4 1
nan nan nan 0 0
-0.66041166 -0.37517947 0.19335553 55 31
-0.83315682 -0.33920142 0.20009682 61 30
-0.65816146 -0.37315854 0.13923706 51 29
-0.81915998 -0.33385682 0.13290262 57 28
-0.65886539 -0.37282792 0.088155814 57 27
-0.83435303 -0.33999133 0.082781211 57 26
-0.67729545 -0.38303035 0.051709149 60 25
-0.83945423 -0.34204888 0.040644038 61 24
-0.6766414 -0.38235253 0.017234014 59 23
-0.83575672 -0.34038284 0 61 22
-0.6767748 -0.38211629 -0.017234014 64 21
-0.83725828 -0.34081993 -0.040527578 62 20
-0.67107463 -0.37886718 -0.05093177 64 19
-0.84200519 -0.34223205 -0.078462377 56 18
-0.67060786 -0.3785947 -0.084155343 62 17
-0.83304554 -0.33828387 -0.1200712 56 16
-0.66081798 -0.37331024 -0.12624151 62 15
-0.83894926 -0.33934787 -0.24899626 62 13
-0.6647203 -0.37566391 -0.16687946 61 14
-0.82336694 -0.33212107 -0.29501644 10 12
-0.6651358 -0.37779972 -0.29525754 49 11
-0.31685749 -0.12821722 -0.16298069 6 9
nan nan nan 0 10
-0.33010015 -0.13285924 -0.19398013 6 8
-0.35039648 -0.19990326 -0.24942005 5 7
-0.52431738 -0.20768765 -0.40288994 6 6
-0.43510488 -0.2510677 -0.39575097 5 5
-0.58118874 -0.2271516 -0.56317198 6 4
-0.45225438 -0.26365879 -0.51853806 5 3
nan nan nan 0 2
-0.18242884 -0.10520198 -0.23068729 4 1
nan nan nan 0 0
-0.6617173 -0.37287191 0.19335553 55 31
-0.83659708 -0.33719602 0.20066047 61 30
-0.66159564 -0.37206912 0.13971066 52 29
-0.82261318 -0.33191386 0.13328896 53 28
-0.66232288 -0.3717474 0.088458754 57 27
-0.84246534 -0.33985311 0.083494842 55 26
-0.6807996 -0.38189074 0.051882669 62 25
-0.84527946 -0.34097382 0.040876955 60 24
-0.68239141 -0.38232681 0.017350068 59 23
-0.84390241 -0.34025112 0 60 22
-0.68245816 -0.38220772 -0.017350068 62 21
-0.84082049 -0.33867636 -0.040644038 62 20
-0.67890966 -0.38019881 -0.05144972 62 19
-0.85244364 -0.34298638 -0.079356529 59 18
-0.67199099 -0.37613425 -0.084155343 62 17
-0.84112054 -0.33812788 -0.12110333 56 16
-0.66218174 -0.37088573 -0.12624151 63 15
-0.84688824 -0.33893326 -0.25105977 60 13
-0.66814941 -0.37453982 -0.16743758 60 14
-0.83556169 -0.33345172 -0.29910254 9 12
-0.66651607 -0.37535933 -0.29525754 50 11
-0.31524777 -0.12630367 -0.16180816 6 9
nan nan nan 0 10
-0.33656421 -0.13398214 -0.19785972 6 8
-0.34933183 -0.1975859 -0.2480188 5 7
-0.54919136 -0.21508957 -0.42258006 7 6
-0.43437159 -0.24851406 -0.39413565 5 5
-0.58877063 -0.2275974 -0.57008207 6 4
-0.45617622 -0.26373312 -0.52217692 5 3
nan nan nan 0 2
-0.17499325 -0.099898733 -0.2187552 4 1
nan nan nan 0 0
-0.66728908 -0.37281415 0.19464457 54 31
-0.83782727 -0.33412746 0.20066047 60 30
-0.66723508 -0.37204659 0.14065786 53 29
-0.83760136 -0.33435696 0.13560705 53 28
-0.66801 -0.37174472 0.089064635 55 27
-0.85295963 -0.3404308 0.084446348 54 26
-0.68219477 -0.37939292 0.051882669 63 25
-0.84652352 -0.33787343 0.040876955 63 24
-0.68590271 -0.38116336 0.017408095 60 23
-0.84514385 -0.33715576 0 62 22
-0.68821704 -0.38214397 -0.017466122 60 21
-0.84431946 -0.3366586 -0.040760498 62 20
-0.68465191 -0.38014293 -0.051795021 61 19
-0.85601062 -0.3407751 -0.079580069 56 18
-0.68413848 -0.37984875 -0.085576884 69 17
-0.84235418 -0.33504272 -0.12110333 56 16
-0.6677705 -0.37097809 -0.1271003 65 15
-0.84582949 -0.33509526 -0.25037193 62 13
-0.66951764 -0.3720884 -0.16743758 60 14
nan nan nan 0 12
-0.67186129 -0.37530452 -0.29713219 47 11
-0.32188341 -0.12754491 -0.16532573 6 9
nan nan nan 0 10
-0.34501311 -0.13589019 -0.20303252 6 8
-0.34282506 -0.19226339 -0.24241386 5 7
-0.54622364 -0.21174955 -0.41955081 7 6
-0.44019821 -0.24985065 -0.39898157 5 5
-0.59632379 -0.22809471 -0.57699215 6 4
-0.45857635 -0.26300082 -0.52399635 5 3
nan nan nan 0 2
-0.16228074 -0.091609605 -0.19886836 4 1
nan nan nan 0 0
-0.67069536 -0.37166029 0.19528909 54 31
-0.85259485 -0.3365331 0.20404238 57 30
-0.67281812 -0.37210515 0.14160505 49 29
-0.83416468 -0.32962707 0.13483436 53 28
-0.67364109 -0.37182298 0.089670524 56 27
-0.85414273 -0.33745134 0.084446348 57 26
-0.68787491 -0.37943208 0.05222971 61 25
-0.85699695 -0.33856449 0.041342791 59 24
-0.68504387 -0.37755355 0.017350068 63 23
-0.84864312 -0.33511624 0 61 22
-0.68954676 -0.37973934 -0.017466122 62 21
-0.85711509 -0.3382653 -0.041342791 63 20
-0.68815559 -0.37896061 -0.051967669 61 19
-0.8595137 -0.33869234 -0.079803608 58 18
-0.68763214 -0.37866327 -0.085861191 64 17
-0.85274374 -0.33570632 -0.12247951 53 16
-0.67336786 -0.3710359 -0.12795909 62 15
-0.85371345 -0.33475643 -0.25243545 59 13
-0.67720336 -0.37329897 -0.16911197 62 14
nan nan nan 0 12
-0.66507322 -0.36843711 -0.29338288 45 11
-0.32850984 -0.12879653 -0.1688433 6 9
nan nan nan 0 10
-0.33948988 -0.13239318 -0.19915293 6 8
-0.34709841 -0.19310392 -0.24521634 5 7
-0.54881948 -0.21054593 -0.42106545 6 6
-0.43941042 -0.24736688 -0.39736626 5 5
-0.60219479 -0.22790949 -0.58217472 6 4
-0.46246219 -0.2631115 -0.52763522 5 3
nan nan nan 0 2
-0.17568639 -0.098674625 -0.2187552 4 1
nan nan nan 0 0
-0.67192411 -0.36943412 0.19528909 55 31
-0.84916478 -0.33194157 0.20291507 58 30
-0.67619658 -0.37105981 0.14207864 49 29
-0.84216022 -0.32954228 0.13599339 53 28
-0.67487043 -0.36958706 0.089670524 57 27
-0.85757679 -0.33551818 0.084684223 57 26
-0.69131345 -0.37835309 0.05240323 61 25
-0.86044276 -0.33662501 0.041459247 60 24
-0.69285953 -0.3788977 0.017524149 60 23
-0.84974968 -0.33230016 0 65 22
-0.69299173 -0.37865582 -0.017524149 61 21
-0.86056024 -0.33632463 -0.041459247 64 20
-0.69159335 -0.37787914 -0.052140322 60 19
-0.86759752 -0.33853909 -0.080474228 58 18
-0.68888408 -0.37638092 -0.085861191 65 17
-0.85616153 -0.33377051 -0.12282355 54 16
-0.67243737 -0.36761254 -0.1275297 65 15
-0.85481882 -0.33192357 -0.25243545 58 13
-0.682706 -0.37340367 -0.17022821 63 14
nan nan nan 0 12
-0.67237312 -0.36959937 -0.29619488 43 11
-0.33306247 -0.12927674 -0.17118834 6 9
nan nan nan 0 10
-0.34192804 -0.13202399 -0.20044613 6 8
-0.34051472 -0.18789896 -0.23961139 5 7
nan nan nan 0 6
-0.44686985 -0.24966902 -0.40382749 5 5
nan nan nan 0 4
-0.47374898 -0.26753742 -0.5403713 5 3
nan nan nan 0 2
-0.16945659 -0.094297178 -0.20881177 4 1
nan nan nan 0 0
-0.68379414 -0.37290296 0.19851168 56 31
-0.86168683 -0.33334169 0.20573334 58 30
-0.68179244 -0.37105778 0.14302583 49 29
-0.84791631 -0.32837328 0.13676608 52 28
-0.68051028 -0.36961171 0.090276405 58 27
-0.86106563 -0.33341572 0.084922098 59 26
-0.69700629 -0.37833068 0.052750271 61 25
-0.86627442 -0.33541179 0.041692164 62 24
-0.6920501 -0.37515777 0.017466122 60 23
-0.86023903 -0.33291891 0 66 22
-0.69869673 -0.37862962 -0.017640203 59 21
-0.86411852 -0.33406323 -0.041575707 64 20
-0.69290817 -0.37546274 -0.052140322 60 19
-0.87109882 -0.33640009 -0.080697767 58 18
-0.69025898 -0.3738535 -0.085861191 65 17
-0.85963368 -0.33166572 -0.12316759 55 16
-0.67594177 -0.36632591 -0.12795909 63 15
-0.86950457 -0.33392578 -0.25656244 58 13
-0.68614376 -0.37218708 -0.17078634 63 14
nan nan nan 0 12
-0.67981732 -0.37047997 -0.29900685 43 11
-0.33557805 -0.12889129 -0.17236087 6 9
nan nan nan 0 10
-0.35643619 -0.13601975 -0.20949854 6 8
-0.34481961 -0.18866284 -0.24241386 5 7
nan nan nan 0 6
-0.45110953 -0.24989763 -0.40705812 5 5
nan nan nan 0 4
-0.47621763 -0.26664537 -0.54219073 5 3
nan nan nan 0 2
-0.1684871 -0.092921413 -0.2068231 4 1
nan nan nan 0 0
-0.68303519 -0.36923867 0.19786716 56 31
-0.86290282 -0.33018118 0.20573334 58 30
-0.68314785 -0.36855644 0.14302583 50 29
-0.86065757 -0.32965291 0.1386978 50 28
-0.68186033 -0.36711502 0.090276405 58 27
-0.8715865 -0.33379573 0.085873604 59 26
-0.69619572 -0.374585 0.052576751 60 25
-0.87450063 -0.33489734 0.04204154 62 24
-0.69775081 -0.37512028 0.017582176 59 23
-0.87080109 -0.33331645 0 64 22
-0.6978817 -0.37487671 -0.017582176 61 21
-0.86761385 -0.33193162 -0.041692164 65 20
-0.69866657 -0.37529457 -0.052485619 59 19
-0.87931049 -0.33585408 -0.081368387 57 18
-0.70029747 -0.37617016 -0.086998425 63 17
-0.86547476 -0.3302674 -0.12385568 55 16
-0.68154758 -0.36631 -0.12881787 63 15
-0.87516254 -0.33258545 -0.25793812 56 13
-0.69178843 -0.3719916 -0.17190258 62 14
nan nan nan 0 12
-0.68314159 -0.36921343 -0.29994416 40 11
-0.35467136 -0.13459374 -0.18291357 6 9
nan nan nan 0 10
-0.37295994 -0.14071858 -0.21984413 6 8
-0.35453969 -0.1924594 -0.24942005 5 7
nan nan nan 0 6
-0.45031205 -0.24739318 -0.4054428 5 5
nan nan nan 0 4
-0.48312223 -0.268345 -0.54946846 5 3
nan nan nan 0 2
nan nan nan 0 1
nan nan nan 0 0
-0.68431991 -0.36685219 0.19786716 54 31
-0.87772942 -0.3323088 0.20911525 55 30
-0.68659085 -0.36733443 0.14349943 51 29
-0.86411476 -0.32751647 0.13908415 49 28
-0.68750846 -0.36708412 0.090882286 58 27
-0.87973404 -0.33338058 0.086587235 58 26
-0.70189238 -0.37451416 0.052923791 60 25
-0.88501352 -0.33536059 0.042507373 60 24
-0.70125782 -0.37386504 0.017640203 59 23
-0.87429923 -0.33115473 0 62 22
-0.70359051 -0.37480205 -0.01769823 61 21
-0.87811768 -0.33241567 -0.042158 65 20
-0.70216995 -0.3740328 -0.052658271 59 19
-0.88280863 -0.3336575 -0.081591927 57 18
-0.70160627 -0.37372342 -0.086998425 63 17
-0.87589687 -0.33072114 -0.12523185 53 16
-0.69150084 -0.36859009 -0.13053544 64 15
-0.87856984 -0.33036909 -0.25862595 55 13
-0.69308269 -0.36957455 -0.17190258 62 14
nan nan nan 0 12
-0.69258261 -0.37123305 -0.3036935 39 11
-0.33649182 -0.12648666 -0.17236087 6 9
nan nan nan 0 10
nan nan nan 0 8
-0.34976071 -0.18823883 -0.24521634 5 7
nan nan nan 0 6
-0.46286491 -0.25227681 -0.41674998 5 5
nan nan nan 0 4
-0.48555309 -0.26749262 -0.55128789 5 3
nan nan nan 0 2
nan nan nan 0 1
nan nan nan 0 0
-0.69198382 -0.36788329 0.19980071 52 31
-0.88573277 -0.33178994 0.21080622 53 30
-0.69219846 -0.3672502 0.14444663 50 29
-0.86756742 -0.32535988 0.13947049 50 28
-0.69535404 -0.3681863 0.091791108 58 27
-0.8808924 -0.33030769 0.086587235 60 26
-0.70319539 -0.37206182 0.052923791 61 25
-0.88851911 -0.33314055 0.042623833 60 24
-0.70697045 -0.37376469 0.017756257 57 23
-0.88013589 -0.32984453 0 64 22
-0.70930725 -0.37469202 -0.017814284 60 21
-0.88863528 -0.3328304 -0.042623833 65 20
-0.70567298 -0.37275115 -0.05283092 59 19
-0.89097071 -0.33317402 -0.082262546 60 18
-0.70290655 -0.37127203 -0.086998425 65 17
-0.87936765 -0.32852274 -0.1255759 57 16
-0.69713074 -0.3684895 -0.13139422 63 15
-0.8842271 -0.32896566 -0.26000163 54 13
-0.70082045 -0.37059078 -0.17357697 61 14
nan nan nan 0 12
-0.69183135 -0.36771876 -0.30275616 38 11
-0.33485672 -0.12455542 -0.17118834 6 9
nan nan nan 0 10
nan nan nan 0 8
-0.35223535 -0.18800439 -0.24661757 5 7
nan nan nan 0 6
-0.46206918 -0.24974298 -0.41513467 5 5
-0.62481982 -0.22399727 -0.60117745 6 4
-0.49548391 -0.27077875 -0.56220448 5 3
nan nan nan 0 2
-0.13904937 -0.074126281 -0.16108337 4 1
nan nan nan 0 0
-0.69753003 -0.36773217 0.20108974 55 31
-0.88688552 -0.32869613 0.21080622 53 30
-0.69998258 -0.3682811 0.14586741 50 29
-0.87796885 -0.32574427 0.14101587 48 28
-0.69882852 -0.36691722 0.092094049 54 27
-0.88665313 -0.32910582 0.087062992 61 26
-0.71330947 -0.3742668 0.053617872 59 25
-0.88967657 -0.33003703 0.042623833 63 24
-0.71048093 -0.37246183 0.017814284 57 23
-0.88597411 -0.32849759 0 63 22
-0.71496636 -0.37467143 -0.017930338 58 21
-0.88276064 -0.32713953 -0.042274456 69 20
-0.70696986 -0.37028563 -0.05283092 59 19
-0.89674497 -0.33193561 -0.082709618 60 18
-0.70859164 -0.37113452 -0.087567039 63 17
-0.88510126 -0.32731169 -0.12626398 55 16
-0.69841278 -0.36605385 -0.13139422 64 15
-0.88537002 -0.3258771 -0.26000163 54 13
-0.7063545 -0.37054232 -0.17469321 61 14
nan nan nan 0 12
-0.69713998 -0.36759794 -0.30463082 37 11
-0.33319086 -0.12269529 -0.17001583 6 9
nan nan nan 0 10
nan nan nan 0 8
-0.35471255 -0.18775494 -0.2480188 5 7
nan nan nan 0 6
-0.47127748 -0.25276455 -0.42321122 5 5
-0.63749814 -0.226105 -0.6132701 6 4
-0.50088739 -0.27161059 -0.56766272 5 3
nan nan nan 0 2
nan nan nan 0 1
nan nan nan 0 0
-0.70301944 -0.36766937 0.20237878 54 31
-0.89712501 -0.32908708 0.21306083 53 30
-0.70120007 -0.36595786 0.14586741 49 29
-0.88600594 -0.32536903 0.1421749 47 28
-0.70004141 -0.3645978 0.092094049 55 27
-0.89013463 -0.32686123 0.087300867 61 26
-0.71454668 -0.37189934 0.053617872 60 25
-0.89545852 -0.32879564 0.042856749 62 24
-0.71392602 -0.37126362 0.017872311 57 23
-0.88940752 -0.32641363 0 65 22
-0.71848416 -0.37333256 -0.017988365 61 21
-0.89322674 -0.32762855 -0.042740289 67 20
-0.71261311 -0.37025243 -0.053176221 59 19
-0.90257847 -0.33050498 -0.083156705 59 18
-0.71421957 -0.37108648 -0.08813566 64 17
-0.89089328 -0.32591072 -0.12695207 55 16
-0.69962281 -0.36373582 -0.13139422 61 15
-0.89322656 -0.32539126 -0.26206514 53 13
-0.70764363 -0.36807442 -0.17469321 59 14
nan nan nan 0 12
-0.69431829 -0.36300111 -0.30275616 36 11
-0.36897132 -0.13414142 -0.18994872 6 9
nan nan nan 0 10
nan nan nan 0 8
-0.34254876 -0.17975137 -0.23821014 5 7
nan nan nan 0 6
-0.47551632 -0.25292832 -0.42644182 5 5
-0.645114 -0.22624362 -0.62018019 6 4
-0.50484365 -0.27150092 -0.57130158 5 3
nan nan nan 0 2
-0.14485796 -0.076103017 -0.1690381 4 1
nan nan nan 0 0
-0.70429856 -0.36521316 0.20237878 55 31
-0.89597684 -0.32512805 0.21249717 52 30
-0.70247322 -0.36350796 0.14586741 50 29
-0.88713634 -0.3222743 0.1421749 47 28
-0.70571262 -0.36444297 0.09269993 56 27
-0.89829344 -0.32628477 0.088014498 66 26
-0.71584052 -0.36940283 0.053617872 60 25
-0.90364838 -0.32820934 0.043206125 61 24
-0.71971822 -0.37094793 0.017988365 56 23
-0.89759719 -0.32585004 0 67 22
-0.72200131 -0.37197363 -0.018046392 60 21
-0.90147048 -0.32689026 -0.043089665 66 20
-0.71611482 -0.36891162 -0.053348869 58 19
-0.91075587 -0.3298803 -0.083827324 57 18
-0.72218907 -0.37189764 -0.088988587 62 17
-0.89901686 -0.32531041 -0.12798421 53 16
-0.70095128 -0.36116913 -0.13139422 62 15
-0.90120298 -0.32454237 -0.26412863 52 13
-0.71108645 -0.36672577 -0.17525133 62 14
nan nan nan 0 12
-0.70180684 -0.363673 -0.30556813 35 11
-0.38817742 -0.13946313 -0.20050141 6 9
nan nan nan 0 10
nan nan nan 0 8
-0.35601467 -0.18527402 -0.2480188 5 7
nan nan nan 0 6
-0.48653829 -0.25657791 -0.43613371 5 5
-0.66303676 -0.22972822 -0.63745534 6 4
-0.51036125 -0.27209282 -0.57675987 5 3
nan nan nan 0 2
nan nan nan 0 1
nan nan nan 0 0
-0.70992219 -0.36485106 0.20366782 54 31
-0.90404588 -0.32429308 0.21418814 52 30
-0.7125237 -0.36543882 0.14776179 48 29
-0.89063811 -0.31984997 0.14256124 49 28
-0.70924914 -0.36299133 0.093002871 59 27
-0.90417171 -0.32466146 0.088490255 62 26
-0.7216236 -0.36906129 0.053964917 60 25
-0.91190225 -0.32741076 0.043555502 64 24
-0.72100866 -0.36843339 0.017988365 56 23
-0.90114045 -0.32339707 0 67 22
-0.71891469 -0.36703843 -0.017930338 61 21
-0.90495861 -0.32457924 -0.043206125 65 20
-0.71967995 -0.3674252 -0.053521521 59 19
-0.91430497 -0.32737404 -0.084050864 59 18
-0.72348285 -0.36937448 -0.088988587 64 17
-0.90253657 -0.32284176 -0.12832825 54 16
-0.71096659 -0.3632293 -0.13311179 63 15
-0.9068625 -0.32299685 -0.2655043 51 13
-0.71675867 -0.36634862 -0.17636758 60 14
-0.41766986 -0.1495924 -0.14137907 4 12
-0.7092461 -0.36441854 -0.30838013 33 11
-0.38868597 -0.13803944 -0.20050141 6 9
-0.33139208 -0.16911571 -0.15836744 3 10
-0.29092163 -0.10344338 -0.1655297 7 8
-0.34565955 -0.17825764 -0.23961139 5 7
nan nan nan 0 6
-0.48911709 -0.25577116 -0.43774903 5 5
-0.65869921 -0.22567512 -0.63227284 6 4
-0.51886523 -0.27435678 -0.58585709 5 3
nan nan nan 0 2
nan nan nan 0 1
nan nan nan 0 0
-0.71763772 -0.36568081 0.20560136 53 31
-0.90746969 -0.32194439 0.21475179 52 30
-0.7159797 -0.36406887 0.14823538 50 29
-0.89873755 -0.31920287 0.14372028 49 28
-0.70830244 -0.3593837 0.09269993 55 27
-0.90999359 -0.32315826 0.088966012 64 26
-0.7273494 -0.36880922 0.054311957 63 25
-0.91539472 -0.32505596 0.043671962 64 24
-0.72674263 -0.36818677 0.018104419 58 23
-0.90933764 -0.32274199 0 66 22
-0.73355067 -0.37133944 -0.0182785 59 21
-0.91315269 -0.3239069 -0.043555502 67 20
-0.72317988 -0.36604387 -0.05369417 58 19
-0.91779119 -0.32500637 -0.084274404 59 18
-0.73140579 -0.37023196 -0.089841507 60 17
-0.90833062 -0.32133031 -0.12901634 55 16
-0.71661747 -0.36298466 -0.13397059 61 15
-0.9079845 -0.31982934 -0.2655043 52 13
-0.71586275 -0.3627362 -0.17580946 62 14
nan nan nan 0 12
-0.71463722 -0.36405793 -0.31025475 31 11
-0.40169007 -0.14099929 -0.20753656 6 9
-0.33198035 -0.1679579 -0.15836744 4 10
-0.28925699 -0.10173351 -0.1642365 6 8
-0.35546279 -0.18182841 -0.24661757 5 7
nan nan nan 0 6
-0.49507466 -0.256724 -0.44259495 5 5
-0.66119677 -0.22394757 -0.63400036 6 4
-0.52133405 -0.27334806 -0.58767653 5 3
nan nan nan 0 2
nan nan nan 0 1
nan nan nan 0 0
-0.71675724 -0.36207768 0.20495684 54 31
-0.91778857 -0.32197878 0.2170064 50 30
-0.71505755 -0.36045563 0.14776179 50 29
-0.91617233 -0.32175547 0.1464247 48 28
-0.71840638 -0.36139697 0.093911693 57 27
-0.9181096 -0.32259783 0.089679644 61 26
-0.73085719 -0.36739486 0.054485478 59 25
-0.92123997 -0.32350284 0.043904878 65 24
-0.73025346 -0.36677617 0.018162446 55 23
-0.9128195 -0.32038841 0 65 22
-0.73700827 -0.37003291 -0.018336527 58 21
-0.9119193 -0.31989616 -0.043439046 67 20
-0.72445321 -0.36351725 -0.05369417 58 19
-0.9306227 -0.32605132 -0.085392095 59 18
-0.72826052 -0.36543527 -0.089272894 61 17
-0.91640836 -0.32075453 -0.13004847 56 16
-0.72667015 -0.36492884 -0.13568816 60 15
-0.91591012 -0.31901377 -0.26756781 52 13
-0.71923566 -0.36146137 -0.17636758 61 14
-0.32488433 -0.11434986 -0.10705582 4 12
-0.73442739 -0.37115249 -0.31869069 25 11
-0.41260451 -0.14322974 -0.21339917 7 9
-0.33256462 -0.16679807 -0.15836744 4 10
-0.2754091 -0.095964551 -0.15518409 6 8
-0.35609534 -0.1805865 -0.24661757 5 7
nan nan nan 0 6
-0.4993076 -0.25684416 -0.44582558 5 5
-0.66708291 -0.223456 -0.63918287 6 4
-0.52830535 -0.27481419 -0.59495425 5 3
nan nan nan 0 2
nan nan nan 0 1
nan nan nan 0 0
-0.72226638 -0.36187625 0.20624588 54 31
-0.93266803 -0.32369366 0.22038831 51 30
-0.72282565 -0.3613959 0.14918257 47 29
-0.91956925 -0.31952092 0.14681105 46 28
-0.72181809 -0.36012733 0.094214633 56 27
-0.92628807 -0.32182544 0.090393275 64 26
-0.73207152 -0.36496922 0.054485478 61 25
-0.93175089 -0.32370323 0.044370711 60 24
-0.7314657 -0.36435255 0.018162446 56 23
-0.9233309 -0.3206186 0 64 22
-0.73829544 -0.36745799 -0.018336527 61 21
-0.92241955 -0.32012418 -0.043904878 69 20
-0.73011363 -0.36334869 -0.054039471 57 19
-0.93175524 -0.32280084 -0.085392095 61 18
-0.7383495 -0.36747146 -0.090410128 60 17
-0.92688984 -0.32077187 -0.13142464 57 16
-0.72567517 -0.36141247 -0.13525876 61 15
-0.9192372 -0.31675249 -0.26825565 52 13
-0.72702652 -0.36222884 -0.17804196 60 14
-0.33420712 -0.11632061 -0.11032471 4 12
-0.73364961 -0.367542 -0.31775337 21 11
-0.40682513 -0.13967255 -0.2098816 7 9
-0.32302159 -0.16058424 -0.15305309 4 10
-0.27777103 -0.095682554 -0.15647729 6 8
-0.36222154 -0.18223414 -0.25082126 5 7
nan nan nan 0 6
-0.50359166 -0.25685117 -0.44905618 5 5
-0.67129427 -0.22224893 -0.64263797 6 4
-0.52622199 -0.27138078 -0.59131539 5 3
nan nan nan 0 2
nan nan nan 0 1
nan nan nan 0 0
-0.72136521 -0.35827172 0.20560136 55 31
-0.92687559 -0.3180801 0.21869735 51 30
-0.72408271 -0.35887057 0.14918257 49 29
-0.92769229 -0.31870073 0.14797008 48 28
-0.72307074 -0.35760549 0.094214633 57 27
-0.92740577 -0.31859013 0.090393275 64 26
-0.73557353 -0.36352324 0.054658998 61 25
-0.93287516 -0.32044885 0.044370711 63 24
-0.7417478 -0.36612055 0.018394552 55 23
-0.9268108 -0.31820011 0 65 22
-0.74181169 -0.36599109 -0.018394552 58 21
-0.93067884 -0.31915554 -0.044254255 65 20
-0.73807764 -0.36412823 -0.05455742 58 19
-0.93523371 -0.32034808 -0.085615635 61 18
-0.74414021 -0.36697313 -0.090978742 61 17
-0.93034863 -0.31833082 -0.13176867 59 16
-0.72699499 -0.35875031 -0.13525876 62 15
-0.93177724 -0.31722823 -0.27169481 47 13
-0.73046815 -0.36077461 -0.17860009 57 14
-0.31447911 -0.10830905 -0.10296973 4 12
-0.73084641 -0.36277655 -0.31587872 15 11
-0.39893124 -0.13545944 -0.20519152 7 9
-0.33169842 -0.16345766 -0.15730458 4 10
-0.26999548 -0.091973811 -0.1513045 6 8
-0.35919392 -0.1790325 -0.2480188 6 7
nan nan nan 0 6
-0.51302189 -0.25935125 -0.45713273 5 5
-0.69790041 -0.22811396 -0.66855079 6 4
-0.53178096 -0.27181497 -0.59677368 5 3
nan nan nan 0 2
nan nan nan 0 1
nan nan nan 0 0
-0.73132938 -0.35991845 0.20817946 52 31
-0.93957728 -0.31856513 0.22151563 50 30
-0.72539318 -0.35621426 0.14918257 48 29
-0.93821681 -0.31845292 0.14951546 50 28
-0.7310518 -0.35824913 0.095123455 56 27
-0.93564236 -0.31757268 0.091106899 64 26
-0.73913759 -0.36192822 0.054832518 59 25
-0.9435097 -0.32021695 0.044836547 62 24
-0.7452631 -0.36463419 0.018452579 59 23
-0.9327094 -0.31639665 0 66 22
-0.7453903 -0.36437401 -0.018452579 58 21
-0.93415397 -0.31670144 -0.044370711 66 20
-0.74164462 -0.36252248 -0.054730069 58 19
-0.94820333 -0.32088298 -0.086733334 57 18
-0.74987304 -0.36656815 -0.091547363 60 17
-0.93855172 -0.31728208 -0.13280082 58 16
-0.73928803 -0.36165494 -0.13740572 60 15
-0.92831939 -0.31245089 -0.27031913 48 13
-0.7383424 -0.36132839 -0.18027447 55 14
-0.30813006 -0.10497217 -0.10051807 4 12
-0.74456602 -0.36640185 -0.32150266 9 11
-0.42039785 -0.1409 -0.21691674 7 9
-0.33226696 -0.16229884 -0.15730458 4 10
-0.27234831 -0.091696203 -0.1525977 6 8
-0.36351627 -0.17963748 -0.25082126 5 7
nan nan nan 0 6
-0.51732695 -0.25928602 -0.46036333 5 5
-0.68319738 -0.22073433 -0.6530031 6 4
-0.5403533 -0.2738716 -0.60587084 5 3
nan nan nan 0 2
nan nan nan 0 1
nan nan nan 0 0
-0.73474896 -0.35842913 0.20882398 51 31
-0.9406836 -0.31528348 0.22151563 52 30
-0.7332437 -0.35692322 0.15060335 48 29
-0.93463594 -0.31361508 0.14874277 54 28
-0.73452687 -0.35678607 0.095426396 56 27
-0.94382864 -0.31666383 0.091820531 65 26
-0.74487728 -0.36153722 0.055179559 60 25
-0.95409906 -0.3200779 0.04530238 62 24
-0.74653137 -0.36203051 0.018452579 54 23
-0.93618023 -0.31392848 0 68 22
-0.75114965 -0.36396271 -0.018568633 59 21
-0.93999308 -0.31501523 -0.044603627 68 20
-0.74738806 -0.36211962 -0.05507537 57 19
-0.95168072 -0.31835589 -0.086956874 60 18
-0.75338006 -0.36503798 -0.091831677 59 17
-0.93965352 -0.314004 -0.13280082 59 16
-0.74275881 -0.36015338 -0.13783513 57 15
-0.94081622 -0.31297603 -0.27375832 49 13
-0.7308417 -0.35446817 -0.17804196 60 14
-0.3017616 -0.10168096 -0.098066404 4 12
-0.73336124 -0.35766548 -0.31587872 6 11
-0.40199003 -0.13328435 -0.20636404 7 9
-0.3368907 -0.16313893 -0.15943031 4 10
-0.26859525 -0.08942835 -0.1500113 6 8
-0.36228809 -0.177444 -0.24942005 6 7
-0.20294461 -0.067601018 -0.13631615 6 6
-0.52504683 -0.26090917 -0.46682456 5 5
-0.69947594 -0.22323619 -0.66855079 6 4
-0.54589021 -0.27431652 -0.61132914 5 3
nan nan nan 0 2
nan nan nan 0 1
nan nan nan 0 0
-0.74033839 -0.3579784 0.210113 51 31
-0.94871968 -0.31428015 0.22320658 50 30
-0.74331558 -0.35865512 0.15249775 48 29
-0.95214784 -0.31575662 0.15144718 56 28
-0.73576772 -0.35421991 0.095426396 55 27
