# .PCD v0.7 - Point Cloud Data file format
VERSION 0.7
FIELDS x y z intensity ring
SIZE 4 4 4 4 2
TYPE F F F F U
COUNT 1 1 1 1 1
WIDTH 1162
HEIGHT 1
VIEWPOINT 0 0 0 1 0 0 0
POINTS 1162
DATA ascii
-0.6355083 -0.050898928 -0.45893103 23 6
-0.5507707 -0.12739174 -0.44905618 10 5
-0.63121861 -0.047949038 -0.57180959 12 4
-0.52624559 -0.12393758 -0.53673244 9 3
-0.6341421 -0.045412622 -0.7098062 6 2
-0.51115477 -0.12275378 -0.64433348 6 1
nan nan nan 0 0
-0.57208705 -0.12520292 0.1469502 75 31
-0.66077715 -0.057850126 0.14542247 76 30
-0.57373744 -0.12507144 0.10655899 69 29
-0.65235871 -0.057352785 0.096972562 72 28
-0.56035733 -0.12160768 0.065738186 71 27
-0.64711577 -0.056897532 0.058755629 67 26
-0.57520044 -0.12469142 0.03852158 62 25
-0.66914773 -0.05875311 0.029696934 67 24
-0.5691039 -0.1230372 0.01270791 64 23
-0.65739179 -0.057644151 0 67 22
-0.5715661 -0.12347585 -0.012765937 64 21
-0.65424722 -0.05714893 -0.028998183 69 20
-0.56312257 -0.12160855 -0.037465062 66 19
-0.66982412 -0.058227558 -0.057226118 67 18
-0.57795209 -0.12476526 -0.063685127 67 17
-0.6589269 -0.057090763 -0.087043017 75 16
-0.56371218 -0.12181663 -0.09446644 73 15
-0.64546889 -0.054991826 -0.17539792 62 13
-0.57237583 -0.12391843 -0.12613632 82 14
-0.57390654 -0.048571467 -0.18714339 16 12
-0.54355758 -0.11865671 -0.21089825 13 11
-0.58275449 -0.047545984 -0.29195821 17 9
-0.54023504 -0.118465 -0.24339694 13 10
-0.61277902 -0.048743341 -0.35045743 23 8
-0.54522109 -0.12191923 -0.35451275 16 7
-0.63965809 -0.048856512 -0.46196029 21 6
-0.55495059 -0.12623778 -0.45228681 11 5
-0.62958723 -0.045512587 -0.57008207 12 4
-0.53503662 -0.1239903 -0.54582959 8 3
-0.64235699 -0.043711536 -0.71934658 6 2
-0.51160121 -0.12087948 -0.64433348 7 1
-0.19073944 -0.014422361 -0.22008449 6 0
-0.5749014 -0.12362316 0.14759472 77 31
-0.66584033 -0.055818535 0.14654978 76 30
-0.58138633 -0.12454031 0.10797977 68 29
-0.65256453 -0.054961387 0.096972562 75 28
-0.56807375 -0.12113649 0.066647016 67 27
-0.65724224 -0.055327166 0.059707135 68 26
-0.57809073 -0.12311196 0.038695101 61 25
-0.6668694 -0.05609902 0.029580474 70 24
-0.57441491 -0.12210967 0.012823964 64 23
-0.66258246 -0.055636168 0 66 22
-0.56957209 -0.1208511 -0.01270791 65 21
-0.65942121 -0.055265393 -0.029231099 68 20
-0.56600213 -0.12007171 -0.037637718 65 19
-0.6700331 -0.055772137 -0.057226118 67 18
-0.58081162 -0.12327281 -0.063969433 67 17
-0.65913171 -0.054675292 -0.087043017 73 16
-0.56894773 -0.12089246 -0.095325224 73 15
-0.65524173 -0.053487677 -0.17814925 58 13
-0.57044476 -0.12130268 -0.12557819 81 14
-0.5834952 -0.04729455 -0.19041227 17 12
-0.54623216 -0.11725549 -0.21183558 13 11
-0.5917328 -0.046059672 -0.29664832 19 9
-0.54948395 -0.11852828 -0.24764842 14 10
-0.61934745 -0.047065198 -0.35433704 23 8
-0.55776227 -0.12274422 -0.36292017 19 7
-0.63188773 -0.04607673 -0.4559018 23 6
-0.54794854 -0.12259467 -0.44582558 12 5
-0.6351524 -0.04366355 -0.57526463 13 4
-0.53546613 -0.12212192 -0.54582959 8 3
-0.64573771 -0.041550167 -0.72316277 6 2
-0.51644033 -0.12015005 -0.65029955 6 1
-0.17922154 -0.013101667 -0.20378195 6 0
-0.57769054 -0.12212525 0.14823924 75 31
-0.66360259 -0.053307123 0.14598612 77 30
-0.58181751 -0.12251013 0.10797977 70 29
-0.6626029 -0.05344459 0.098517939 71 28
-0.5660665 -0.11863346 0.066344075 67 27
-0.66487515 -0.053608008 0.060420766 67 26
-0.57851696 -0.1210933 0.038695101 64 25
-0.67204094 -0.054155786 0.029813392 65 24
-0.57483768 -0.12010384 0.012823964 66 23
-0.66028005 -0.053130753 0 67 22
-0.57732403 -0.12042365 -0.012881991 64 21
-0.65961009 -0.052963249 -0.029231099 66 20
-0.56641781 -0.11809526 -0.037637718 65 19
-0.67270643 -0.053622674 -0.057449657 68 18
-0.5836677 -0.1217619 -0.06425374 67 17
-0.66672581 -0.052937616 -0.088075146 73 16
-0.56214023 -0.11736452 -0.094037049 74 15
-0.65302759 -0.051021177 -0.17746142 58 13
-0.57324791 -0.11981945 -0.12613632 82 14
-0.5813005 -0.045084033 -0.18959504 17 12
-0.5511691 -0.11632604 -0.21371023 14 11
-0.59188998 -0.04399386 -0.29664832 21 9
-0.54989433 -0.11660951 -0.24764842 14 10
-0.61737341 -0.044756714 -0.35304382 23 8
-0.55818731 -0.12079651 -0.36292017 16 7
-0.63799888 -0.044259962 -0.46044567 21 6
-0.5539571 -0.12194064 -0.45067149 12 5
-0.63169336 -0.041226175 -0.57180959 13 4
-0.53254759 -0.11948243 -0.54219073 8 3
-0.64587879 -0.039295867 -0.72316277 6 2
-0.52128047 -0.1193883 -0.65626562 7 1
-0.17637385 -0.012322381 -0.1997063 5 0
-0.58283907 -0.12111075 0.14952828 74 31
-0.66864282 -0.051347151 0.14711343 76 30
-0.58464336 -0.12098591 0.10845336 70 29
-0.66032207 -0.050949592 0.098131597 71 28
-0.571334 -0.11767853 0.066949956 67 27
-0.66505814 -0.051286831 0.060420766 67 26
-0.58625829 -0.12061086 0.039215662 60 25
-0.67222583 -0.051809598 0.029813392 67 24
-0.57769948 -0.11860935 0.012881991 63 23
-0.66295475 -0.051009152 0 67 22
-0.57774091 -0.11840769 -0.012881991 65 21
-0.66726267 -0.051209144 -0.029580474 70 20
-0.57415003 -0.11764999 -0.038155667 66 19
-0.67537284 -0.05145523 -0.057673197 69 18
-0.59138244 -0.12125008 -0.065106668 67 17
-0.65949738 -0.050072387 -0.087043017 78 16
-0.56977785 -0.11691754 -0.095325224 75 15
-0.66039413 -0.049253143 -0.17952493 59 13
-0.57843262 -0.11881854 -0.12725256 82 14
-0.59323865 -0.043880753 -0.19368115 18 12
-0.55610609 -0.11536354 -0.21558487 14 11
-0.59424305 -0.042074613 -0.29782084 20 9
-0.54365891 -0.11327329 -0.24445981 13 10
-0.62179595 -0.042879034 -0.35563022 24 8
-0.55658263 -0.11840665 -0.36151892 14 7
-0.64013469 -0.042155471 -0.46196029 21 6
-0.55624217 -0.12041954 -0.45228681 11 5
-0.63724583 -0.039332028 -0.57699215 12 4
-0.53797781 -0.11875971 -0.54764903 8 3
-0.65246421 -0.037382625 -0.73079509 6 2
-0.52907324 -0.11927837 -0.66620898 6 1
-0.17352295 -0.011563138 -0.19563067 5 0
-0.58323753 -0.11917732 0.14952828 75 31
-0.66637981 -0.048959248 0.14654978 75 30
-0.58263785 -0.11854701 0.10797977 72 29
-0.66541511 -0.049106777 0.098904282 70 28
-0.57172108 -0.11578326 0.066949956 67 27
-0.67018962 -0.049430933 0.06089652 69 26
-0.58665508 -0.11866609 0.039215662 61 25
-0.67488497 -0.049755633 0.02992985 68 24
-0.57564187 -0.11618829 0.012823964 63 23
-0.66312027 -0.048810437 0 68 22
-0.57813042 -0.11649118 -0.012881991 64 21
-0.66493773 -0.048821505 -0.029464016 69 20
-0.56965137 -0.11473984 -0.037810367 65 19
-0.68050778 -0.049560979 -0.058120277 68 18
-0.59178132 -0.11928832 -0.065106668 69 17
-0.66213012 -0.048056148 -0.087387063 76 16
-0.57498658 -0.1160221 -0.096184008 73 15
-0.66295183 -0.047225565 -0.18021277 59 13
-0.58121002 -0.11739224 -0.12781069 82 14
-0.58395129 -0.041283641 -0.19041227 17 12
-0.55648559 -0.11351879 -0.21558487 12 11
-0.60980415 -0.04108236 -0.30602849 20 9
-0.55288994 -0.11332849 -0.24871127 12 10
-0.62193471 -0.040816851 -0.35563022 24 8
-0.56506979 -0.11829627 -0.36712387 14 7
-0.64027095 -0.04003248 -0.46196029 22 6
-0.56223083 -0.1197957 -0.45713273 12 5
-0.6391772 -0.03731636 -0.57871968 11 4
-0.5400421 -0.11734848 -0.54946846 9 3
-0.65742457 -0.035458874 -0.73651934 6 2
-0.52503496 -0.11651169 -0.66024297 6 1
-0.16777372 -0.010719823 -0.18747938 6 0
-0.58601618 -0.117626 0.15017278 74 31
-0.66654664 -0.046632849 0.14654978 77 30
-0.58545327 -0.1170036 0.10845336 69 29
-0.66065359 -0.046453778 0.098131597 73 28
-0.5721218 -0.11378688 0.066949956 66 27
-0.67284119 -0.047257472 0.061134394 66 26
-0.58706576 -0.11661756 0.039215662 62 25
-0.67754632 -0.047566358 0.030046308 64 24
-0.57606387 -0.11407768 0.012823964 66 23
-0.66328657 -0.046495415 0 67 22
-0.58098328 -0.11496771 -0.012940018 64 21
-0.66262043 -0.046218552 -0.029347558 70 20
-0.57982665 -0.11472766 -0.038500965 65 19
-0.67819202 -0.047021106 -0.057896737 69 18
-0.59221452 -0.11711854 -0.065106668 66 17
-0.66970646 -0.046231743 -0.088419192 74 16
-0.57540798 -0.11391389 -0.096184008 76 15
-0.665519 -0.044949256 -0.18090059 57 13
-0.57683975 -0.1143944 -0.12669444 81 14
-0.59353054 -0.039738126 -0.19368115 17 12
-0.56370926 -0.1128741 -0.21839686 11 11
-0.61214787 -0.039085593 -0.307201 21 9
-0.55330157 -0.11130129 -0.24871127 12 10
-0.6348958 -0.039280508 -0.36338943 23 8
-0.56144768 -0.11537124 -0.36432141 15 7
-0.64637125 -0.038012333 -0.46650416 22 6
-0.5570693 -0.11653333 -0.45228681 11 5
-0.64111453 -0.035064518 -0.5804472 11 4
-0.53879386 -0.11500104 -0.54764903 9 3
-0.65915793 -0.033238217 -0.7384274 6 2
-0.5313713 -0.11591364 -0.66819769 6 1
-0.16925877 -0.010166483 -0.18951721 5 0
-0.58407539 -0.11500075 0.14952828 72 31
-0.67400551 -0.044648327 0.14824073 75 30
-0.58828503 -0.11533926 0.10892696 70 29
-0.67067957 -0.044655852 0.099676974 71 28
-0.57253498 -0.11168919 0.066949956 66 27
-0.67300987 -0.044791065 0.061134394 64 26
-0.58748919 -0.11446507 0.039215662 61 25
-0.68020838 -0.04524038 0.030162767 65 24
-0.58136135 -0.11304047 0.012940018 66 23
-0.67343271 -0.044693682 0 67 22
-0.58630383 -0.11381015 -0.013056071 63 21
-0.67025471 -0.044375714 -0.029696934 68 20
-0.58268958 -0.113087 -0.038673617 68 19
-0.68333012 -0.044845182 -0.058343813 68 18
-0.59018344 -0.11456731 -0.064822353 68 17
-0.67728585 -0.044236809 -0.08945132 72 16
-0.583049 -0.11334481 -0.097472191 76 15
-0.66567183 -0.042625882 -0.18090059 58 13
-0.57725507 -0.1122794 -0.12669444 83 14
-0.58659023 -0.037244484 -0.19122949 18 12
-0.55955571 -0.10999109 -0.2165222 12 11
-0.61228698 -0.036841698 -0.307201 19 9
-0.56255811 -0.11116446 -0.25296274 12 10
-0.63075638 -0.03683117 -0.36080304 23 8
-0.55981946 -0.11299122 -0.36292017 15 7
-0.65047264 -0.035959877 -0.46953338 21 6
-0.5612067 -0.11537565 -0.45551741 10 5
-0.64123303 -0.032826398 -0.5804472 11 4
-0.54589605 -0.11456539 -0.55492675 8 3
-0.65766144 -0.030753575 -0.73651934 6 2
-0.53029335 -0.1137315 -0.66620898 6 1
-0.17074031 -0.0096322019 -0.19155502 5 0
-0.59632152 -0.11530297 0.15275086 75 31
-0.67658859 -0.042439781 0.14880438 77 30
-0.59831834 -0.11518046 0.11082134 70 29
-0.67083138 -0.04231447 0.099676974 71 28
-0.58266264 -0.11159761 0.068161719 67 27
-0.67564631 -0.042590011 0.061372273 66 26
-0.60012341 -0.11480583 0.040083267 62 25
-0.68534786 -0.04316368 0.030395683 64 24
-0.58175236 -0.11101045 0.012940018 63 23
-0.67608023 -0.042491395 0 64 22
-0.58915079 -0.11224062 -0.013114098 63 21
-0.67539132 -0.042332027 -0.02992985 66 20
-0.57573676 -0.10962214 -0.038155667 65 19
-0.68596816 -0.042606015 -0.058567353 65 18
-0.59545571 -0.11345605 -0.065390974 68 17
-0.67249215 -0.041582976 -0.088763237 77 16
-0.57618928 -0.10989404 -0.096184008 73 15
-0.67781466 -0.040987492 -0.18433976 59 13
-0.58960205 -0.11259907 -0.12948507 80 14
-0.5914346 -0.035461273 -0.19286393 18 12
-0.55538899 -0.10713848 -0.21464756 11 11
-0.62123156 -0.035169501 -0.31189111 19 9
-0.55628461 -0.10787691 -0.24977414 13 10
-0.63942814 -0.035065159 -0.36597583 23 8
-0.56832612 -0.11268607 -0.36852512 16 7
-0.65059417 -0.033689082 -0.46953338 21 6
-0.55600089 -0.11225419 -0.45067149 11 5
-0.64856535 -0.030901918 -0.58735728 11 4
-0.54293811 -0.11194797 -0.55128789 9 3
-0.66422123 -0.028709132 -0.74415165 6 2
-0.52920657 -0.11155829 -0.66422033 6 1
-0.17077291 -0.009036148 -0.19155502 5 0
-0.59197783 -0.11230057 0.15146182 75 31
-0.67186892 -0.039805867 0.14767708 73 30
-0.59389639 -0.11216036 0.10987415 68 29
-0.67097497 -0.039972574 0.099676974 72 28
-0.57573777 -0.10815786 0.067252897 67 27
-0.68075329 -0.040629692 0.061848026 65 26
-0.59807116 -0.11224043 0.039909743 61 25
-0.68798763 -0.04091138 0.030512143 62 24
-0.58459109 -0.10944913 0.012998044 66 23
-0.67622435 -0.040131174 0 67 22
-0.58706498 -0.10981671 -0.013056071 64 21
-0.68052179 -0.040253017 -0.030162767 65 20
-0.57856554 -0.10807995 -0.038328316 66 19
-0.68361956 -0.040192902 -0.058343813 70 18
-0.60072738 -0.11230937 -0.065959588 69 17
-0.68498862 -0.040035184 -0.090483449 73 16
-0.58382607 -0.10927163 -0.097472191 73 15
-0.6731534 -0.038363785 -0.1829641 59 13
-0.58518571 -0.10972499 -0.12836881 81 14
-0.58447653 -0.033024371 -0.19041227 18 12
-0.5580163 -0.10573797 -0.21558487 12 11
-0.6213448 -0.033109229 -0.31189111 19 9
-0.56332046 -0.10723439 -0.25296274 13 10
-0.63954085 -0.032944549 -0.36597583 24 8
-0.56668562 -0.11029621 -0.36712387 15 7
-0.65865022 -0.031885408 -0.4755919 21 6
-0.561979 -0.111553 -0.45551741 10 5
-0.64144158 -0.028460935 -0.5804472 10 4
-0.55169845 -0.11189706 -0.56038505 8 3
-0.66108418 -0.026391339 -0.74033546 6 2
-0.53401828 -0.11075236 -0.67018634 6 1
-0.18238151 -0.008843814 -0.20785758 6 0
-0.59234697 -0.1103369 0.15146182 76 31
-0.67199731 -0.037577651 0.14767708 72 30
-0.59667677 -0.11064776 0.11034775 69 29
-0.68096995 -0.038269557 0.10122235 69 28
-0.58828574 -0.10854963 0.0687676 65 27
-0.68834645 -0.038647819 0.062561654 62 26
-0.5935384 -0.10933299 0.039562702 63 25
-0.69061333 -0.038761709 0.030628601 62 24
-0.58740705 -0.10797185 0.013056071 62 23
-0.68134677 -0.038151935 0 65 22
-0.594814 -0.10914992 -0.013230152 63 21
-0.688133 -0.038389504 -0.030512143 68 20
-0.58627445 -0.10754096 -0.038846266 67 19
-0.69121557 -0.03819472 -0.059014432 69 18
-0.60109651 -0.11031667 -0.065959588 67 17
-0.68265122 -0.037516013 -0.090139411 72 16
-0.58660561 -0.10779016 -0.097901583 73 15
-0.6732769 -0.036131315 -0.1829641 56 13
-0.58556521 -0.10768164 -0.12836881 82 14
-0.58458287 -0.031085994 -0.19041227 17 12
-0.56748867 -0.10552503 -0.21933419 12 11
-0.62807357 -0.031244079 -0.31540868 20 9
-0.55700594 -0.10408793 -0.24977414 13 10
-0.64392686 -0.030900821 -0.36856222 23 8
-0.56501663 -0.10801782 -0.36572263 16 7
-0.66273206 -0.029749205 -0.47862113 22 6
-0.56984878 -0.11108878 -0.46197864 10 5
-0.64514881 -0.026354153 -0.58390224 10 4
-0.54704678 -0.10893808 -0.55492675 8 3
-0.67247355 -0.024446616 -0.75369203 6 2
-0.5344016 -0.10888761 -0.67018634 6 1
nan nan nan 0 0
-0.59035414 -0.10782462 0.1508173 74 31
-0.67942244 -0.035589926 0.14936803 72 30
-0.59464598 -0.10811526 0.10987415 69 29
-0.68109936 -0.0358923 0.10122235 69 28
-0.58866107 -0.10649547 0.0687676 64 27
-0.68350595 -0.035999063 0.062085904 65 26
-0.60617864 -0.10952652 0.040430307 58 25
-0.69573295 -0.036597379 0.030861517 61 24
-0.58288294 -0.10491238 0.012940018 64 23
-0.67897886 -0.035650361 0 65 22
-0.59519142 -0.10707296 -0.013230152 61 21
-0.68078619 -0.035501137 -0.030162767 67 20
-0.58664626 -0.10549382 -0.038846266 65 19
-0.69134468 -0.035781696 -0.059014432 68 18
-0.59661114 -0.10721435 -0.065390974 66 17
-0.68525136 -0.03525212 -0.090483449 72 16
-0.58941883 -0.1060857 -0.098330975 75 15
-0.67340487 -0.033663388 -0.1829641 58 13
-0.59073031 -0.10652182 -0.12948507 82 14
-0.57761222 -0.028620416 -0.18796061 18 12
-0.56331515 -0.1025933 -0.21745953 12 11
-0.62597275 -0.028957883 -0.31423613 18 9
-0.56405538 -0.10329908 -0.25296274 13 10
-0.64189804 -0.028453898 -0.36726904 23 8
-0.569475 -0.10672851 -0.36852512 16 7
-0.6668117 -0.027468512 -0.48165038 22 6
-0.57399678 -0.10973477 -0.46520928 11 5
-0.64885342 -0.024108587 -0.58735728 10 4
-0.55752772 -0.1089604 -0.56584328 8 3
-0.67416948 -0.022145327 -0.75560009 5 2
-0.53479707 -0.1069282 -0.67018634 6 1
nan nan nan 0 0
-0.59787321 -0.10696577 0.15275086 73 31
-0.6771152 -0.032988992 0.14880438 71 30
-0.60228318 -0.10725559 0.11129493 68 29
-0.68369371 -0.03350861 0.10160869 71 28
-0.58660573 -0.10389435 0.068464659 66 27
-0.69357753 -0.03394869 0.06303741 61 26
-0.59921372 -0.10597139 0.039909743 62 25
-0.69336766 -0.033932988 0.030745059 62 24
-0.58816463 -0.10376573 0.013056071 65 23
-0.67660755 -0.033047698 0 66 22
-0.60049915 -0.10577766 -0.013346206 62 21
-0.68340069 -0.033237819 -0.030279225 71 20
-0.58948344 -0.10378546 -0.039018914 66 19
-0.69395858 -0.033359203 -0.059237972 67 18
-0.60431486 -0.10645321 -0.066243902 67 17
-0.69032347 -0.032960653 -0.09117154 69 16
-0.59463274 -0.10490324 -0.099189758 74 15
-0.67111695 -0.031208981 -0.18227626 55 13
-0.59111679 -0.10435596 -0.12948507 81 14
-0.58242977 -0.026802698 -0.18959504 17 12
-0.5636698 -0.10062633 -0.21745953 12 11
-0.63931268 -0.027176565 -0.3212713 19 9
-0.55773652 -0.10009944 -0.24977414 12 10
-0.65268379 -0.026608814 -0.37373504 22 8
-0.56780952 -0.10435595 -0.36712387 15 7
-0.66491574 -0.025073405 -0.48013577 22 6
-0.56875551 -0.10664707 -0.46036333 10 5
-0.65796518 -0.022109993 -0.59599483 10 4
-0.55790466 -0.10701359 -0.56584328 8 3
-0.68070537 -0.01983547 -0.76323247 6 2
-0.54110634 -0.10626373 -0.67814112 7 1
nan nan nan 0 0
-0.60062045 -0.10530508 0.15339538 73 31
-0.68209326 -0.030829202 0.14993168 73 30
-0.60507035 -0.10558431 0.11176853 69 29
-0.69120979 -0.031434745 0.10276773 68 28
-0.59185135 -0.10271475 0.06907054 65 27
-0.69368625 -0.031648517 0.06303741 63 26
-0.60203564 -0.10431474 0.040083267 62 25
-0.70595729 -0.032039713 0.031327356 59 24
-0.59098428 -0.10214773 0.013114098 63 23
-0.68671 -0.031106194 0 67 22
-0.60330784 -0.10422105 -0.013404233 64 21
-0.68600762 -0.030956678 -0.030395683 65 20
-0.58984214 -0.10172714 -0.039018914 66 19
-0.69406545 -0.031057769 -0.059237972 67 18
-0.60712874 -0.10477528 -0.066528209 68 17
-0.69042897 -0.030671278 -0.09117154 68 16
-0.59742045 -0.10325631 -0.09961915 74 15
-0.68322998 -0.029342156 -0.18571545 56 13
-0.59385896 -0.10282086 -0.13004319 82 14
-0.57779801 -0.024587257 -0.18796061 17 12
-0.57084364 -0.099986643 -0.2202715 12 11
-0.63939929 -0.025056377 -0.3212713 18 9
-0.55808258 -0.098151974 -0.24977414 12 10
-0.64635348 -0.02422812 -0.36985543 22 8
-0.58038515 -0.10463497 -0.37553129 15 7
-0.6689713 -0.022989804 -0.483165 22 6
-0.57098085 -0.10511536 -0.46197864 10 5
-0.65622842 -0.019880677 -0.59426731 11 4
-0.55993968 -0.10548949 -0.56766272 8 3
-0.68076736 -0.017578062 -0.76323247 5 2
-0.53996992 -0.10417295 -0.67615241 6 1
nan nan nan 0 0
-0.59858751 -0.10289374 0.15275086 74 31
-0.68705928 -0.028754978 0.151059 73 30
-0.60058135 -0.10272979 0.11082134 67 29
-0.68143791 -0.028758002 0.10122235 71 28
-0.59707808 -0.10160399 0.069676422 66 27
-0.69627929 -0.029323738 0.063275285 63 26
-0.60729235 -0.10317274 0.040430307 62 25
-0.69857341 -0.029406976 0.030977976 61 24
-0.5987072 -0.10147007 0.013288179 61 23
-0.6918056 -0.029022494 0 64 22
-0.60859317 -0.10296787 -0.013520287 61 21
-0.68860191 -0.028777923 -0.030512143 68 20
-0.59017622 -0.099770598 -0.039018914 68 19
-0.69665784 -0.028729558 -0.059461512 66 18
-0.6099202 -0.10318543 -0.066812515 66 17
-0.69300628 -0.028354369 -0.091515578 68 16
-0.59290648 -0.10043199 -0.098760366 75 15
-0.68572545 -0.027163558 -0.18640329 55 13
-0.59901613 -0.10158187 -0.13115944 82 14
-0.5873211 -0.023004193 -0.19122949 18 12
-0.56434172 -0.096787252 -0.21745953 11 11
-0.63948286 -0.022824304 -0.3212713 18 9
-0.56954539 -0.098275147 -0.25508848 13 10
-0.65498835 -0.022230148 -0.37502822 23 8
-0.5746178 -0.1015992 -0.37132758 15 7
-0.67103571 -0.020708319 -0.48467961 23 6
-0.57134432 -0.10312162 -0.46197864 11 5
-0.66532719 -0.017794885 -0.60290498 9 4
-0.57041019 -0.10545841 -0.57857931 8 3
-0.68243963 -0.01523095 -0.76514047 5 2
-0.53884345 -0.10199684 -0.6741637 6 1
nan nan nan 0 0
-0.60370362 -0.10162509 0.1540399 75 31
-0.68958974 -0.026441945 0.15162265 72 30
-0.60335571 -0.10104803 0.11129493 67 29
-0.68647093 -0.026554152 0.10199504 70 28
-0.59987533 -0.099936873 0.069979362 65 27
-0.70135164 -0.027069405 0.063751042 62 26
-0.6101073 -0.10147119 0.040603828 62 25
-0.70366323 -0.027145244 0.031210894 60 24
-0.59661114 -0.098856486 0.013230152 62 23
-0.69190264 -0.026607465 0 66 22
-0.60402066 -0.10000665 -0.013404233 64 21
-0.69868582 -0.026602494 -0.030977976 66 20
-0.58806199 -0.097292677 -0.038846266 66 19
-0.70670789 -0.026641715 -0.060355674 65 18
-0.60784537 -0.1005342 -0.066528209 67 17
-0.69062626 -0.025850466 -0.09117154 69 16
-0.59812677 -0.099083044 -0.09961915 73 15
-0.69302714 -0.02488536 -0.18846679 54 13
-0.60417169 -0.10030813 -0.13227569 81 14
-0.5826785 -0.02070215 -0.18959504 18 12
-0.5738284 -0.096292928 -0.22120883 11 11
-0.64617991 -0.020780372 -0.32478887 18 9
-0.56544274 -0.095413581 -0.25296274 13 10
-0.65078795 -0.019715838 -0.37244183 22 8
-0.57702476 -0.099855155 -0.37272879 16 7
-0.66713023 -0.018155688 -0.48165038 21 6
-0.5735957 -0.10136833 -0.46359396 11 5
-0.66177428 -0.015287466 -0.59944993 10 4
-0.56573647 -0.10242351 -0.57312101 8 3
-0.68087351 -0.012825017 -0.76323247 6 2
-0.54665315 -0.10144708 -0.68410712 6 1
nan nan nan 0 0
-0.60645384 -0.09981373 0.15468441 72 31
-0.70185417 -0.024296822 0.15444092 76 30
-0.60372192 -0.098835945 0.11129493 69 29
-0.69150102 -0.024194822 0.10276773 71 28
-0.59289449 -0.096511379 0.06907054 65 27
-0.70144612 -0.02449864 0.063751042 58 26
-0.61539525 -0.10005417 0.040950868 61 25
-0.70875007 -0.024724633 0.031443812 62 24
-0.5969525 -0.096773326 0.013230152 64 23
-0.6919955 -0.024071336 0 65 22
-0.60684878 -0.098201193 -0.01346226 64 21
-0.69627839 -0.024085023 -0.030861517 67 20
-0.59333545 -0.095953062 -0.039191566 65 19
-0.70182312 -0.023897503 -0.059908591 65 18
-0.61064291 -0.098818332 -0.066812515 67 17
-0.70061672 -0.023621501 -0.092547722 67 16
-0.59603947 -0.096590646 -0.099189758 73 15
-0.69070727 -0.022396047 -0.18777895 56 13
-0.59972769 -0.097292833 -0.13115944 81 14
-0.58747065 -0.01880086 -0.19122949 18 12
-0.57644635 -0.094675012 -0.22214615 11 11
-0.65287364 -0.018576013 -0.32830644 19 9
-0.57469577 -0.09495493 -0.25721422 13 10
-0.6572696 -0.017591907 -0.37632143 23 8
-0.58144903 -0.098551564 -0.37553129 16 7
-0.67514384 -0.015985142 -0.4877089 21 6
-0.57958138 -0.10037033 -0.46843988 10 5
-0.66724432 -0.013061558 -0.6046325 10 4
-0.57115024 -0.10137397 -0.57857931 8 3
-0.68899196 -0.010418208 -0.77277285 5 2
-0.54849273 -0.099818267 -0.68609583 6 1
nan nan nan 0 0
-0.61394817 -0.098877236 0.15661797 72 31
-0.69219601 -0.021574721 0.15218632 74 30
-0.60406333 -0.09672796 0.11129493 68 29
-0.69898832 -0.02199037 0.10392677 67 28
-0.59812593 -0.095241562 0.069676422 66 27
-0.69903964 -0.021979632 0.063513167 61 26
-0.61820221 -0.098306745 0.041124389 59 25
-0.70383948 -0.022109283 0.031210894 61 24
-0.59975362 -0.095090285 0.013288179 63 23
-0.69707334 -0.021796156 0 64 22
-0.60718781 -0.0960823 -0.01346226 66 21
-0.70135087 -0.021793868 -0.031094434 68 20
-0.59859043 -0.09468057 -0.039536864 65 19
-0.70688045 -0.021583982 -0.060355674 63 18
-0.62079084 -0.098278038 -0.06794975 70 17
-0.70069486 -0.021175748 -0.092547722 68 16
-0.60123485 -0.095300414 -0.10004854 73 15
-0.69798946 -0.020169869 -0.18984246 52 13
-0.60246879 -0.095590517 -0.13171756 83 14
-0.58517075 -0.016691953 -0.19041227 19 12
-0.57906002 -0.093039997 -0.22308348 10 11
-0.65072703 -0.016249936 -0.32713389 18 9
-0.5772559 -0.093319431 -0.25827709 13 10
-0.65304875 -0.015213859 -0.37373504 22 8
-0.58587122 -0.097218305 -0.37833378 17 7
-0.67320681 -0.013595724 -0.48619428 22 6
-0.58556706 -0.099331737 -0.47328579 11 5
-0.66909283 -0.010754123 -0.60636002 9 4
-0.56643778 -0.098471455 -0.57312101 8 3
-0.68256313 -0.007964625 -0.76514047 6 2
-0.55926681 -0.09982653 -0.70001662 7 1
nan nan nan 0 0
-0.61190504 -0.096348196 0.15597345 74 31
-0.70444161 -0.019455913 0.15500458 74 30
-0.61409175 -0.096176811 0.11318932 66 29
-0.70153004 -0.019611519 0.10431311 68 28
-0.60335577 -0.093936384 0.070282303 66 27
-0.70657241 -0.01984773 0.064226799 61 26
-0.6185416 -0.096148215 0.041124389 61 25
-0.711402 -0.019837949 0.031560272 59 24
-0.60008186 -0.09299618 0.013288179 63 23
-0.69964445 -0.019424299 0 62 22
-0.60997146 -0.09446054 -0.013520287 64 21
-0.70391917 -0.019406578 -0.031210894 61 20
-0.59645408 -0.092199519 -0.039364215 65 19
-0.71441591 -0.019419665 -0.06102629 65 18
-0.61622405 -0.095331676 -0.067381129 67 17
-0.70323676 -0.018910814 -0.09289176 67 16
-0.60886061 -0.09436205 -0.10133672 74 15
-0.70045853 -0.017786577 -0.19053029 54 13
-0.60759544 -0.094359599 -0.13283381 80 14
-0.58994973 -0.014749008 -0.1920467 17 12
-0.57707745 -0.090749107 -0.22214615 11 11
-0.65960783 -0.014250719 -0.331824 20 9
-0.57311118 -0.09057717 -0.25615135 13 10
-0.65523493 -0.013082915 -0.37502822 22 8
-0.59437525 -0.096538059 -0.38393873 16 7
-0.67523706 -0.01138925 -0.4877089 21 6
-0.58213186 -0.096745096 -0.47005519 11 5
-0.67635304 -0.0085983519 -0.6132701 9 4
-0.5684498 -0.09688969 -0.57494044 8 3
-0.69066226 -0.0057349503 -0.77468097 6 2
-0.55810398 -0.097701542 -0.69802797 6 1
nan nan nan 0 0
-0.61222118 -0.094318524 0.15597345 73 31
-0.70693731 -0.017171225 0.15556823 75 30
-0.60955751 -0.093376949 0.11224212 66 29
-0.69665235 -0.017179012 0.10354042 71 28
-0.61101925 -0.093085557 0.071191125 64 27
-0.70912552 -0.017434632 0.064464673 57 26
-0.61639291 -0.09371198 0.040950868 62 25
-0.72644407 -0.017800383 0.032259021 59 24
-0.6077956 -0.092159279 0.01346226 62 23
-0.699705 -0.017104087 0 64 22
-0.6177066 -0.093481734 -0.013694367 62 21
-0.70647651 -0.017124927 -0.031327356 61 20
-0.6016854 -0.090986773 -0.039709516 66 19
-0.71447933 -0.016925767 -0.06102629 65 18
-0.62389976 -0.094431482 -0.068234056 70 17
-0.70577419 -0.016506074 -0.093235806 68 16
-0.6067366 -0.091963574 -0.10090733 75 15
-0.70531982 -0.015554281 -0.19190596 50 13
-0.61273676 -0.092988789 -0.13395007 80 14
-0.58763307 -0.012750525 -0.19122949 17 12
-0.57967985 -0.089096338 -0.22308348 10 11
-0.65744579 -0.011916187 -0.33065146 19 9
-0.57564306 -0.089032106 -0.25721422 13 10
-0.66169465 -0.010877415 -0.37890783 21 8
-0.5906058 -0.093897358 -0.38113624 17 7
-0.68322808 -0.0091085322 -0.49376738 22 6
-0.5899933 -0.09597481 -0.47651646 11 5
-0.68180019 -0.0062657725 -0.61845267 9 4
-0.57723278 -0.096361056 -0.58403766 8 3
-0.69229335 -0.0033251822 -0.77658898 5 2
-0.5629167 -0.096546702 -0.70399398 6 1
nan nan nan 0 0
-0.61254662 -0.0921809 0.15597345 72 31
-0.71429861 -0.014832248 0.15725918 75 30
-0.61230594 -0.091621622 0.11271572 68 29
-0.70905596 -0.014969137 0.10547215 66 28
-0.60643423 -0.090202264 0.070585243 64 27
-0.70669371 -0.014914481 0.064226799 58 26
-0.62164718 -0.092311703 0.041297909 66 25
-0.72650182 -0.015264512 0.032259021 58 24
-0.60565841 -0.089555524 0.013404233 64 23
-0.7072593 -0.014795069 0 62 22
-0.61555815 -0.090949938 -0.01363634 64 21
-0.7115283 -0.014622614 -0.031560272 63 20
-0.60693097 -0.089634426 -0.040054813 65 19
-0.71951336 -0.01451684 -0.06147337 62 18
-0.62424171 -0.092144132 -0.068234056 70 17
-0.71820688 -0.0142498 -0.094956025 68 16
-0.61193937 -0.090479113 -0.10176612 75 15
-0.70537204 -0.01296905 -0.19190596 51 13
-0.60583031 -0.089748599 -0.13227569 83 14
-0.58295101 -0.010529855 -0.18959504 18 12
-0.57542151 -0.086263567 -0.22120883 11 11
-0.66189903 -0.0096697547 -0.33299652 19 9
-0.57820147 -0.08726941 -0.25827709 13 10
-0.66386956 -0.0084715262 -0.38020101 22 8
-0.59094602 -0.09173204 -0.38113624 16 7
-0.68723476 -0.0066279201 -0.49679664 21 6
-0.58657509 -0.093194351 -0.47328579 11 5
-0.68723989 -0.003775324 -0.62363523 9 4
-0.57589132 -0.093959689 -0.58221817 8 3
-0.70199269 -0.00088154245 -0.78803754 5 2
-0.56625205 -0.095001198 -0.70797139 6 1
nan nan nan 0 0
-0.61765736 -0.090655923 0.1572625 72 31
-0.70947748 -0.012146099 0.15613188 75 30
-0.61506522 -0.089740895 0.11318932 68 29
-0.70416665 -0.012299521 0.10469946 68 28
-0.61166966 -0.088710852 0.071191125 66 27
-0.7142089 -0.012431066 0.06494043 57 26
-0.62444824 -0.090399534 0.041471429 60 25
-0.7265529 -0.012601648 0.032259021 59 24
-0.60843956 -0.087807663 0.01346226 65 23
-0.70230925 -0.01213205 0 64 22
-0.62330449 -0.089791112 -0.013810421 66 21
-0.71157503 -0.012138827 -0.031560272 63 20
-0.59985399 -0.086313725 -0.039536864 67 19
-0.7195617 -0.011879595 -0.06147337 64 18
-0.62455952 -0.089964569 -0.068234056 70 17
-0.71577823 -0.011584931 -0.09461198 69 16
-0.61468768 -0.088703975 -0.10219551 74 15
-0.71742982 -0.01064729 -0.19534513 52 13
-0.6109761 -0.088243701 -0.13339195 81 14
-0.59243441 -0.0085955262 -0.19286393 17 12
-0.58946931 -0.086329058 -0.22683278 10 11
-0.65751421 -0.0072113383 -0.33065146 20 9
-0.5874511 -0.086610317 -0.2625286 13 10
-0.66603464 -0.0061660875 -0.38149425 21 8
-0.58512598 -0.088708825 -0.37693256 15 7
-0.6932205 -0.0042435625 -0.50134051 22 6
-0.59443289 -0.092354693 -0.47974709 11 5
-0.68905598 -0.0013729166 -0.62536275 9 4
-0.58298254 -0.093065463 -0.58949596 8 3
-0.70037585 0.0016809639 -0.78612942 5 2
-0.56359315 -0.092516117 -0.70399398 6 1
nan nan nan 0 0
-0.62513918 -0.089555427 0.15919605 73 31
-0.70951551 -0.0096694864 0.15613188 71 30
-0.62023246 -0.088304624 0.1141365 66 29
-0.70420533 -0.0098414458 0.10469946 69 28
-0.61197561 -0.086575188 0.071191125 64 27
-0.72420019 -0.01017205 0.065891936 55 26
-0.63216424 -0.089294136 0.04199199 62 25
-0.72159821 -0.010011383 0.032026105 62 24
-0.61121589 -0.08604148 0.013520287 63 23
-0.70734704 -0.0097336909 0 62 22
-0.62607241 -0.088081427 -0.013868448 65 21
-0.711613 -0.0096548935 -0.031560272 63 20
-0.61002523 -0.085645638 -0.040227465 67 19
-0.72208697 -0.0095185824 -0.061696909 62 18
-0.62978625 -0.088494129 -0.06880267 69 17
-0.72324103 -0.0092838667 -0.095644109 66 16
-0.61499357 -0.086557776 -0.10219551 73 15
-0.71025229 -0.0080837803 -0.19328164 50 13
-0.61608857 -0.086917341 -0.13450819 80 14
-0.59009814 -0.006510586 -0.1920467 18 12
-0.58516675 -0.083697505 -0.22495812 10 11
-0.66195041 -0.0050486298 -0.33299652 20 9
-0.58551157 -0.08422707 -0.26146573 14 10
-0.67460954 -0.003976821 -0.38666704 23 8
-0.59361857 -0.087917075 -0.38253748 16 7
-0.6912418 -0.0019464731 -0.49982589 22 6
-0.58719581 -0.089199543 -0.47328579 10 5
-0.68182838 0.00087423529 -0.61845267 9 4
-0.57990277 -0.090584636 -0.58585709 8 3
-0.70198172 0.0040192725 -0.78803754 5 2
-0.56090808 -0.090148665 -0.70001662 6 1
nan nan nan 0 0
-0.62543273 -0.087481909 0.15919605 71 31
-0.72172153 -0.0074037388 0.15895014 75 30
-0.6156618 -0.085552238 0.11318932 67 29
-0.71411359 -0.0075803101 0.10624484 67 28
-0.60980242 -0.084196106 0.070888184 66 27
-0.71427691 -0.0075693498 0.06494043 58 26
-0.6299876 -0.086847208 0.04181847 64 25
-0.73161626 -0.007693389 0.032491937 61 24
-0.61644727 -0.084714144 0.01363634 62 23
-0.71237528 -0.0074246414 0 62 22
-0.63380045 -0.086942896 -0.014042529 65 21
-0.71913278 -0.0073486567 -0.031909645 61 20
-0.61030591 -0.083622254 -0.040227465 66 19
-0.72709566 -0.0070309984 -0.062143989 61 18
-0.6325357 -0.086752169 -0.069086984 69 17
-0.72822136 -0.0067903446 -0.096332192 66 16
-0.61527723 -0.084517911 -0.10219551 73 15
-0.71508217 -0.0057519451 -0.1946573 47 13
-0.6163882 -0.084766261 -0.13450819 82 14
-0.59720439 -0.0045809299 -0.19449836 19 12
-0.59233731 -0.082644857 -0.22777011 10 11
-0.66858804 -0.002741429 -0.33651409 18 9
-0.59026647 -0.082934387 -0.26359147 13 10
-0.67034024 -0.0016271978 -0.38408065 22 8
-0.58981156 -0.085336022 -0.37973502 17 7
-0.69920009 0.00050113653 -0.50588435 21 6
-0.59316182 -0.088017136 -0.47813177 12 5
-0.68182123 0.003254255 -0.61845267 9 4
-0.58021539 -0.088559859 -0.58585709 8 3
-0.7003482 0.0064481949 -0.78612942 5 2
-0.56720024 -0.089165308 -0.70797139 6 1
nan nan nan 0 0
-0.62334222 -0.084962443 0.15855154 73 31
-0.72174293 -0.0048844153 0.15895014 76 30
-0.62568152 -0.084758997 0.11508369 66 29
-0.71413571 -0.0050875419 0.10624484 69 28
-0.62729919 -0.084451519 0.073008768 62 27
-0.71927637 -0.0050959922 0.065416187 57 26
-0.63522786 -0.085330583 0.04216551 62 25
-0.73413593 -0.0051495498 0.032608397 60 24
-0.62665743 -0.083817884 0.013868448 61 23
-0.71489686 -0.0049475422 0 61 22
-0.62667203 -0.08370851 -0.013868448 66 21
-0.72414947 -0.0047302875 -0.032142565 62 20
-0.60565251 -0.080811828 -0.039882164 66 19
-0.72960573 -0.0045007411 -0.062367529 62 18
-0.63284945 -0.08443322 -0.069086984 69 17
-0.73319304 -0.0042621661 -0.097020283 64 16
-0.62534213 -0.083606035 -0.10391308 73 15
-0.71750194 -0.0031339361 -0.19534513 49 13
-0.61909437 -0.082947403 -0.13506632 77 14
-0.59249192 -0.002391211 -0.19286393 17 12
-0.59034109 -0.080151528 -0.22683278 11 11
-0.66417754 -0.00042070693 -0.33416903 17 9
-0.59056646 -0.080770388 -0.26359147 12 10
-0.67676032 0.00086109992 -0.38796026 22 8
-0.60036415 -0.08466626 -0.38674119 16 7
-0.69521582 0.0030318936 -0.50285512 21 6
-0.59725451 -0.086407222 -0.48136237 12 5
-0.67638379 0.0056860549 -0.6132701 9 4
-0.58392513 -0.086955495 -0.58949596 8 3
-0.70355153 0.0089469533 -0.7899456 5 2
-0.56453103 -0.086609222 -0.70399398 6 1
nan nan nan 0 0
-0.62604272 -0.083004206 0.15919605 72 31
-0.72906291 -0.0022390625 0.1606411 74 30
-0.62355548 -0.082135022 0.1146101 65 29
-0.71908951 -0.0024717939 0.10701752 67 28
-0.62514526 -0.081820145 0.072705828 62 27
-0.72924471 -0.0024631531 0.066367693 55 26
-0.63553631 -0.083001792 0.04216551 62 25
-0.73664713 -0.0024596439 0.032724857 58 24
-0.6244691 -0.081297651 0.013810421 63 23
-0.7199102 -0.0023281535 0 61 22
-0.63936102 -0.083068162 -0.014158584 65 21
-0.72416151 -0.0022025055 -0.032142565 59 20
-0.61088866 -0.079252884 -0.040227465 68 19
-0.72712737 -0.0018278759 -0.062143989 63 18
-0.63314027 -0.082223654 -0.069086984 68 17
-0.72825128 -0.0015791729 -0.096332192 67 16
-0.62318921 -0.081095241 -0.10348368 73 15
-0.71991205 -0.00062391441 -0.19603297 51 13
-0.62180948 -0.081002153 -0.13562444 78 14
-0.59485924 -0.00031517888 -0.19368115 18 12
-0.59520984 -0.078717843 -0.22870745 10 11
-0.66859049 0.0020429159 -0.33651409 18 9
-0.59532809 -0.079325758 -0.26571718 13 10
-0.67675316 0.003223429 -0.38796026 22 8
-0.59655648 -0.081987366 -0.38393873 16 7
-0.7011674 0.0055273622 -0.50739902 21 6
-0.59944057 -0.08459767 -0.48297769 11 5
-0.67635983 0.0080470396 -0.6132701 9 4
-0.58592045 -0.085172184 -0.59131539 8 3
-0.70028412 0.011459573 -0.78612942 6 2
-0.57231462 -0.085803486 -0.7139374 6 1
nan nan nan 0 0
-0.62872297 -0.081137024 0.15984057 71 31
-0.73393756 0.0003228595 0.16176841 72 30
-0.62870556 -0.080601268 0.1155573 64 29
-0.7215637 4.6071596e-05 0.10740387 66 28
-0.62788743 -0.079960532 0.073008768 63 27
-0.73173755 9.0219779e-05 0.066605568 54 26
-0.64324081 -0.081754252 0.042686075 60 25
-0.74164575 0.00012744032 0.032957774 56 24
-0.62722737 -0.079440989 0.013868448 62 23
-0.71991396 0.00018481631 0 58 22
-0.64212543 -0.081158645 -0.014216611 64 21
-0.73165661 0.00035145483 -0.032491937 57 20
-0.62105411 -0.078408338 -0.040918063 69 19
-0.72961926 0.00072027906 -0.062367529 64 18
-0.63588649 -0.080333851 -0.069371298 69 17
-0.73072851 0.00097371219 -0.096676238 67 16
-0.62591058 -0.079238333 -0.10391308 74 15
-0.72471672 0.0019167375 -0.19740863 47 13
-0.61967206 -0.078515179 -0.13506632 78 14
-0.58776891 0.0017130235 -0.19122949 18 12
-0.59548104 -0.076639697 -0.22870745 10 11
-0.67078716 0.0043990705 -0.3376866 19 9
-0.58887321 -0.076344684 -0.2625286 13 10
-0.67459834 0.0055603264 -0.38666704 21 8
-0.60709298 -0.081325538 -0.3909449 16 7
-0.70710999 0.0080644181 -0.51194286 20 6
-0.60539925 -0.083312258 -0.48782364 11 5
-0.68174791 0.010512949 -0.61845267 8 4
-0.58621424 -0.083126418 -0.59131539 8 3
-0.70346951 0.013981191 -0.7899456 5 2
-0.57710385 -0.084488757 -0.71990347 6 1
nan nan nan 0 0
-0.63379335 -0.079562403 0.16112961 71 31
-0.7266252 0.0028337659 0.16007745 74 30
-0.63385248 -0.079032563 0.11650449 64 29
-0.72649896 0.0025975611 0.10817656 66 28
-0.63062429 -0.07808277 0.073311709 63 27
-0.73919898 0.0025649611 0.067319199 53 26
-0.63857436 -0.078878097 0.042339034 61 25
-0.74663526 0.0027493911 0.03319069 57 24
-0.62254208 -0.076621108 0.013752394 63 23
-0.71990889 0.0026977838 0 58 22
-0.63991159 -0.078714289 -0.014158584 66 21
-0.73414814 0.0029228453 -0.032608397 58 20
-0.62132406 -0.076239973 -0.040918063 70 19
-0.73957253 0.0032127891 -0.063261688 64 18
-0.63862717 -0.078425854 -0.069655605 70 17
-0.74062586 0.0034729531 -0.098052412 63 16
-0.62374014 -0.076742619 -0.10348368 72 15
-0.71989882 0.0044019935 -0.19603297 43 13
-0.61992908 -0.076459832 -0.13506632 79 14
-0.59957206 0.0038863537 -0.19531558 18 12
-0.60262704 -0.075558886 -0.23151942 10 11
-0.66414553 0.00653444 -0.33416903 17 9
-0.59362364 -0.074874677 -0.26465431 13 10
-0.67885482 0.0078623174 -0.38925347 21 8
-0.60737324 -0.079205878 -0.3909449 17 7
-0.70310211 0.01033634 -0.50891364 21 6
-0.60000253 -0.080515474 -0.48297769 12 5
-0.67990261 0.012732648 -0.61672515 8 4
-0.59327507 -0.082157806 -0.59859312 7 3
-0.70503402 0.01635788 -0.79185373 5 2
-0.58487326 -0.083688959 -0.72984684 6 1
nan nan nan 0 0
-0.63165718 -0.077157915 0.16048509 70 31
-0.73635381 0.0053436477 0.16233206 75 30
-0.63654679 -0.077235304 0.11697809 65 29
-0.73142606 0.0050558476 0.10894925 66 28
-0.63334239 -0.076297417 0.073614649 60 27
-0.74167413 0.0051699891 0.067557074 52 26
-0.64378244 -0.077373996 0.042686075 62 25
-0.75161636 0.0052749952 0.033423606 55 24
-0.630234 -0.075476527 0.013926475 62 23
-0.73489523 0.0052369139 0 58 22
-0.6401825 -0.076480106 -0.014158584 67 21
-0.73912877 0.005408782 -0.032841314 57 20
-0.62899929 -0.075094901 -0.041436013 65 19
-0.73457718 0.0057404726 -0.062814608 63 18
-0.64134884 -0.076611653 -0.069939911 69 17
-0.7455613 0.0061135171 -0.098740496 64 16
-0.63621247 -0.076185204 -0.10563066 75 15
-0.72468686 0.0068496456 -0.19740863 44 13
-0.62986588 -0.075493477 -0.13729882 76 14
-0.59246856 0.0057780957 -0.19286393 16 12
-0.60058767 -0.073164791 -0.2305821 10 11
-0.66853404 0.008927458 -0.33651409 19 9
-0.59611332 -0.0731913 -0.26571718 12 10
-0.67882323 0.010231915 -0.38925347 21 8
-0.61379057 -0.078002043 -0.39514861 17 7
-0.70703876 0.012877339 -0.51194286 19 6
-0.60217071 -0.078676894 -0.484593 11 5
-0.69069302 0.015389702 -0.62709028 8 4
-0.59355819 -0.080086395 -0.59859312 8 3
-0.7130453 0.019066863 -0.80139405 5 2
-0.58216333 -0.081211559 -0.72586948 6 1
nan nan nan 0 0
-0.6343202 -0.075246505 0.16112961 71 31
-0.74120146 0.0079811336 0.16345936 73 30
-0.63681245 -0.07501287 0.11697809 63 29
-0.73881322 0.0077085495 0.11010829 66 28
-0.63360488 -0.074086182 0.073614649 62 27
-0.73667467 0.0076919948 0.067081325 54 26
-0.6490007 -0.075722948 0.043033116 61 25
-0.74659926 0.0078314738 0.03319069 57 24
-0.6404326 -0.074356757 0.014158584 63 23
-0.74237174 0.0079042427 0 56 22
-0.64292705 -0.074542202 -0.014216611 64 21
-0.74659503 0.0082223909 -0.03319069 57 20
-0.63173389 -0.07319542 -0.041608665 71 19
-0.74700129 0.0084827635 -0.0639323 64 18
-0.64409143 -0.074555419 -0.070224218 70 17
-0.74553543 0.0087159732 -0.098740496 64 16
-0.63404202 -0.073559538 -0.10520127 71 15
-0.73426968 0.0096617546 -0.20015997 43 13
-0.63012552 -0.073294379 -0.13729882 77 14
-0.59953028 0.0080720279 -0.19531558 17 12
-0.60315228 -0.071244679 -0.23151942 9 11
-0.67291379 0.011351191 -0.33885911 18 9
-0.58514893 -0.069619283 -0.26040286 12 10
-0.67878115 0.012719858 -0.38925347 20 8
-0.60996497 -0.075226434 -0.39234614 16 7
-0.71295172 0.015620708 -0.5164867 20 6
-0.61191356 -0.077716224 -0.49266955 10 5
-0.69063199 0.017921116 -0.62709028 8 4
-0.60234177 -0.079069361 -0.60769027 8 3
-0.71943188 0.021776723 -0.80902636 5 2
-0.59445739 -0.080774501 -0.74177903 6 1
nan nan nan 0 0
-0.63699031 -0.073206261 0.16177413 71 31
-0.73386151 0.010570196 0.16176841 75 30
-0.62976968 -0.071815312 0.1155573 65 29
-0.74124956 0.010458629 0.11049463 67 28
-0.64126641 -0.072629407 0.074523479 61 27
-0.74161816 0.01047712 0.067557074 52 26
-0.6467967 -0.073054492 0.042859595 61 25
-0.75655323 0.010738692 0.033656523 55 24
-0.63572299 -0.07154277 0.014042529 65 23
-0.73483896 0.010495535 0 60 22
-0.64816129 -0.072761528 -0.014332665 64 21
-0.74656183 0.010828444 -0.03319069 58 20
-0.63447541 -0.071167029 -0.041781314 68 19
-0.7444756 0.011175843 -0.06370876 61 18
-0.64681494 -0.072593011 -0.070508532 68 17
-0.75045007 0.011539193 -0.099428587 65 16
-0.63184863 -0.07106109 -0.10477187 71 15
-0.73182851 0.012177374 -0.19947214 41 13
-0.63523096 -0.071548767 -0.13841508 75 14
-0.59949845 0.010164729 -0.19531558 18 12
-0.60800016 -0.06968607 -0.23339407 10 11
-0.67948973 0.013976995 -0.34237668 19 9
-0.58988172 -0.068115287 -0.2625286 12 10
-0.68087143 0.015144427 -0.39054665 21 8
-0.61227846 -0.073352352 -0.39374736 17 7
-0.71289283 0.018109279 -0.5164867 20 6
-0.60650343 -0.074851438 -0.48782364 11 5
-0.69237137 0.020391993 -0.6288178 7 4
-0.60091448 -0.076740436 -0.60587084 8 3
-0.70481992 0.023862962 -0.79185373 5 2
-0.59173417 -0.078285135 -0.73780161 6 1
nan nan nan 0 0
-0.63484246 -0.070705518 0.16112961 71 31
-0.74843067 0.013437834 0.16515031 73 30
-0.64221054 -0.071012378 0.11792528 62 29
-0.74614739 0.013147738 0.11126731 67 28
-0.63658464 -0.06983041 0.073917598 61 27
-0.74406517 0.013117037 0.067794949 52 26
-0.64952594 -0.071076892 0.043033116 61 25
-0.75151759 0.013276635 0.033423606 58 24
-0.64093608 -0.06988392 0.014158584 59 23
-0.74229622 0.013216297 0 58 22
-0.64841139 -0.070498578 -0.014332665 65 21
-0.74901623 0.013486665 -0.033307146 56 20
-0.63224155 -0.068673 -0.041608665 67 19
-0.74941087 0.01388138 -0.064155839 63 18
-0.64459622 -0.070057034 -0.070224218 68 17
-0.75040525 0.014158681 -0.099428587 64 16
-0.63943475 -0.069683813 -0.10606005 71 15
-0.74139297 0.014955009 -0.20222348 40 13
-0.62821245 -0.068509705 -0.1367407 77 14
-0.61126918 0.012543873 -0.19940171 18 12
-0.6013326 -0.066766605 -0.2305821 10 11
-0.69047254 0.016653173 -0.34823933 18 9
-0.5901159 -0.066055797 -0.2625286 12 10
-0.67653722 0.017395571 -0.38796026 22 8
-0.61253077 -0.071214654 -0.39374736 15 7
-0.71282524 0.020597629 -0.5164867 19 6
-0.61433464 -0.073678583 -0.49428487 10 5
-0.69951946 0.023074834 -0.63572788 9 4
-0.60457945 -0.075082265 -0.60950971 8 3
-0.71280193 0.026657078 -0.80139405 5 2
-0.59650832 -0.076824144 -0.74376768 6 1
nan nan nan 0 0
-0.63988638 -0.069025904 0.16241865 70 31
-0.74594426 0.015990755 0.16458666 75 30
-0.6424545 -0.068770207 0.11792528 63 29
-0.75350475 0.015930654 0.11242635 64 28
-0.6466912 -0.068693697 0.07512936 59 27
-0.75396937 0.015822375 0.068746462 50 26
-0.65720743 -0.069625035 0.04355368 58 25
-0.75645983 0.016020127 0.033656523 55 24
-0.64862967 -0.068461187 0.014332665 63 23
-0.73974627 0.015746668 0 58 22
-0.65112621 -0.068619207 -0.014390692 64 21
-0.75146115 0.01616215 -0.033423606 57 20
-0.62999803 -0.066195421 -0.041436013 69 19
-0.74936068 0.016366439 -0.064155839 64 18
-0.65224433 -0.068613872 -0.071077146 69 17
-0.76025581 0.016895946 -0.10080475 64 16
-0.64701879 -0.068254426 -0.10734823 72 15
-0.75575227 0.017927913 -0.20635051 39 13
-0.64054805 -0.067754708 -0.13953133 75 14
-0.60413635 0.01448085 -0.19695002 18 12
-0.60846037 -0.065545969 -0.23339407 9 11
-0.69041353 0.018942768 -0.34823933 17 9
-0.58584589 -0.06348791 -0.26040286 12 10
-0.67433739 0.019569136 -0.38666704 20 8
-0.61277568 -0.069076084 -0.39374736 16 7
-0.71871603 0.023174772 -0.5210306 20 6
-0.61646974 -0.071870863 -0.49590015 10 5
-0.69221646 0.025104309 -0.6288178 9 4
-0.60312402 -0.072862692 -0.60769027 8 3
-0.71270961 0.029020671 -0.80139405 5 2
-0.60126626 -0.075435713 -0.74973375 6 1
nan nan nan 0 0
-0.64491457 -0.067424491 0.16370767 70 31
-0.75562596 0.018734636 0.16684128 75 30
-0.64756036 -0.067164481 0.11887246 63 29
-0.75591683 0.018496949 0.1128127 65 28
-0.64198029 -0.066022269 0.074523479 60 27
-0.75390947 0.018454121 0.068746462 52 26
-0.65495467 -0.067181543 0.043380156 61 25
-0.75889891 0.018596971 0.033772983 55 24
-0.65135014 -0.066459619 0.014390692 62 23
-0.74968618 0.018475397 0 57 22
-0.65881819 -0.067133591 -0.014564773 63 21
-0.75639272 0.018924598 -0.033656523 55 20
-0.64509553 -0.065677889 -0.042471919 64 19
-0.75676596 0.019193275 -0.064826459 61 18
-0.65000975 -0.066076212 -0.070792839 67 17
-0.75524187 0.019407896 -0.10011667 64 16
-0.64725316 -0.065995492 -0.10734823 71 15
-0.74847782 0.020348189 -0.20428699 38 13
-0.64078063 -0.065518364 -0.13953133 76 14
-0.61116672 0.016810995 -0.19940171 16 12
-0.60869652 -0.063315406 -0.23339407 10 11
-0.69696325 0.021580353 -0.3517569 19 9
-0.5905627 -0.061934441 -0.2625286 12 10
-0.68067551 0.022273535 -0.39054665 20 8
-0.6150701 -0.067170694 -0.39514861 16 7
-0.72061372 0.025887277 -0.52254522 18 6
-0.62430912 -0.070502684 -0.50236142 11 5
-0.69934136 0.027957799 -0.63572788 8 4
-0.61359823 -0.071899995 -0.61860681 7 3
-0.71260393 0.031508312 -0.80139405 5 2
-0.60153872 -0.073231451 -0.74973375 6 1
nan nan nan 0 0
-0.64275503 -0.064808659 0.16306317 70 31
-0.75798661 0.021580521 0.16740495 73 30
-0.64780217 -0.064790606 0.11887246 63 29
-0.76078147 0.021420842 0.11358538 64 28
-0.64468646 -0.063923083 0.074826419 61 27
-0.75881171 0.021371821 0.069222212 50 26
-0.65767741 -0.065035202 0.04355368 60 25
-0.76631385 0.021611059 0.034122355 54 24
-0.64909184 -0.063931271 0.014332665 62 23
-0.74711466 0.021144919 0 59 22
-0.65408695 -0.06421157 -0.014448719 64 21
-0.75382602 0.021486344 -0.033540066 57 20
-0.64533192 -0.063313052 -0.042471919 65 19
-0.76166797 0.022125863 -0.065273538 59 18
-0.65517849 -0.064310573 -0.071361452 66 17
-0.76011544 0.022335744 -0.10080475 65 16
-0.64747959 -0.063735753 -0.10734823 68 15
-0.76041299 0.02336547 -0.20772617 37 13
-0.64101648 -0.063169345 -0.13953133 76 14
-0.60638177 0.018780174 -0.19776724 17 12
-0.61582887 -0.061914641 -0.23620604 10 11
-0.69026029 0.023882739 -0.34823933 18 9
-0.5952757 -0.060348812 -0.26465431 12 10
-0.67418003 0.02439405 -0.38666704 20 8
-0.61324298 -0.064796455 -0.39374736 15 7
-0.71455765 0.028146422 -0.51800138 19 6
-0.61696827 -0.067457691 -0.49590015 10 5
-0.69923949 0.030398784 -0.63572788 9 4
-0.61214298 -0.069555588 -0.61678737 8 3
-0.69312602 0.033115599 -0.7784971 5 2
-0.60780478 -0.071875006 -0.75768846 6 1
nan nan nan 0 0
-0.64297736 -0.062564626 0.16306317 69 31
-0.75790673 0.024226258 0.16740495 75 30
-0.64802438 -0.062528953 0.11887246 63 29
-0.7631706 0.024161676 0.11397174 63 28
-0.64984453 -0.062163532 0.075432301 60 27
-0.76370686 0.024192406 0.069697969 50 26
-0.65790045 -0.062739082 0.04355368 60 25
-0.76373804 0.024199581 0.034005899 55 24
-0.65179825 -0.061910752 0.014390692 63 23
-0.75453174 0.024013145 0 57 22
-0.65430707 -0.061927985 -0.014448719 65 21
-0.76372945 0.024466172 -0.034005899 57 20
-0.645549 -0.061060041 -0.042471919 67 19
-0.7590977 0.024696244 -0.065049998 61 18
-0.66034263 -0.062509663 -0.071930073 69 17
-0.76498216 0.025166065 -0.10149285 64 16
-0.65259999 -0.06195933 -0.10820701 70 15
-0.75792497 0.025930334 -0.20703833 38 13
-0.64123309 -0.060931392 -0.13953133 76 14
-0.60631251 0.020896729 -0.19776724 17 12
-0.61604124 -0.059764616 -0.23620604 9 11
-0.69458491 0.026475433 -0.35058436 19 9
-0.5932318 -0.058040302 -0.26359147 11 10
-0.6740908 0.026747229 -0.38666704 20 8
-0.61758274 -0.063094735 -0.39654982 15 7
-0.71644187 0.030732827 -0.51951599 19 6
-0.62099296 -0.065723076 -0.49913079 10 5
-0.7063483 0.033206377 -0.64263797 8 4
-0.61578858 -0.067810729 -0.62042624 8 3
-0.68816763 0.03526688 -0.77277285 5 2
-0.60353947 -0.069210865 -0.7517224 6 1
nan nan nan 0 0
-0.65280801 -0.061259318 0.16564123 68 31
-0.75781757 0.026871698 0.16740495 74 30
-0.6457954 -0.060029995 0.11839887 61 29
-0.76308161 0.026825491 0.11397174 64 28
-0.65499794 -0.060368743 0.076038182 56 27
-0.7636224 0.026724819 0.069697969 53 26
-0.65811551 -0.060442194 0.04355368 61 25
-0.76863974 0.027055362 0.034238815 57 24
-0.65698647 -0.060109064 0.014506746 64 23
-0.75943971 0.026837874 0 56 22
-0.65699697 -0.059994396 -0.014506746 65 21
-0.76363945 0.027131937 -0.034005899 58 20
-0.65072399 -0.059277434 -0.042817216 64 19
-0.75901163 0.027213367 -0.065049998 63 18
-0.65808409 -0.059969649 -0.071645766 68 17
-0.76489449 0.0277027 -0.10149285 63 16
-0.6528123 -0.059680954 -0.10820701 70 15
-0.76023132 0.028673543 -0.20772617 38 13
-0.64870912 -0.05950027 -0.1412057 75 14
-0.60387528 0.022914499 -0.19695002 16 12
-0.60931629 -0.057044148 -0.23339407 10 11
-0.69008172 0.028580602 -0.34823933 18 9
-0.59793448 -0.056413949 -0.26571718 11 10
-0.66544962 0.028583778 -0.38149425 18 8
-0.6219182 -0.061363511 -0.39935231 16 7
-0.71434951 0.033009574 -0.51800138 18 6
-0.62310475 -0.063866861 -0.50074607 9 5
-0.70803875 0.035646256 -0.64436549 8 4
-0.61089832 -0.065196767 -0.61496794 7 3
-0.70255977 0.038400784 -0.7899456 5 2
-0.6097846 -0.067911886 -0.75967711 6 1
nan nan nan 0 0
-0.65541238 -0.059321094 0.16628575 70 31
-0.76502478 0.029689269 0.1690959 75 30
-0.65332311 -0.058573481 0.11981966 63 29
