# .PCD v0.7 - Point Cloud Data file format
VERSION 0.7
FIELDS x y z intensity ring
SIZE 4 4 4 4 2
TYPE F F F F U
COUNT 1 1 1 1 1
WIDTH 1225
HEIGHT 1
VIEWPOINT 0 0 0 1 0 0 0
POINTS 1225
DATA ascii
0.36613026 -0.60304767 -0.19190596 63 13
0.50462902 -0.63026416 -0.17692572 66 14
0.37182492 -0.6138922 -0.23617658 13 12
0.50698864 -0.6304031 -0.31306675 69 11
0.33904263 -0.56340665 -0.33065146 8 9
0.51746124 -0.64203554 -0.37094119 72 10
0.36322653 -0.6062271 -0.40606505 34 8
nan nan nan 0 7
0.29187742 -0.48950595 -0.40743384 4 6
0.30890369 -0.37906346 -0.38444376 3 5
0.21503581 -0.36264646 -0.36968955 5 4
0.23164666 -0.28305972 -0.35115036 4 3
0.19053459 -0.3238073 -0.40260512 5 2
0.12911555 -0.15862425 -0.22273257 5 1
0.08550258 -0.1430646 -0.18544157 3 0
0.50716251 -0.63501042 0.20753494 56 31
0.37124926 -0.61327219 0.15782283 82 30
0.49917397 -0.62614769 0.14776179 53 29
0.36112544 -0.59599334 0.10354042 51 28
0.50233209 -0.63116992 0.094214633 60 27
0.35728309 -0.58962983 0.062561654 33 26
0.51075834 -0.64213985 0.054658998 62 25
0.36745915 -0.60655737 0.031443812 41 24
0.51148051 -0.6437214 0.0182785 58 23
0.36128914 -0.59653705 0 27 22
0.51292843 -0.64576304 -0.018336527 62 21
0.36199668 -0.59818721 -0.030977976 21 20
0.50720781 -0.63861442 -0.054039471 61 19
0.36720186 -0.6073193 -0.060579214 9 18
0.50508881 -0.63619977 -0.088988587 66 17
0.34724072 -0.57451552 -0.088419192 6 16
0.49966672 -0.6289925 -0.13397059 68 15
0.36021793 -0.59819663 -0.18984246 61 13
0.50394827 -0.63392478 -0.17748384 67 14
0.36352175 -0.60510474 -0.23209049 10 12
0.50177151 -0.62864357 -0.3111921 66 11
0.34044874 -0.57028645 -0.33416903 6 9
0.51084727 -0.63864034 -0.36775258 69 10
0.34905022 -0.58728009 -0.39183986 34 8
nan nan nan 0 7
0.29108602 -0.49228901 -0.40894845 4 6
0.29663306 -0.36690611 -0.36990598 3 5
0.21551724 -0.36655936 -0.3731446 6 4
0.22187003 -0.27333361 -0.33659488 4 3
0.18618819 -0.31886587 -0.3949728 5 2
nan nan nan 0 1
0.083545238 -0.14085962 -0.18136594 3 0
0.50031269 -0.63120008 0.20560136 56 31
0.36525759 -0.60835242 0.15613188 84 30
0.49534661 -0.62605274 0.14728819 52 29
0.3589386 -0.59731293 0.10354042 58 28
0.49692708 -0.62912154 0.093608752 58 27
0.35001943 -0.58238649 0.061610151 35 26
0.50529897 -0.64010173 0.054311957 62 25
0.36779249 -0.61218929 0.031676728 51 24
0.50612271 -0.64158762 0.018162446 57 23
0.35653937 -0.5935629 0 32 22
0.50900495 -0.64568061 -0.0182785 63 21
0.36502132 -0.60802752 -0.031443812 23 20
0.50021416 -0.63460714 -0.053521521 61 19
0.35987797 -0.60010314 -0.059685051 10 18
0.50286496 -0.637959 -0.088988587 64 17
0.34386662 -0.57365626 -0.088075146 8 16
0.49440581 -0.62687474 -0.13311179 69 15
0.36180562 -0.60565221 -0.19190596 42 13
0.49707535 -0.63004214 -0.17580946 68 14
nan nan nan 0 12
0.49523821 -0.62495595 -0.30838013 70 11
0.35400793 -0.59818685 -0.35058436 8 9
0.50578892 -0.63688475 -0.36562684 69 10
0.3523986 -0.59772944 -0.39830586 38 8
nan nan nan 0 7
0.29635653 -0.50534236 -0.41955081 4 6
0.29173961 -0.36349764 -0.36506006 3 5
0.21513695 -0.36887613 -0.37487212 6 4
0.22852764 -0.28338465 -0.34933093 4 3
0.18661544 -0.32235429 -0.39878896 5 2
nan nan nan 0 1
0.086612083 -0.14745638 -0.19155502 3 0
0.49810636 -0.63294262 0.20560136 55 31
0.36437163 -0.6117202 0.15669553 85 30
0.49315825 -0.62777805 0.14728819 50 29
0.35056111 -0.58793443 0.10160869 49 28
0.49780267 -0.6347484 0.094214633 58 27
0.34808621 -0.58354396 0.061610151 37 26
0.49842852 -0.63598686 0.053791393 59 25
0.36056536 -0.60487306 0.031210894 63 24
0.49923915 -0.6374613 0.017988365 58 23
0.35446525 -0.59480381 0 37 22
0.50376779 -0.64343834 -0.018162446 63 21
0.36035421 -0.60499895 -0.031210894 29 20
0.49490997 -0.63243049 -0.053176221 60 19
0.35788596 -0.60129321 -0.059685051 17 18
0.49756172 -0.63580775 -0.088419966 67 17
0.35077545 -0.58971924 -0.090483449 9 16
0.4906902 -0.62666231 -0.1326824 68 15
0.36456448 -0.61519778 -0.1946573 31 13
0.49498332 -0.63168705 -0.17580946 68 14
nan nan nan 0 12
0.48884523 -0.62114507 -0.30556813 68 11
0.35424569 -0.6031729 -0.35292941 16 9
0.49934235 -0.63332927 -0.36243823 70 10
0.34826657 -0.5951938 -0.39571944 35 8
nan nan nan 0 7
0.29368618 -0.50459898 -0.41803619 4 6
0.28813514 -0.36149403 -0.36182943 3 5
0.21391252 -0.36958757 -0.37487212 6 4
0.22000438 -0.27483749 -0.33659488 4 3
0.18554544 -0.32297137 -0.39878896 5 2
nan nan nan 0 1
0.084707387 -0.14521569 -0.18747938 3 0
0.49301788 -0.63079393 0.20431234 56 31
0.35864246 -0.60662347 0.15500458 83 30
0.48955774 -0.6274792 0.1468146 52 29
0.34860951 -0.58909369 0.10160869 37 28
0.49110243 -0.63053632 0.093305811 57 27
0.34982854 -0.59119302 0.062323779 69 26
0.49785465 -0.63959956 0.053964917 57 25
0.35476303 -0.59960562 0.030861517 71 24
0.49250117 -0.63320893 0.017814284 61 23
0.3537567 -0.5981319 0 54 22
0.49997887 -0.64322418 -0.018104419 60 21
0.3532896 -0.59757566 -0.030745059 25 20
0.49127352 -0.6321038 -0.053003568 62 19
0.35830346 -0.60683507 -0.060132135 24 18
0.49545056 -0.63745427 -0.088419966 65 17
0.3487148 -0.59094006 -0.090483449 12 16
0.48709145 -0.62634665 -0.13225301 67 15
0.35888669 -0.6101765 -0.1925938 18 13
0.48826835 -0.62765485 -0.17413509 67 14
nan nan nan 0 12
0.48953986 -0.62649083 -0.30744278 67 11
0.34440306 -0.59102458 -0.34472173 27 9
0.49583852 -0.63320464 -0.36137536 72 10
0.34618682 -0.59640586 -0.39571944 33 8
0.4126299 -0.52321428 -0.42737705 3 7
0.29587078 -0.51252824 -0.42409468 5 6
0.303581 -0.38333949 -0.38444376 3 5
0.21351101 -0.37190485 -0.37659967 6 4
0.22982903 -0.28893206 -0.35478923 4 3
0.1836279 -0.3222076 -0.39688087 5 2
nan nan nan 0 1
0.084903181 -0.1467765 -0.18951721 3 0
0.49229977 -0.63441473 0.20495684 56 31
0.35652277 -0.60787171 0.15500458 85 30
0.48585513 -0.62724835 0.146341 52 29
0.34282035 -0.58390468 0.10044966 40 28
0.48889846 -0.63224673 0.093305811 56 27
0.34650978 -0.59026033 0.062085904 127 26
0.49102601 -0.63542724 0.053444352 59 25
0.35141054 -0.59868258 0.030745059 74 24
0.49324346 -0.63895726 0.017930338 58 23
0.35292497 -0.60152328 0 58 22
0.49619776 -0.64299148 -0.018046392 59 21
0.35109702 -0.59886652 -0.030745059 36 20
0.49059373 -0.63578457 -0.053176221 61 19
0.35117593 -0.59947211 -0.059237972 30 18
0.49006486 -0.63534176 -0.087851353 66 17
0.35162625 -0.6007176 -0.091859624 20 16
0.48177075 -0.62423772 -0.13139422 67 15
nan nan nan 0 13
0.48607448 -0.62935537 -0.17413509 69 14
0.30422521 -0.52214694 -0.19695002 6 12
0.48438793 -0.62462723 -0.30556813 69 11
0.34453461 -0.59605414 -0.34706682 32 9
0.49212006 -0.63323557 -0.36031249 75 10
0.34718069 -0.60324502 -0.39959905 32 8
0.40942657 -0.52309811 -0.4259758 3 7
0.29693216 -0.51880044 -0.42863855 5 6
0.2997978 -0.38146347 -0.38121316 3 5
0.21214646 -0.3726849 -0.37659967 6 4
0.23843127 -0.30180347 -0.37116411 5 3
0.1872067 -0.33132002 -0.40832934 5 2
nan nan nan 0 1
0.085761771 -0.14962387 -0.19359285 3 0
0.48849142 -0.63430578 0.20431234 54 31
0.35063896 -0.60284638 0.15331362 84 30
0.48205078 -0.62708348 0.14586741 51 29
0.34067795 -0.58515728 0.10044966 61 28
0.47899354 -0.62421435 0.091791108 56 27
0.34434408 -0.59152639 0.062085904 132 26
0.48869374 -0.63722271 0.053444352 57 25
0.34921387 -0.59996659 0.030745059 76 24
0.48795745 -0.63671696 0.017814284 59 23
0.34946758 -0.60064799 0 64 22
0.49078643 -0.64084649 -0.017930338 60 21
0.34900445 -0.60008842 -0.030745059 47 20
0.48673779 -0.63560295 -0.053003568 59 19
0.35022029 -0.60291231 -0.059461512 26 18
0.48784411 -0.63704854 -0.087851353 66 17
0.34447724 -0.59342027 -0.090483449 27 16
0.47958887 -0.62591565 -0.13139422 67 15
nan nan nan 0 13
0.48078743 -0.6272738 -0.17301884 67 14
0.29770258 -0.51500565 -0.19368115 7 12
0.48078474 -0.62448245 -0.30463082 68 11
0.33798245 -0.58963507 -0.34237668 32 9
0.48713031 -0.63137549 -0.35818675 75 10
0.33980182 -0.59514421 -0.39313304 37 8
0.40248924 -0.51800609 -0.42037088 3 7
0.29804307 -0.52503526 -0.43318242 6 6
0.30674437 -0.39298812 -0.39252031 4 5
0.21611579 -0.38289812 -0.3869648 6 4
0.24058323 -0.30665541 -0.37662241 5 3
0.18599109 -0.33200392 -0.40832934 5 2
nan nan nan 0 1
0.08454483 -0.1486513 -0.19155502 3 0
0.48332804 -0.63217849 0.2030233 56 31
0.3509534 -0.60829377 0.15444092 84 30
0.47836357 -0.62681562 0.1453938 51 29
0.33617681 -0.58205706 0.099676974 96 28
0.47681171 -0.62588263 0.091791108 57 27
0.33856452 -0.58624738 0.061372273 129 26
0.48343274 -0.6349653 0.053097311 57 25
0.34960118 -0.60551512 0.030977976 78 24
0.48269308 -0.63444746 0.01769823 60 23
0.34736878 -0.60186416 0 69 22
0.48550901 -0.63858587 -0.017814284 61 21
0.34194332 -0.5926348 -0.030279225 60 20
0.4814851 -0.63333666 -0.052658271 62 19
0.3481136 -0.6041311 -0.059461512 36 18
0.48108956 -0.63282967 -0.086998425 66 17
0.34486118 -0.59891874 -0.09117154 31 16
0.47590387 -0.62563044 -0.13096483 70 15
nan nan nan 0 13
0.47563133 -0.62507904 -0.17190258 68 14
0.29356834 -0.51193351 -0.1920467 7 12
0.48001549 -0.6279937 -0.30556813 71 11
0.33375305 -0.58696473 -0.34003165 32 9
0.48354161 -0.6312803 -0.35712388 75 10
0.33772227 -0.59632677 -0.39313304 70 8
0.39940703 -0.51777399 -0.41896963 3 7
0.3020196 -0.53649563 -0.44227016 6 6
0.31125882 -0.40156314 -0.40059689 4 5
0.21739714 -0.38839683 -0.39214736 6 4
0.23844704 -0.30614913 -0.37480298 5 3
0.18560502 -0.33406892 -0.41023743 5 2
0.17626764 -0.22564371 -0.33012149 4 1
0.081956349 -0.14512523 -0.18544157 3 0
0.47671908 -0.62810349 0.20108974 55 31
0.34642181 -0.60527956 0.15331362 86 30
0.47617266 -0.62848163 0.1453938 51 29
0.33902609 -0.59181583 0.10122235 99 28
0.47462407 -0.62754315 0.091791108 55 27
0.34277049 -0.59818298 0.062561654 118 26
0.47970346 -0.634664 0.052923791 56 25
0.34625116 -0.60456091 0.030861517 80 24
0.47896302 -0.63413876 0.017640203 59 23
0.34526575 -0.60307306 0 71 22
0.48187658 -0.63820237 -0.017756257 61 21
0.33987254 -0.5938248 -0.030279225 67 20
0.47927141 -0.63501346 -0.052658271 60 19
0.34119171 -0.59662032 -0.058567353 50 18
0.47887763 -0.63450509 -0.086998425 66 17
0.3379868 -0.59144342 -0.089795366 28 16
0.47222668 -0.62532711 -0.13053544 70 15
nan nan nan 0 13
0.47503123 -0.62859243 -0.17246072 66 14
nan nan nan 0 12
0.4751156 -0.62589926 -0.3036935 70 11
0.33396113 -0.59192199 -0.34237668 36 9
0.47995943 -0.63116765 -0.35606101 75 10
0.33365995 -0.59370559 -0.39054665 95 8
0.39506558 -0.51588827 -0.41616717 3 7
0.30023885 -0.5374943 -0.44227016 7 6
0.30875286 -0.40108785 -0.39898157 4 5
0.22218269 -0.40021133 -0.40424001 6 4
0.24060996 -0.31098142 -0.38026127 5 3
0.18526545 -0.33610296 -0.4121455 5 2
0.17174937 -0.22148186 -0.32216674 4 1
0.080103733 -0.14284478 -0.18136594 3 0
0.46879327 -0.62198383 0.19851168 54 31
0.34321669 -0.6043033 0.15274997 85 30
0.46667552 -0.62027311 0.14302583 53 29
0.33342075 -0.58648306 0.10006332 97 28
0.46356109 -0.61723644 0.089973465 53 27
0.34068036 -0.59937584 0.062561654 106 26
0.47609288 -0.63426137 0.052750271 56 25
0.34301737 -0.6035307 0.030745059 81 24
0.47685751 -0.63572359 0.017640203 60 23
0.34080797 -0.59985948 0 73 22
0.47814077 -0.63788533 -0.01769823 63 21
0.33912778 -0.5971241 -0.030395683 71 20
0.47566101 -0.63460821 -0.052485619 61 19
0.3403286 -0.59997743 -0.058790892 56 18
0.47377929 -0.63212395 -0.086429812 64 17
0.3371343 -0.59477782 -0.090139411 36 16
0.46866655 -0.62492406 -0.13010605 65 15
nan nan nan 0 13
0.46989691 -0.62635738 -0.17134446 68 14
nan nan nan 0 12
0.46872514 -0.62201494 -0.30088151 70 11
0.32974997 -0.58922291 -0.34003165 32 9
0.47512445 -0.62915343 -0.3539353 75 10
0.33055049 -0.59299409 -0.38925347 92 8
0.39965457 -0.52540827 -0.42317334 3 7
0.30123082 -0.54377031 -0.44681406 7 6
0.30618355 -0.40065387 -0.39736626 4 5
0.22250891 -0.40416074 -0.40769503 6 4
0.23952296 -0.3118194 -0.38026127 5 3
0.18791269 -0.34386286 -0.42168593 5 2
0.17941824 -0.23278613 -0.34006488 4 1
0.075518586 -0.13545497 -0.16913901 3 0
0.47097933 -0.62940449 0.20044522 56 31
0.3434824 -0.60974944 0.15387727 85 30
0.46745801 -0.62582231 0.14397302 51 29
0.33378378 -0.59195429 0.10083601 95 28
0.46438298 -0.62282032 0.090579346 49 27
0.33858606 -0.60056138 0.062561654 98 26
0.47088322 -0.63192904 0.05240323 48 25
0.33968911 -0.60254514 0.030628601 83 24
0.47152716 -0.6334666 0.017524149 59 23
0.33505076 -0.59449977 0 77 22
0.4759112 -0.63955045 -0.01769823 60 21
0.33328199 -0.59182322 -0.030046308 74 20
0.46746284 -0.62827969 -0.051795021 62 19
0.34066021 -0.6055097 -0.059237972 64 18
0.4684822 -0.62987953 -0.085861191 67 17
0.33505607 -0.59595102 -0.090139411 50 16
0.46341959 -0.62269557 -0.12924726 66 15
0.31672624 -0.56510061 -0.17539792 5 13
0.46624589 -0.62604409 -0.17078634 67 14
nan nan nan 0 12
0.46644223 -0.62372875 -0.30088151 70 11
0.33195007 -0.59810758 -0.34472173 28 9
0.47145221 -0.62908429 -0.35287243 75 10
0.33043107 -0.59795427 -0.39183986 96 8
0.39647183 -0.52522242 -0.42177209 3 7
0.30113631 -0.54836529 -0.44984332 7 6
0.3070367 -0.40480056 -0.40059689 4 5
0.22188255 -0.40656483 -0.40942255 6 4
0.24362922 -0.31947178 -0.3893584 5 3
0.18595189 -0.34309098 -0.41977787 5 2
0.18136509 -0.23702116 -0.34603095 5 1
0.080432147 -0.14597549 -0.18544157 3 0
0.46722299 -0.62919182 0.19980071 53 31
0.33652195 -0.60248327 0.15162265 86 30
0.45928895 -0.61966193 0.14207864 52 29
0.33400834 -0.59749341 0.10160869 93 28
0.46061474 -0.62252796 0.090276405 46 27
0.33517534 -0.59962213 0.062323779 91 26
0.45814049 -0.61964619 0.051188588 37 25
0.3374784 -0.60378611 0.030628601 77 24
0.4708046 -0.63711417 0.017582176 58 23
0.33408195 -0.59791017 0 79 22
0.47058216 -0.63727844 -0.017582176 60 21
0.3348462 -0.59953547 -0.030395683 77 20
0.46664461 -0.63199061 -0.051967669 62 19
0.33602658 -0.60239744 -0.058790892 70 18
0.46628064 -0.63151109 -0.085861191 67 17
0.33167094 -0.59500825 -0.089795366 60 16
0.46124309 -0.62430936 -0.12924726 69 15
0.31939363 -0.57462198 -0.17814925 8 13
0.46394819 -0.62774873 -0.17078634 67 14
nan nan nan 0 12
0.46148676 -0.62164044 -0.29900685 70 11
0.32764044 -0.59544384 -0.34237668 30 9
0.46653998 -0.62710428 -0.35074669 76 10
0.32629871 -0.59534425 -0.38925347 98 8
0.39463603 -0.52660316 -0.42177209 3 7
0.3020528 -0.55466485 -0.45438719 7 6
0.30793488 -0.40890509 -0.40382749 4 5
0.2221638 -0.41052535 -0.41287759 6 4
0.23937635 -0.31624332 -0.38390011 5 3
0.1816767 -0.3380563 -0.4121455 5 2
0.18146621 -0.23884906 -0.34801963 5 1
0.083953157 -0.15395297 -0.19766848 3 0
0.46070537 -0.62499988 0.19786716 54 31
0.33559024 -0.60578871 0.15218632 86 30
0.45566198 -0.61928886 0.14160505 52 29
0.33073002 -0.59649163 0.10122235 92 28
0.45106187 -0.61415523 0.088761695 40 27
0.33318508 -0.6007303 0.062323779 81 26
0.46634921 -0.6352824 0.05240323 21 25
0.33296105 -0.60058445 0.030395683 81 24
0.46560872 -0.63473231 0.017466122 58 23
0.32837853 -0.59250104 0 77 22
0.4669821 -0.63682449 -0.017524149 60 21
0.33154833 -0.59851229 -0.030279225 78 20
0.462955 -0.63160866 -0.051795021 62 19
0.33522591 -0.60569078 -0.059014432 72 18
0.46407342 -0.63313484 -0.085861191 68 17
0.33088744 -0.5982756 -0.090139411 68 16
0.45613533 -0.62195301 -0.12838848 68 15
0.31162027 -0.56518918 -0.17471008 10 13
0.45751947 -0.62340397 -0.16911197 69 14
nan nan nan 0 12
0.45527831 -0.61758482 -0.29619488 70 11
0.32671523 -0.59846872 -0.34354922 49 9
0.46029687 -0.62328196 -0.34755808 78 10
0.32533798 -0.5983063 -0.39054665 98 8
0.39279544 -0.52797747 -0.42177209 3 7
0.30490357 -0.56443179 -0.46196029 9 6
0.31118321 -0.41600978 -0.41028875 4 5
0.22080123 -0.41125983 -0.41287759 6 4
0.24144903 -0.32112268 -0.3893584 5 3
0.18280278 -0.34294987 -0.41786978 5 2
0.18530118 -0.24544615 -0.35796306 5 1
0.08477734 -0.15680082 -0.20174412 3 0
0.4557642 -0.6226353 0.19657812 55 31
0.33008063 -0.60048342 0.15049534 86 30
0.45069659 -0.61684185 0.14065786 54 29
0.32756665 -0.59541714 0.10083601 88 28
0.46077305 -0.63164949 0.091185227 33 27
0.32989371 -0.59970534 0.062085904 82 26
0.46423995 -0.63682538 0.05240323 9 25
0.32977104 -0.59949338 0.030279225 83 24
0.46202344 -0.63425726 0.017408095 58 23
0.3264119 -0.59358674 0 80 22
0.46032482 -0.63240248 -0.017350068 63 21
0.32597432 -0.59303135 -0.02992985 76 20
0.45790985 -0.62911677 -0.05144972 64 19
0.32953611 -0.60029751 -0.058343813 74 18
0.46050334 -0.63266671 -0.085576884 69 17
0.3264294 -0.59507716 -0.08945132 73 16
0.45407036 -0.62346214 -0.12838848 69 15
0.31891328 -0.58312064 -0.18021277 17 13
0.45534059 -0.62499726 -0.16911197 69 14
0.28287321 -0.5179199 -0.1920467 3 12
0.45036975 -0.61543888 -0.29432023 71 11
0.3173134 -0.5859881 -0.33534157 88 9
0.45553869 -0.62116468 -0.34543234 80 10
0.32022133 -0.59377784 -0.38666704 99 8
0.39351708 -0.53259712 -0.42457455 3 7
0.29920256 -0.55846488 -0.4559018 12 6
0.31316772 -0.42166987 -0.41513467 4 5
0.22524449 -0.42322811 -0.42497027 7 4
0.24032663 -0.32196352 -0.3893584 5 3
0.18086018 -0.3421523 -0.41596171 5 2
0.18905038 -0.25210422 -0.36790645 5 1
0.088871144 -0.16610815 -0.21600886 3 0
0.45216173 -0.62227291 0.1959336 56 31
0.33030018 -0.60591662 0.15162265 86 30
0.44854069 -0.6184113 0.14065786 53 29
0.32431033 -0.59438479 0.10044966 88 28
0.44687101 -0.61721122 0.088761695 24 27
0.32661352 -0.5986647 0.061848026 82 26
0.46348256 -0.64045787 0.052576751 5 25
0.32767642 -0.60064083 0.030279225 79 24
0.45234326 -0.62584162 0.01711796 55 23
0.32195824 -0.59032512 0 79 22
0.45958468 -0.63602668 -0.017408095 60 21
0.32617408 -0.59861559 -0.030162767 79 20
0.45131004 -0.62466049 -0.05093177 60 19
0.32743865 -0.60144413 -0.058343813 77 18
0.45379952 -0.62832361 -0.084723957 64 17
0.32552645 -0.59839201 -0.089795366 76 16
0.45033318 -0.62313074 -0.12795909 70 15
0.31108207 -0.57370138 -0.17677359 23 13
0.45172173 -0.62461287 -0.16855384 68 14
0.28097302 -0.51895314 -0.1920467 4 12
0.44947916 -0.61895615 -0.29525754 71 11
0.31526598 -0.58709216 -0.33534157 84 9
0.45325899 -0.62283015 -0.34543234 78 10
0.32004648 -0.59872854 -0.38925347 99 8
0.39156237 -0.53403586 -0.42457455 3 7
0.29993102 -0.56483883 -0.46044567 21 6
0.31504187 -0.42740384 -0.41998059 4 5
0.2253601 -0.42725703 -0.42842531 6 4
0.24533172 -0.33106124 -0.40027502 5 3
0.17596795 -0.33560067 -0.40642127 5 2
0.19454412 -0.26123688 -0.38182727 5 1
0.087603368 -0.16514286 -0.21397103 3 0
0.44845885 -0.62197131 0.19528909 56 31
0.32577527 -0.60282999 0.15049534 86 30
0.4477115 -0.6220389 0.14113146 50 29
0.32096168 -0.59339309 0.10006332 89 28
0.45769572 -0.63694125 0.091488168 9 27
0.32559386 -0.6020506 0.062085904 82 26
nan nan nan 0 25
0.32311103 -0.5974369 0.030046308 82 24
0.45015591 -0.62741673 0.01711796 57 23
0.31742892 -0.58709502 0 81 22
0.45432502 -0.6336537 -0.017292041 62 21
0.31936219 -0.59094703 -0.029696934 78 20
0.44901752 -0.62631041 -0.05093177 64 19
0.32170558 -0.59605509 -0.057673197 79 18
0.45451075 -0.63393176 -0.085292578 69 17
0.32216278 -0.5973978 -0.08945132 80 16
0.44527119 -0.62070584 -0.1271003 68 15
0.31360149 -0.58326703 -0.17952493 27 13
0.44800216 -0.6242891 -0.16799572 68 14
0.29580328 -0.5512194 -0.20430502 5 12
0.44323105 -0.61489493 -0.29244557 72 11
0.31105116 -0.58433819 -0.33299652 91 9
0.44841951 -0.62074906 -0.3433066 74 10
0.31297857 -0.59037215 -0.38278747 100 8
0.38969585 -0.53539938 -0.42457455 4 7
0.29519868 -0.56059158 -0.4559018 38 6
0.313548 -0.42850089 -0.41998059 4 5
0.22303876 -0.42643508 -0.42669779 6 4
0.24622726 -0.33466247 -0.40391389 5 3
0.17620489 -0.3391211 -0.41023743 5 2
0.20275894 -0.2740055 -0.40171409 5 1
0.088334091 -0.16803201 -0.21804667 3 0
0.44628504 -0.62353289 0.19528909 54 31
0.32252553 -0.60181296 0.14993168 86 30
0.44267049 -0.61961246 0.14018427 50 29
0.3154074 -0.58796853 0.098904282 88 28
0.4540222 -0.63651925 0.091185227 5 27
0.32232121 -0.60098654 0.061848026 82 26
nan nan nan 0 25
0.31985041 -0.59635651 0.02992985 81 24
0.44505036 -0.62492186 0.017001905 56 23
0.31772578 -0.59261388 0 79 22
0.45211041 -0.63523573 -0.017292041 61 21
0.31964228 -0.59646815 -0.02992985 76 20
0.44392344 -0.62381917 -0.050586466 61 19
0.31728736 -0.59277618 -0.057226118 82 18
0.44940197 -0.63147634 -0.084723957 69 17
0.32007551 -0.59851873 -0.08945132 79 16
0.44310176 -0.6222564 -0.1271003 68 15
0.30931646 -0.58010858 -0.17814925 31 13
0.44439998 -0.62386888 -0.16743758 69 14
0.29938877 -0.56269741 -0.20839112 6 12
0.44514716 -0.62207907 -0.29525754 71 11
0.30696228 -0.58150762 -0.33065146 92 9
0.44624996 -0.62231052 -0.3433066 77 10
0.31190443 -0.59335852 -0.38408065 99 8
0.38660499 -0.53508341 -0.42317334 4 7
0.29780737 -0.57045251 -0.4634749 102 6
0.31318027 -0.43113038 -0.4215959 4 5
0.22401768 -0.43203762 -0.43188035 7 4
0.25118676 -0.34378192 -0.41483048 5 3
0.17283289 -0.33540982 -0.40451318 5 2
0.20997828 -0.28562221 -0.41961223 5 1
0.087747015 -0.16833934 -0.21804667 3 0
0.43988949 -0.61919338 0.19335553 56 31
0.3215588 -0.60508966 0.15049534 87 30
0.43622535 -0.61516076 0.13876347 51 29
0.31450582 -0.59125036 0.099290624 90 28
nan nan nan 0 27
0.31567919 -0.59324884 0.06089652 83 26
nan nan nan 0 25
0.31893229 -0.5996781 0.030046308 80 24
0.44286627 -0.62647158 0.017001905 54 23
0.31098983 -0.58487433 0 82 22
0.44855249 -0.63469499 -0.017234014 62 21
0.31406417 -0.59095311 -0.029580474 78 20
0.43885228 -0.6213001 -0.050241169 62 19
0.31299883 -0.58941907 -0.056779038 81 18
0.44143686 -0.62494475 -0.083586723 66 17
0.31578231 -0.5951944 -0.088763237 81 16
0.43949893 -0.62179273 -0.12667091 68 15
0.30840576 -0.58331347 -0.17883709 32 13
0.44091496 -0.62335426 -0.16687946 66 14
0.29851773 -0.56583267 -0.20920832 9 12
0.43633774 -0.61412823 -0.29057091 73 11
0.30299795 -0.57860285 -0.32830644 94 9
0.43748233 -0.61466956 -0.33799225 76 10
0.30797049 -0.59058809 -0.38149425 99 8
0.37987998 -0.52972031 -0.41756839 4 7
0.29137602 -0.56258798 -0.4559018 115 6
0.31174883 -0.43216652 -0.4215959 5 5
0.22258377 -0.43277809 -0.43188035 7 4
0.24699447 -0.34047186 -0.40937218 5 3
0.17461678 -0.34175643 -0.4121455 5 2
0.21626627 -0.29603937 -0.43552172 4 1
0.085253149 -0.16473958 -0.21193321 3 0
0.43643486 -0.61867952 0.19271101 56 31
0.3172929 -0.60183614 0.14936803 86 30
0.42992339 -0.61059678 0.13734268 54 29
0.31254339 -0.5922901 0.099290624 88 28
nan nan nan 0 27
0.31245232 -0.59214234 0.060658641 83 26
nan nan nan 0 25
0.3134675 -0.59409493 0.029696934 82 24
0.43934393 -0.62589568 0.016943878 53 23
0.31368464 -0.5947628 0 79 22
0.44345069 -0.63217372 -0.01711796 61 21
0.31210274 -0.59199142 -0.029580474 78 20
0.43678954 -0.62275195 -0.050241169 60 19
0.3120923 -0.59271508 -0.057002578 81 18
0.43792927 -0.62437636 -0.083302408 66 17
0.31370279 -0.59629303 -0.088763237 81 16
0.43459171 -0.61922419 -0.12581211 70 15
0.30757877 -0.5864653 -0.17952493 32 13
0.4359228 -0.62090987 -0.16576321 68 14
0.28140733 -0.5374583 -0.19776724 18 12
0.43016464 -0.60997933 -0.28775895 73 11
0.30198669 -0.58162028 -0.32947895 93 9
0.44069129 -0.62349027 -0.34224373 79 10
0.30298012 -0.5859471 -0.37761462 96 8
0.38174573 -0.53602117 -0.42177209 5 7
0.29391754 -0.57246637 -0.4634749 111 6
0.3113578 -0.43479735 -0.42321122 5 5
0.22594355 -0.44323897 -0.44224548 7 4
0.24580449 -0.34133193 -0.40937218 5 3
0.17054585 -0.33657849 -0.40451318 5 2
0.21163042 -0.29191867 -0.42756695 4 1
0.085958622 -0.16763386 -0.21600886 3 0
0.43427265 -0.6201992 0.19271101 56 31
0.31294766 -0.59861565 0.14824073 87 30
0.43061516 -0.61610848 0.13828987 54 29
0.31161183 -0.59556979 0.099676974 88 28
nan nan nan 0 27
0.31038341 -0.59322935 0.060658641 87 26
0.36912176 -0.53006005 0.042512555 3 25
0.31369263 -0.59961855 0.02992985 80 24
0.43715644 -0.62742543 0.016943878 51 23
0.31045535 -0.59363496 0 78 22
0.43693739 -0.62757802 -0.016943878 58 21
0.30658549 -0.58642644 -0.029231099 81 20
0.43318149 -0.62223053 -0.050068516 58 19
0.31116658 -0.59601194 -0.057226118 79 18
0.43432143 -0.62386733 -0.083018102 68 17
0.3116194 -0.59738445 -0.088763237 81 16
0.43101317 -0.61872125 -0.12538272 68 15
0.30112326 -0.57899064 -0.17677359 38 13
0.42955321 -0.61644346 -0.16408883 66 14
0.28169098 -0.54263943 -0.19940171 18 12
0.42402592 -0.60579497 -0.28494698 74 11
0.29995465 -0.58267087 -0.32947895 92 9
0.43590027 -0.62132895 -0.34011799 79 10
0.30190194 -0.58890861 -0.37890783 99 8
0.37386093 -0.52892274 -0.41476592 4 7
0.28833658 -0.56638455 -0.45741642 75 6
0.30872416 -0.43433243 -0.4215959 5 5
0.22439498 -0.44402498 -0.44224548 7 4
0.24360424 -0.34080043 -0.40755275 5 3
0.17436922 -0.34731376 -0.41786978 5 2
0.21777841 -0.30242831 -0.44347647 5 1
0.086644918 -0.17053504 -0.22008449 3 0
0.4278422 -0.61584932 0.19077747 57 31
0.3107515 -0.59975868 0.14824073 90 30
0.42273203 -0.60963249 0.1363955 52 29
0.30603755 -0.59011859 0.098517939 90 28
nan nan nan 0 27
0.30820706 -0.59436303 0.060658641 82 26
0.37287843 -0.53959507 0.043206636 4 25
0.31149283 -0.60076427 0.02992985 80 24
0.43057039 -0.62286955 0.016769798 49 23
0.3048481 -0.58809882 0 79 22
0.43463427 -0.62917525 -0.016943878 53 21
0.30671707 -0.59198844 -0.029464016 80 20
0.42947391 -0.62176663 -0.049895868 61 19
0.30784297 -0.59493315 -0.057002578 81 18
0.42919543 -0.62137693 -0.082449488 66 17
0.30490798 -0.58970904 -0.087387063 82 16
0.42311457 -0.61221129 -0.12366515 65 15
0.29790536 -0.57795024 -0.17608576 41 13
0.42729095 -0.6180138 -0.16408883 69 14
0.27218923 -0.52893347 -0.19368115 35 12
0.42180273 -0.60734504 -0.28494698 73 11
0.29682079 -0.58179593 -0.32830644 93 9
0.42972246 -0.61736441 -0.33692938 75 10
0.29685545 -0.58427799 -0.37502822 96 8
0.3731159 -0.53197932 -0.41616717 4 7
0.29070228 -0.5763343 -0.46498954 49 6
0.31045511 -0.44012061 -0.42644182 5 5
0.22516723 -0.44970503 -0.44742805 7 4
0.24435791 -0.34447327 -0.41119161 5 3
0.17167732 -0.34504756 -0.41405359 5 2
0.21756004 -0.30444932 -0.44546515 5 1
0.08412566 -0.16694127 -0.21397103 3 0
0.42431203 -0.61535507 0.19013295 57 31
0.30533883 -0.59432924 0.14654978 88 30
0.4206014 -0.61110437 0.1363955 54 29
0.30173159 -0.58678252 0.097745247 89 28
nan nan nan 0 27
0.30386925 -0.59100115 0.060182888 84 26
0.36106426 -0.5265336 0.04199199 4 25
0.30712482 -0.59739852 0.029696934 82 24
0.42413157 -0.61819983 0.016595718 42 23
0.30052266 -0.58470476 0 81 22
0.43101549 -0.62863177 -0.016885852 56 21
0.30464879 -0.59305549 -0.029464016 78 20
0.42871785 -0.62531441 -0.050068516 58 19
0.30576438 -0.59600407 -0.057002578 82 18
0.42561269 -0.62082726 -0.082165174 64 17
0.30396992 -0.59297711 -0.087731108 83 16
0.42517477 -0.61976331 -0.12495333 64 15
0.29588613 -0.57898653 -0.17608576 66 13
0.42790216 -0.62351102 -0.16520509 68 14
0.2735382 -0.53620648 -0.19613281 37 12
0.41703606 -0.60500664 -0.28307232 75 11
0.29280949 -0.57888061 -0.32596138 93 9
0.42368668 -0.61328906 -0.33374077 75 10
0.29290348 -0.58148187 -0.37244183 97 8
0.36530566 -0.52480799 -0.40916094 4 7
0.2895712 -0.57912803 -0.46650416 54 6
0.31332839 -0.44742987 -0.43290305 6 5
0.22756979 -0.45860314 -0.45606562 7 4
0.24115932 -0.3425349 -0.40755275 5 3
0.17328702 -0.35146043 -0.42168593 5 2
0.2209323 -0.31134671 -0.45540854 4 1
0.086675711 -0.17376192 -0.22416015 3 0
0.42079049 -0.61484367 0.18948841 57 31
0.30436054 -0.59756547 0.14711343 90 30
0.41150856 -0.60245752 0.13402753 56 29
0.29856703 -0.58562791 0.097358905 90 28
nan nan nan 0 27
0.3007845 -0.5897848 0.059945013 86 26
0.36063531 -0.52984709 0.04216551 4 25
0.30165741 -0.59178102 0.029347558 83 24
0.41914412 -0.61555409 0.016479664 31 23
0.2996074 -0.58798152 0 80 22
0.42468914 -0.62387323 -0.016711771 55 21
0.30257678 -0.59411526 -0.029464016 78 20
0.42371297 -0.62269241 -0.049723219 54 19
0.30154249 -0.59256899 -0.056555498 81 18
0.42344299 -0.62230921 -0.082165174 62 17
0.30088693 -0.59177083 -0.087387063 83 16
0.4174374 -0.61311907 -0.12323576 63 15
0.29709971 -0.58645922 -0.17814925 76 13
0.4216955 -0.61889857 -0.16353071 67 14
0.28118926 -0.55616963 -0.2034878 37 12
0.4150275 -0.60638618 -0.28307232 74 11
0.28990546 -0.5778712 -0.32478887 94 9
0.4228296 -0.61662596 -0.33480364 77 10
0.29287156 -0.58628511 -0.37502822 96 8
0.36584008 -0.52947646 -0.41196343 3 7
0.28501943 -0.57472897 -0.46196029 66 6
0.31294063 -0.4500272 -0.4345184 6 5
0.22446905 -0.45610407 -0.45261058 7 4
0.24300022 -0.34752646 -0.41301104 5 3
0.17281955 -0.35348943 -0.42359403 5 2
0.2207818 -0.31330854 -0.45739722 4 1
0.087965995 -0.17797139 -0.2302736 3 0
0.41874927 -0.61623561 0.18948841 59 31
0.30237725 -0.59857148 0.14711343 89 30
0.40950847 -0.60381877 0.13402753 52 29
0.29773051 -0.58882272 0.097745247 91 28
0.37553468 -0.55508322 0.077552885 4 27
0.29872394 -0.59083116 0.059945013 85 26
0.35045025 -0.51867414 0.041124389 4 25
0.29857397 -0.59054565 0.029231099 83 24
nan nan nan 0 23
0.29541561 -0.58450186 0 82 22
0.42391473 -0.62741822 -0.016769798 51 21
0.2994864 -0.59288263 -0.029347558 79 20
0.4216457 -0.62409401 -0.049723219 56 19
0.29835808 -0.59139109 -0.056331962 81 18
0.42137703 -0.62370992 -0.082165174 62 17
0.29992664 -0.59503245 -0.087731108 82 16
0.41678804 -0.61653578 -0.12366515 61 15
0.29300994 -0.58313847 -0.17677359 84 13
0.41678888 -0.61633873 -0.16241446 63 14
0.27934337 -0.55709904 -0.2034878 38 12
0.41029015 -0.60400611 -0.28119767 74 11
0.28788653 -0.57887965 -0.32478887 93 9
0.41822237 -0.6142928 -0.3326779 75 10
0.28988093 -0.58538294 -0.37373504 97 8
0.36408228 -0.53068668 -0.41196343 3 7
0.28388187 -0.57750881 -0.4634749 69 6
0.31464458 -0.45581046 -0.43936431 6 5
0.22444291 -0.46014154 -0.45606562 8 4
0.24079783 -0.34697121 -0.41119161 5 3
0.16950294 -0.34971449 -0.41786978 5 2
0.22320235 -0.31901321 -0.46535197 4 1
0.089815259 -0.1835167 -0.23842487 3 0
0.4125236 -0.61169946 0.18755485 58 31
0.30028602 -0.59962332 0.14711343 88 30
0.40464297 -0.60118115 0.13308033 55 29
0.2934745 -0.58543479 0.096972562 93 28
0.37915844 -0.56461132 0.078764647 4 27
0.29887518 -0.59632742 0.060420766 83 26
0.37099177 -0.55294842 0.043900721 3 25
0.29873386 -0.59605688 0.029464016 82 24
0.39105266 -0.5832572 0.015493204 20 23
0.29448587 -0.58776832 0 82 22
0.41752601 -0.62268019 -0.016595718 46 21
0.29620096 -0.59173942 -0.029231099 78 20
0.41388178 -0.61729443 -0.049032617 51 19
0.29518554 -0.59019828 -0.056108423 82 18
0.41630894 -0.62113285 -0.081596561 60 17
0.29564884 -0.59163827 -0.087043017 86 16
0.40901101 -0.60989583 -0.12194758 61 15
0.29299825 -0.58851904 -0.17814925 89 13
0.41327009 -0.61577088 -0.16185632 64 14
0.28043014 -0.56447828 -0.20593946 37 12
0.4106777 -0.60934055 -0.28307232 73 11
0.28683311 -0.58186507 -0.32596138 94 9
0.41724122 -0.61769217 -0.33374077 77 10
0.28586301 -0.58259284 -0.37114862 97 8
0.3586176 -0.52689815 -0.40775973 3 7
0.28089949 -0.5767538 -0.46196029 73 6
0.31514487 -0.46009764 -0.44259495 6 5
0.2235326 -0.4625923 -0.45779315 8 4
0.23755914 -0.34504145 -0.40755275 5 3
0.1682812 -0.35030401 -0.41786978 5 2
0.22290599 -0.32106632 -0.46734065 4 1
0.08852908 -0.18253258 -0.23638706 3 0
0.41297889 -0.61721331 0.18884389 59 31
0.29808626 -0.60071987 0.14711343 88 30
0.40243685 -0.60266024 0.13308033 55 29
0.29460067 -0.59315395 0.098131597 90 28
0.37570313 -0.56393695 0.078461707 4 27
0.29118982 -0.58625591 0.059231382 86 26
0.35923573 -0.53980756 0.042686075 3 25
0.29654723 -0.5971477 0.029464016 81 24
0.36535352 -0.54932791 0.014506746 25 23
0.28901717 -0.58211488 0 81 22
0.41245881 -0.62005353 -0.016479664 41 21
0.29192847 -0.58828837 -0.028998183 79 20
0.40745205 -0.61259115 -0.048514668 52 19
0.29082403 -0.58680677 -0.055661343 82 18
0.41275579 -0.62051874 -0.081312254 59 17
0.29238707 -0.59049517 -0.086698979 85 16
0.4068796 -0.6113199 -0.12194758 58 15
0.28671706 -0.58090234 -0.17539792 92 13
0.41101038 -0.6172815 -0.16185632 63 14
0.27845803 -0.56545371 -0.20593946 38 12
0.40207154 -0.60116106 -0.2783857 73 11
0.28085181 -0.57496226 -0.3212713 96 9
0.41381589 -0.61726975 -0.3326779 75 10
0.28197062 -0.579732 -0.36856222 97 8
0.36144191 -0.53498906 -0.41336468 4 7
0.27974206 -0.57952541 -0.4634749 79 6
0.31029385 -0.456478 -0.43774903 6 5
0.2234605 -0.46663755 -0.46124819 8 4
0.24026436 -0.35150224 -0.41483048 5 3
0.16289556 -0.34213677 -0.40642127 5 2
0.22439399 -0.32556316 -0.47330669 4 1
0.087891385 -0.18284047 -0.23638706 3 0
0.40544984 -0.61062032 0.18626583 58 31
0.29171672 -0.59300023 0.14485882 89 30
0.39760458 -0.59997827 0.13213314 58 29
0.29036129 -0.58973944 0.097358905 90 28
0.37648466 -0.5693751 0.079067588 6 27
0.29033628 -0.58945453 0.05946926 85 26
0.36426088 -0.55143738 0.04355368 4 25
0.29446095 -0.59817928 0.029464016 80 24
0.35097277 -0.53187287 0.013984502 28 23
0.28698343 -0.58312023 0 82 22
0.41178456 -0.62349892 -0.016537691 28 21
0.29096794 -0.59154838 -0.029114641 81 20
0.40945393 -0.62024027 -0.049032617 44 19
0.291058 -0.59224463 -0.056108423 83 18
0.40783679 -0.61781907 -0.080743633 54 17
0.29151124 -0.59368783 -0.087043017 84 16
0.40337884 -0.610686 -0.12151819 54 15
0.28783381 -0.58838761 -0.17746142 92 13
0.40761051 -0.61661273 -0.1612982 61 14
0.27648255 -0.56642228 -0.20593946 33 12
0.39878684 -0.60056496 -0.27744839 74 11
0.28085378 -0.57987183 -0.32361633 95 9
0.4091385 -0.61495149 -0.33055216 76 10
0.27912453 -0.57873327 -0.36726904 95 8
0.35493046 -0.52938896 -0.40775973 4 7
0.27867031 -0.58224732 -0.46498954 77 6
0.31308162 -0.463808 -0.44421026 6 5
0.22114529 -0.46573955 -0.45952067 8 4
0.23715122 -0.34947377 -0.41119161 5 3
0.16108152 -0.34120917 -0.40451318 5 2
0.22331315 -0.32630545 -0.47330669 5 1
0.088492587 -0.18576339 -0.24046269 4 0
0.40342268 -0.61196154 0.18626583 60 31
0.29080912 -0.59615701 0.14542247 88 30
0.39832535 -0.60538548 0.13308033 56 29
0.28625169 -0.58625269 0.096586213 91 28
0.37048653 -0.56441164 0.078158766 6 27
0.28719261 -0.58822435 0.059231382 86 26
0.3665565 -0.55888349 0.044074241 4 25
0.2881234 -0.59016126 0.028998183 84 24
0.35747299 -0.54554594 0.014332665 23 23
0.28287044 -0.57956785 0 84 22
0.4137364 -0.63119 -0.016711771 18 21
0.28574282 -0.58576548 -0.028765265 82 20
0.40189889 -0.61326897 -0.048342019 41 19
0.28682303 -0.58877271 -0.055661343 82 18
0.40304911 -0.61502248 -0.08017502 52 17
0.2862086 -0.58801138 -0.086010888 85 16
0.39592138 -0.60380065 -0.11980062 52 15
0.28275636 -0.5828405 -0.17539792 94 13
0.40276843 -0.61396575 -0.16018195 61 14
0.27766752 -0.57372707 -0.20839112 38 12
0.39797026 -0.60388398 -0.2783857 74 11
0.27598357 -0.57486653 -0.32009879 93 9
0.40709701 -0.61630487 -0.33055216 75 10
0.27710265 -0.57970411 -0.36726904 96 8
0.35548249 -0.53399992 -0.41056219 6 7
0.27494562 -0.57961571 -0.46196029 80 6
0.31146067 -0.46489805 -0.44421026 6 5
0.22408336 -0.47634348 -0.46988583 9 4
0.23883441 -0.35454455 -0.41664991 5 3
0.16190985 -0.34617403 -0.41023743 5 2
0.22217278 -0.32708299 -0.47330669 5 1
0.087244213 -0.18475282 -0.23842487 4 0
0.39862543 -0.60933244 0.18497679 59 31
0.29083192 -0.60156119 0.14654978 89 30
0.39216235 -0.60062003 0.13165954 58 29
0.28527197 -0.58947527 0.096972562 91 28
0.38213488 -0.58644497 0.081188172 7 27
0.28513753 -0.58922327 0.059231382 87 26
0.3673397 -0.56433004 0.044421282 5 25
0.28714186 -0.59341502 0.029114641 82 24
0.35547107 -0.54685253 0.014332665 21 23
0.27868363 -0.57604325 0 87 22
0.41016096 -0.63053977 -0.016653745 8 21
0.28467301 -0.58906102 -0.028881723 82 20
0.39702225 -0.61049575 -0.047996718 30 19
0.2879914 -0.59650809 -0.056331962 80 18
0.39943147 -0.61441773 -0.079890713 49 17
0.28629109 -0.59347457 -0.086698979 83 16
0.39505565 -0.60730761 -0.12023001 48 15
0.27958468 -0.58170301 -0.17471008 95 13
0.40062284 -0.61536795 -0.16018195 57 14
0.27556282 -0.57474095 -0.20839112 60 12
0.39447913 -0.60340321 -0.27744839 77 11
0.27585751 -0.57982111 -0.32244381 95 9
0.4010945 -0.61212814 -0.32736358 75 10
0.27497607 -0.58071584 -0.36726904 96 8
0.351226 -0.53185391 -0.40775973 7 7
0.27365804 -0.58242297 -0.4634749 81 6
0.31294814 -0.47078711 -0.44905618 5 5
0.2208263 -0.47387779 -0.46643078 9 4
0.23657033 -0.35399896 -0.41483048 5 3
0.1613688 -0.34820768 -0.4121455 5 2
0.22097246 -0.3278951 -0.47330669 4 1
0.088350184 -0.1890329 -0.24453832 4 0
0.39374557 -0.60674596 0.18368775 61 31
0.28653568 -0.59822267 0.14542247 90 30
0.38727507 -0.59794199 0.13071236 59 29
0.28204927 -0.58828604 0.096586213 91 28
0.3786284 -0.58576226 0.080885231 8 27
0.2808395 -0.585769 0.058755629 87 26
0.37207136 -0.5761236 0.045288883 6 25
0.282821 -0.58995241 0.028881723 85 24
0.34947196 -0.54180455 0.014158584 18 23
0.27764317 -0.57931894 0 86 22
0.40103737 -0.62156063 -0.01636361 6 21
0.2772592 -0.57877165 -0.028299429 86 20
0.39614111 -0.61403799 -0.048169367 21 19
0.28260258 -0.59081006 -0.055661343 82 18
0.39728433 -0.61580825 -0.079890713 42 17
0.27987325 -0.5855689 -0.085322805 86 16
0.39293334 -0.60868293 -0.12023001 40 15
0.27447438 -0.57615483 -0.17264658 95 13
0.39969373 -0.61887473 -0.16074008 55 14
0.27355495 -0.57569933 -0.20839112 73 12
0.39237046 -0.6047765 -0.27744839 77 11
0.27186286 -0.57682669 -0.32009879 96 9
0.40019572 -0.61541706 -0.32842645 73 10
0.27024284 -0.57585108 -0.36338943 97 8
0.35393709 -0.53998345 -0.41336468 8 7
0.26995862 -0.57976192 -0.46044567 79 6
0.308126 -0.46711487 -0.44421026 5 5
0.22216725 -0.48122385 -0.47334087 10 4
0.23820727 -0.35908836 -0.42028877 5 3
0.16208026 -0.35321584 -0.41786978 5 2
0.22067918 -0.32991669 -0.47529536 4 1
0.087689802 -0.18934016 -0.24453832 4 0
0.3929401 -0.61014301 0.18433227 60 31
0.28237167 -0.59481162 0.14429517 90 30
0.38518551 -0.59929019 0.13071236 57 29
0.27683672 -0.5825634 0.095427185 91 28
0.3765814 -0.58708042 0.080885231 10 27
0.27667227 -0.58224285 0.058279876 89 26
0.37682408 -0.58789349 0.046156485 6 25
0.28182402 -0.59319526 0.028998183 83 24
0.35435542 -0.55352062 0.014448719 9 23
0.27668417 -0.58254653 0 84 22
nan nan nan 0 21
0.27842709 -0.58651483 -0.028648807 82 20
0.39805061 -0.62170476 -0.048687316 9 19
0.27736151 -0.58503228 -0.054990724 84 18
0.4032096 -0.62971514 -0.081596561 33 17
0.27887991 -0.58878368 -0.08566685 86 16
0.39080626 -0.61005074 -0.12023001 33 15
0.27246156 -0.57710946 -0.17264658 95 13
0.39488727 -0.61617178 -0.15962383 52 14
0.27154368 -0.57665074 -0.20839112 83 12
0.38899544 -0.60419828 -0.27651104 77 11
0.26892087 -0.57576805 -0.31892624 96 9
0.39927882 -0.61870718 -0.32948929 72 10
0.26823109 -0.57679093 -0.36338943 96 8
0.35318643 -0.54294622 -0.41476592 8 7
0.26793319 -0.58070076 -0.46044567 76 6
0.30333334 -0.46341479 -0.43936431 5 5
0.21751264 -0.47540787 -0.46643078 11 4
0.23504627 -0.35706717 -0.41664991 5 3
0.16150409 -0.35525477 -0.41977787 5 2
0.22207098 -0.33445069 -0.4812614 5 1
0.087613687 -0.19096974 -0.24657615 4 0
0.38688457 -0.60541844 0.18239871 63 31
0.28132302 -0.59800112 0.14485882 90 30
0.38574573 -0.60476106 0.13165954 56 29
0.27689081 -0.58800262 0.09619987 92 28
0.37720972 -0.59256887 0.08149112 23 27
0.27358565 -0.58095002 0.058041997 88 26
0.37207788 -0.585006 0.045809444 7 25
0.27869549 -0.59191251 0.028881723 84 24
0.36050931 -0.56738192 0.014796881 7 23
0.27464899 -0.58350873 0 85 22
nan nan nan 0 21
0.2784889 -0.59200978 -0.028881723 82 20
0.39587799 -0.62309045 -0.048687316 6 19
0.27426657 -0.58373964 -0.054767184 86 18
0.39029768 -0.6143828 -0.079322092 26 17
0.27473387 -0.58526331 -0.084978759 86 16
0.39265946 -0.61763293 -0.12151819 25 15
0.27044541 -0.57805699 -0.17264658 95 13
0.39141929 -0.61549449 -0.15906571 51 14
0.27151194 -0.58188426 -0.21002555 86 12
0.38437432 -0.60165524 -0.27463639 77 11
0.26690942 -0.57670331 -0.31892624 96 9
0.3983438 -0.62199831 -0.33055216 70 10
0.26710403 -0.57967031 -0.36468264 96 8
0.34902829 -0.54070652 -0.41196343 5 7
0.26426506 -0.57800812 -0.45741642 71 6
0.30695319 -0.47244382 -0.44744086 5 5
0.21732706 -0.4794637 -0.46988583 11 4
0.23190229 -0.3550283 -0.41301104 5 3
0.16287354 -0.36172676 -0.42741019 5 2
0.22258992 -0.33774021 -0.48523882 5 1
0.088688686 -0.19525443 -0.25268963 4 0
0.38617584 -0.60873312 0.18304323 64 31
0.27933842 -0.59893066 0.14485882 90 30
0.37977704 -0.59982884 0.13023876 59 29
0.27286497 -0.58443427 0.095427185 92 28
0.37524259 -0.59381646 0.08149112 30 27
0.27165765 -0.58185405 0.058041997 89 26
0.37549153 -0.59465301 0.046503525 8 25
0.27463377 -0.58830059 0.028648807 84 24
0.36264896 -0.57490158 0.014970962 6 23
0.26851478 -0.57533991 0 86 22
nan nan nan 0 21
0.27233264 -0.58386278 -0.02841589 83 20
nan nan nan 0 19
0.27128565 -0.58238524 -0.054543644 86 18
0.39225411 -0.62196302 -0.08017502 14 17
0.27175447 -0.58392256 -0.084634714 88 16
0.3932521 -0.62308824 -0.12237697 11 15
0.26651984 -0.57458276 -0.17127091 95 13
0.39068401 -0.61884534 -0.15962383 48 14
0.26761231 -0.57848573 -0.20839112 89 12
0.38237709 -0.60292655 -0.27463639 77 11
0.26408234 -0.57557493 -0.31775373 96 9
0.39139581 -0.61569488 -0.32630071 69 10
0.26253587 -0.57470429 -0.36080304 97 8
0.35173172 -0.54881442 -0.41756839 3 7
0.26316059 -0.58069611 -0.45893103 71 6
0.30121452 -0.46706682 -0.44097963 5 5
0.21646804 -0.4818339 -0.47161335 12 4
0.23355369 -0.36009049 -0.41846934 5 3
0.16037767 -0.35930538 -0.42359403 5 2
0.22146872 -0.33847648 -0.48523882 5 1
0.08688809 -0.19289029 -0.24861398 4 0
0.38146076 -0.6059981 0.1817542 63 31
0.27318892 -0.59104455 0.1426042 90 30
0.37505466 -0.59700292 0.12929156 59 29
0.27185264 -0.58762848 0.095813528 92 28
0.37449321 -0.59722048 0.081794061 35 27
0.26858774 -0.58053648 0.057804115 89 26
0.36941883 -0.58963382 0.045982964 9 25
0.27361929 -0.59152567 0.028765265 86 24
0.36987254 -0.59102476 0.01537715 6 23
0.26546332 -0.57400107 0 86 22
nan nan nan 0 21
0.2712304 -0.58712769 -0.028532349 84 20
nan nan nan 0 19
0.27132261 -0.58785737 -0.054990724 85 18
0.38997182 -0.62339646 -0.08017502 8 17
0.27074379 -0.58711982 -0.084978759 88 16
0.38439649 -0.61410981 -0.12023001 6 15
0.26540768 -0.57774335 -0.17195874 95 13
0.38461924 -0.61402309 -0.15794946 39 14
0.26549026 -0.57946265 -0.20839112 93 12
0.37768236 -0.60040951 -0.27276173 72 11
0.26025933 -0.57246637 -0.31540868 97 9
0.38670892 -0.61330593 -0.32417497 68 10
0.25867909 -0.57175714 -0.35821664 96 8
0.35307246 -0.55532718 -0.42177209 3 7
0.26022339 -0.57983899 -0.45741642 77 6
0.3046841 -0.47617713 -0.44905618 5 5
0.21252236 -0.47765958 -0.46643078 12 4
0.2294181 -0.35663861 -0.41301104 5 3
0.16169268 -0.36579105 -0.43122634 5 2
0.22273186 -0.34307808 -0.49120486 4 1
0.085609086 -0.19187671 -0.24657615 4 0
0.37795061 -0.60534769 0.18110968 64 31
0.27303308 -0.59647804 0.14373152 91 30
0.37416953 -0.60045224 0.12976517 58 29
0.26663363 -0.58187383 0.094654493 95 28
0.37230176 -0.59858906 0.081794061 36 27
0.26748708 -0.58378303 0.058041997 87 26
0.37387434 -0.60155201 0.046850573 13 25
0.26938456 -0.58797687 0.028532349 86 24
0.36913314 -0.5944308 0.015435177 7 23
0.26335776 -0.57497019 0 86 22
0.37422639 -0.60303605 -0.015667286 7 21
0.26711601 -0.58352238 -0.028299429 84 20
nan nan nan 0 19
0.26813874 -0.58657968 -0.054767184 88 18
0.38252568 -0.61633033 -0.079037786 5 17
0.27165297 -0.59487599 -0.086010888 87 16
nan nan nan 0 15
0.26042557 -0.57209301 -0.16989525 96 13
0.38495252 -0.61955965 -0.15906571 35 14
0.26443481 -0.58254075 -0.20920832 94 12
0.37681854 -0.6036858 -0.27369905 71 11
0.25905815 -0.57543319 -0.31658122 96 9
0.37973717 -0.6069963 -0.31992349 63 10
0.25841668 -0.57656819 -0.36080304 97 8
0.35891667 -0.56878072 -0.43158075 4 7
0.25899851 -0.58256441 -0.45893103 84 6
0.30405122 -0.47884324 -0.45067149 5 5
0.211574 -0.48005584 -0.4681583 13 4
0.22910485 -0.35887569 -0.41483048 5 3
0.15843958 -0.36192819 -0.42550209 5 2
0.21987164 -0.34131956 -0.4872275 5 1
0.084371999 -0.1908417 -0.24453832 4 0
0.3758353 -0.60666335 0.18110968 65 31
0.26595724 -0.58631957 0.14091325 93 30
0.37077305 -0.59967136 0.12929156 58 29
0.26460087 -0.58280104 0.094654493 93 28
0.37152067 -0.60199225 0.082097001 34 27
0.26248565 -0.57785851 0.057328362 85 26
0.37177229 -0.60285342 0.046850573 39 25
0.26835495 -0.59119111 0.028648807 85 24
0.37628561 -0.61057842 0.015841367 8 23
0.26339954 -0.58044618 0 84 22
0.37749717 -0.61276758 -0.015899394 8 21
0.26303011 -0.57989556 -0.028066512 85 20
0.36609995 -0.59464979 -0.045924917 5 19
0.26517218 -0.58519411 -0.054543644 88 18
nan nan nan 0 17
0.26461139 -0.58447701 -0.084290676 88 16
nan nan nan 0 15
0.26234812 -0.58177668 -0.17264658 95 13
0.38804108 -0.62911183 -0.1612982 27 14
0.25663161 -0.5705108 -0.20430502 96 12
0.37113118 -0.59903502 -0.27088708 66 11
0.25804058 -0.57830882 -0.31775373 96 9
0.38121742 -0.61407256 -0.3231121 60 10
0.25650328 -0.57742196 -0.36080304 96 8
0.36024714 -0.57528079 -0.43578446 6 7
0.2546812 -0.57795018 -0.45438719 87 6
0.30143589 -0.47823998 -0.44905618 5 5
0.20998092 -0.48075482 -0.4681583 12 4
0.22698523 -0.35819191 -0.41301104 5 3
0.15787068 -0.36393803 -0.42741019 5 2
0.21543278 -0.336968 -0.47927272 5 1
0.084301047 -0.19245501 -0.24657615 4 0
0.37127644 -0.6038 0.17982064 65 31
0.26302043 -0.58497334 0.1403496 91 30
0.37136513 -0.60507286 0.13023876 56 29
0.26266676 -0.58367527 0.094654493 92 28
0.36430776 -0.5947746 0.080885231 31 27
0.25945354 -0.57649827 0.057090484 90 26
0.37108049 -0.60620552 0.047024094 49 25
0.26435918 -0.58751601 0.02841589 87 24
0.36770138 -0.6011849 0.015551231 24 23
0.25943798 -0.57674944 0 85 22
0.36749154 -0.60131323 -0.015551231 9 21
0.25907338 -0.57620221 -0.027833596 84 20
0.36020219 -0.58949 -0.045406967 6 19
0.26312786 -0.58611619 -0.054543644 85 18
nan nan nan 0 17
0.26458076 -0.58992279 -0.084978759 88 16
nan nan nan 0 15
0.25847146 -0.5782479 -0.17127091 95 13
0.38200551 -0.62423986 -0.15962383 17 14
0.25473833 -0.57135874 -0.20430502 96 12
0.37025878 -0.60229677 -0.27182442 66 11
0.25248021 -0.57111454 -0.31306362 96 9
0.37559673 -0.60956699 -0.31992349 59 10
0.25192368 -0.57242894 -0.35692343 97 8
0.36493868 -0.58699542 -0.44419184 8 7
0.25108558 -0.57518351 -0.45135793 96 6
0.30588552 -0.48896408 -0.45874804 5 5
0.20830148 -0.48148489 -0.4681583 13 4
0.22758004 -0.36187157 -0.41664991 6 3
0.15597235 -0.36299828 -0.42550209 5 2
0.21836528 -0.34408084 -0.48921618 5 1
0.081955642 -0.18873858 -0.24046269 4 0
0.36537063 -0.59891975 0.17788708 68 31
0.26097688 -0.58588791 0.1403496 93 30
0.36668265 -0.60218126 0.12929156 52 29
0.25763398 -0.57781041 0.093495451 92 28
0.36093313 -0.59392649 0.080582291 33 27
0.25945053 -0.58195347 0.057566237 87 26
0.36635819 -0.60324287 0.046677049 46 25
0.26432467 -0.59300399 0.028648807 84 24
0.36419183 -0.6003961 0.015493204 35 23
0.25843284 -0.57993859 0 85 22
0.36669365 -0.60472488 -0.015609259 9 21
0.2589753 -0.58171767 -0.028066512 83 20
0.36334437 -0.59925604 -0.046097565 7 19
0.26208436 -0.58930969 -0.054767184 89 18
0.3669869 -0.60546523 -0.077047631 5 17
0.25952688 -0.5840438 -0.08394663 88 16
0.34238419 -0.56478393 -0.10906579 5 15
0.25538537 -0.57699013 -0.17058308 96 13
0.37092134 -0.61101866 -0.15571696 8 14
0.25169623 -0.57012373 -0.2034878 96 12
0.36804879 -0.60364985 -0.27182442 62 11
0.25224108 -0.57604432 -0.31540868 98 9
0.37573409 -0.61479247 -0.32204923 57 10
0.24982391 -0.5733484 -0.35692343 96 8
0.36169103 -0.58657122 -0.44279063 9 7
0.24663089 -0.57061321 -0.44681406 100 6
0.30409136 -0.49008191 -0.45874804 6 5
0.20864406 -0.48723951 -0.47334087 12 4
0.22717011 -0.36415139 -0.41846934 5 3
0.1528389 -0.35906795 -0.41977787 5 2
0.21792004 -0.34615442 -0.49120486 5 1
0.082921728 -0.19305331 -0.24657615 4 0
0.36317298 -0.60025483 0.17788708 68 31
0.25980282 -0.58907241 0.14091325 92 30
0.36702582 -0.60771483 0.13023876 51 29
0.25650412 -0.58101386 0.093881793 92 28
0.35875386 -0.59524542 0.080582291 38 27
0.25532159 -0.57834017 0.057090484 90 26
0.36414474 -0.60458159 0.046677049 40 25
0.25914767 -0.58710462 0.028299429 87 24
0.36339009 -0.60380071 0.015551231 38 23
0.25230041 -0.57171893 0 84 22
0.36188382 -0.60179007 -0.015493204 24 21
0.25294399 -0.57346445 -0.027600678 84 20
0.35856012 -0.59631813 -0.045752265 9 19
0.25793132 -0.58570176 -0.054320101 88 18
0.35714677 -0.59399796 -0.075341769 7 17
0.2563951 -0.58272105 -0.083602577 88 16
0.33913338 -0.56386989 -0.1086364 5 15
0.25049803 -0.57126403 -0.16851957 96 13
nan nan nan 0 14
0.24876589 -0.56883061 -0.20267057 96 12
0.36352578 -0.60097355 -0.26994976 61 11
0.24925752 -0.57493579 -0.31423613 96 9
0.37358576 -0.61610025 -0.32204923 50 10
0.24698092 -0.57224923 -0.35563022 97 8
0.35637841 -0.58254498 -0.43858692 9 7
0.24541283 -0.57330227 -0.44832867 100 6
