# .PCD v0.7 - Point Cloud Data file format
VERSION 0.7
FIELDS x y z intensity ring
SIZE 4 4 4 4 2
TYPE F F F F U
COUNT 1 1 1 1 1
WIDTH 1027
HEIGHT 1
VIEWPOINT 0 0 0 1 0 0 0
POINTS 1027
DATA ascii
1.7084391 -0.1106498 0.26232815 21 28
1.6863556 -0.10890738 0.15818822 23 26
1.6523834 0.10903148 0.11278841 13 25
1.6696355 -0.10810439 0.076396815 58 24
1.6384387 0.10752226 0.037311349 23 23
1.6489424 -0.10702623 0 60 22
1.6334699 0.1069024 -0.037195295 8 21
1.6372044 -0.10653563 -0.074882858 34 20
1.6052172 0.10472351 -0.1089422 86 19
1.6399372 -0.10728597 -0.14440654 8 18
1.6112572 -0.1059298 -0.21949978 37 16
1.7080628 -0.11631458 0.26232815 38 28
1.6884478 -0.11496551 0.15842611 7 26
1.6552248 0.10371102 0.11296193 16 25
1.6717592 -0.11381341 0.076513276 57 24
1.6387863 0.10208841 0.037311349 27 23
1.6510724 -0.11266726 0 60 22
1.6363276 0.10135812 -0.037253324 8 21
1.6318597 -0.11161669 -0.074649937 61 20
1.6080446 0.099557728 -0.10911484 77 19
1.6445203 -0.11335889 -0.14485361 8 18
1.6009973 -0.11085567 -0.2181236 37 16
1.7076464 -0.12227613 0.26232815 34 28
1.6830721 -0.12049666 0.15795034 7 26
1.6605556 0.098234475 0.11330897 15 25
1.6688609 -0.11946665 0.076396815 46 24
1.6391494 0.096081264 0.037311349 28 23
1.650669 -0.11842989 0 61 22
1.6341765 0.095496111 -0.037195295 8 21
1.6314396 -0.11759699 -0.074649937 62 20
1.6133614 0.094242424 -0.10946014 68 19
1.6465976 -0.11928187 -0.14507715 8 18
1.608009 -0.11699274 -0.21915574 40 16
1.704724 -0.1283455 0.26194182 18 28
1.6900635 -0.1272348 0.15866399 7 26
1.6584145 0.092005752 0.11313545 16 25
1.675882 -0.12615469 0.076746188 14 24
1.6319888 0.089935206 0.037137266 37 23
1.6477312 -0.12428773 0 61 22
1.6395063 0.089786693 -0.037311349 8 21
1.635999 -0.12367424 -0.074882858 61 20
1.6087158 0.088048354 -0.10911484 60 19
1.6362193 -0.12454683 -0.14418299 48 18
1.610038 -0.12307774 -0.21949978 36 16
1.7116518 -0.13488701 0.26310086 9 28
1.6821898 -0.13224369 0.15795034 7 26
1.661216 0.086349368 0.11330897 15 25
1.6804099 -0.13240267 0.076979108 8 24
1.6397803 0.084635593 0.037311349 50 23
1.6497793 -0.1302387 0 60 22
1.6348034 0.084085174 -0.037195295 8 21
1.6430252 -0.12998503 -0.07523223 26 20
1.611504 0.08256375 -0.10928749 53 19
1.6407611 -0.13037317 -0.14463007 64 18
1.6170254 -0.12901708 -0.22053191 35 16
1.7185792 -0.14117847 0.26425987 9 28
1.6866781 -0.13852872 0.15842611 7 26
1.6590023 0.080715239 0.11313545 16 25
1.6724958 -0.13735139 0.076629736 7 24
1.6450444 0.079445966 0.037427403 56 23
1.646847 -0.13550052 0 48 22
1.6350869 0.078378133 -0.037195295 8 21
1.6376079 -0.13501573 -0.074999318 9 20
1.6117688 0.077219352 -0.10928749 51 19
1.6378149 -0.13589048 -0.14440654 62 18
1.6165652 -0.13466075 -0.22053191 35 16
1.7205366 -0.14739057 0.26464623 9 28
1.6734856 0.076165795 0.20024396 7 27
1.6861843 -0.14441547 0.15842611 7 26
1.6567827 0.074807562 0.11296193 15 25
1.6769819 -0.14362134 0.076862648 7 24
1.6428151 0.073587649 0.037369378 57 23
1.6588169 -0.14233337 0 12 22
1.6253637 0.072211407 -0.036963187 10 21
1.6421022 -0.14116566 -0.07523223 8 20
1.6170113 0.071821645 -0.10963279 55 19
1.6398109 -0.14182457 -0.14463007 53 18
1.6160854 -0.14030279 -0.22053191 34 16
1.7224716 -0.15361802 0.26503256 8 28
1.681179 0.070647202 0.20115279 9 27
1.6881485 -0.15052474 0.15866399 8 26
1.6620171 0.069238819 0.11330897 14 25
1.6789576 -0.14969926 0.076979108 25 24
1.6455708 0.067672335 0.037427403 55 23
1.6508404 -0.14744569 0 35 22
1.6306002 0.066749327 -0.037079241 29 21
1.6390867 -0.14695698 -0.07511577 8 20
1.6147604 0.066071033 -0.10946014 58 19
1.6343466 -0.14709462 -0.14418299 33 18
1.6205175 -0.14639544 -0.22122 34 16
1.7169788 -0.159467 0.26425987 8 28
1.6739879 0.064188734 0.20024396 10 27
1.6875855 -0.1567111 0.15866399 34 26
1.6622597 0.063146763 0.11330897 13 25
1.673425 -0.15538363 0.076746188 51 24
1.645797 0.061927814 0.037427403 39 23
1.6577559 -0.15419987 0 58 22
1.6308339 0.060772426 -0.037079241 11 21
1.6509949 -0.15385264 -0.075698063 7 20
1.6149918 0.060152199 -0.10946014 59 19
1.641233 -0.15379071 -0.14485361 32 18
1.7102565 0.063839108 -0.1919083 6 17
1.6101099 -0.1513932 -0.21984383 36 16
1.7237867 -0.16617993 0.26541892 8 28
1.6766816 0.058435097 0.20054691 10 27
1.6870565 -0.16230647 0.15866399 46 26
1.6674547 0.057523303 0.11365601 15 25
1.6778433 -0.1617097 0.076979108 54 24
1.6410077 0.056004591 0.037311349 14 23
1.6522313 -0.15949853 0 61 22
1.6385198 0.055629652 -0.037253324 8 21
1.6429917 -0.15888366 -0.07534869 8 20
1.6176844 0.05460237 -0.10963279 59 19
1.6431919 -0.15947622 -0.14507715 24 18
1.6111794 0.054366842 -0.18053594 13 17
1.6169919 -0.15746178 -0.22087596 31 16
1.7183111 -0.17139864 0.26464623 9 28
1.6793464 0.052956544 0.20084985 10 27
1.6914319 -0.16869481 0.15913974 12 26
1.6651436 0.051912125 0.11348249 17 25
1.6772978 -0.16727273 0.076979108 54 24
1.6486784 0.050804567 0.037485432 8 23
1.6566678 -0.1654802 0 62 22
1.6362058 0.049829993 -0.037195295 8 21
1.6499094 -0.16508695 -0.075698063 8 20
1.6128709 0.049078345 -0.10928749 41 19
1.6401482 -0.16495858 -0.14485361 20 18
1.6336933 0.049737532 -0.18309473 13 17
1.6139688 -0.16285321 -0.22053191 31 16
1.679521 0.047094211 0.20084985 10 27
1.695783 -0.17511566 0.15961549 7 26
1.6678077 0.046172053 0.11365601 15 25
1.6791877 -0.17338632 0.077095568 54 24
1.6513519 0.044833038 0.037543457 8 23
1.6535938 -0.17100158 0 59 22
1.6413664 0.044260453 -0.037311349 8 21
1.6418424 -0.17034994 -0.07534869 33 20
1.6105394 0.043377135 -0.10911484 22 19
1.6395622 -0.17068276 -0.14485361 22 18
1.6040713 0.042906802 -0.17968301 100 17
1.6183155 -0.16900712 -0.22122 29 16
1.6821631 0.041002233 0.20115279 9 27
1.6926556 -0.18106192 0.1593776 7 26
1.6654725 0.03999538 0.11348249 14 25
1.6785407 -0.17953968 0.077095568 53 24
1.6489998 0.039005671 0.037485432 8 23
1.6579267 -0.17760029 0 57 22
1.634022 0.038058437 -0.037137266 8 21
1.6412377 -0.17608 -0.07534869 60 20
1.6156741 0.037597526 -0.10946014 9 19
1.6314998 -0.17588025 -0.14418299 33 18
1.6042112 0.037307285 -0.17968301 98 17
1.6226082 -0.17547657 -0.22190809 28 16
1.682296 0.035130143 0.20115279 10 27
1.699433 -0.18779892 0.16009125 7 26
1.6705886 0.034291234 0.11382953 18 25
1.6878312 -0.18650781 0.077561401 33 24
1.6516246 0.033303436 0.037543457 8 23
1.6572965 -0.18338645 0 57 22
1.6441399 0.032567266 -0.037369378 8 21
1.6356497 -0.1812512 -0.07511577 64 20
1.6182891 0.032010648 -0.10963279 9 19
1.6382991 -0.18241075 -0.14485361 26 18
1.6043317 0.031707317 -0.17968301 96 17
1.6219858 -0.18113945 -0.22190809 28 16
1.6824085 0.029257618 0.20115279 10 27
1.6963285 -0.19314867 0.15985337 7 26
1.6657112 0.028367305 0.11348249 26 25
1.6822081 -0.19182597 0.077328481 9 24
1.6467329 0.027447259 0.037427403 10 23
1.65913 -0.1894573 0 55 22
1.6442388 0.02711492 -0.037369378 8 21
1.6399684 -0.18753363 -0.07534869 63 20
1.6183909 0.02636157 -0.10963279 9 19
1.6451051 -0.1887037 -0.14552423 27 18
1.6044327 0.026106961 -0.17968301 97 17
1.6213762 -0.18651715 -0.22190809 26 16
1.6775335 0.023601297 0.20054691 10 27
1.7030579 -0.19994892 0.160567 7 26
1.665796 0.022843454 0.11348249 33 25
1.6865225 -0.1979921 0.077561401 8 24
1.6393179 0.021875113 0.037253324 35 23
1.6634576 -0.1955484 0 32 22
1.6468226 0.021411495 -0.037427403 8 21
1.6418173 -0.19326618 -0.07546515 62 20
1.6159757 0.020958517 -0.10946014 16 19
1.6444364 -0.19444504 -0.14552423 21 18
1.6045104 0.020786326 -0.17968301 97 17
1.6256324 -0.19276549 -0.22259618 26 16
1.6800871 0.017775353 0.20084985 10 27
1.6949385 -0.20498647 0.15985337 7 26
1.6633718 0.016999438 0.11330897 47 25
1.6858211 -0.20387796 0.077561401 8 24
1.6493837 0.015978234 0.037485432 56 23
1.6602833 -0.20104995 0 9 22
1.6468873 0.015662881 -0.037427403 9 21
1.6435766 -0.19958679 -0.075581603 55 20
1.6235207 0.015399852 -0.10997809 44 19
1.6437477 -0.20018402 -0.14552423 21 18
1.6020921 0.014878486 -0.17939872 87 17
1.6298648 -0.19904584 -0.22328426 26 16
1.6826224 0.011638196 0.20115279 10 27
1.7040526 -0.21244155 0.16080487 8 26
1.660929 0.010882739 0.11313545 56 25
1.6801071 -0.20943116 0.077328481 34 24
1.6469301 0.01020152 0.037427403 57 23
1.6694566 -0.20838542 0 12 22
1.6419351 0.0095899906 -0.037311349 33 21
1.6428701 -0.20532274 -0.075581603 41 20
1.6210721 0.0094309645 -0.10980543 61 19
1.6405327 -0.20589395 -0.14530069 23 18
1.6021343 0.0092860507 -0.17939872 81 17
1.6242113 -0.20439324 -0.22259618 26 16
1.6851344 0.0057768049 0.20145573 12 27
1.6984024 -0.21745276 0.16032912 33 26
1.6659448 0.0051075821 0.11348249 56 25
1.6793659 -0.21529454 0.077328481 52 24
1.6419572 0.0044316608 0.037311349 40 23
1.6588022 -0.21292543 0 47 22
1.6469564 0.0041651512 -0.037427403 40 21
1.6570021 -0.21298599 -0.076280355 28 20
1.6210952 0.0037723093 -0.10980543 62 19
1.6497175 -0.21261926 -0.14619485 19 18
1.602157 0.0036935012 -0.17939872 73 17
1.6876259 0.00019256375 0.20175868 12 27
1.6951661 -0.2230521 0.16009125 47 26
1.6634585 -0.00041996455 0.11330897 56 25
1.6786426 -0.22086234 0.077328481 56 24
1.6419628 -0.0010132894 0.037311349 16 23
1.6630433 -0.21908461 0 58 22
1.6369636 -0.0015890598 -0.037195295 15 21
1.6562867 -0.21847965 -0.076280355 15 20
1.6235929 -0.0016021508 -0.10997809 61 19
1.6514333 -0.21870671 -0.14641838 20 18
1.607128 -0.0016168617 -0.17996733 63 17
1.6826531 -0.0056888224 0.20115279 11 27
1.6993089 -0.22964092 0.160567 46 26
1.665941 -0.0062321746 0.11348249 36 25
1.6828101 -0.22739583 0.077561401 55 24
1.6569451 -0.0067840619 0.037659511 8 23
1.6647455 -0.2252268 0 60 22
1.6469454 -0.0073327823 -0.037427403 8 21
1.6604626 -0.2249368 -0.076513276 13 20
1.6235774 -0.007269538 -0.10997809 59 19
1.6432593 -0.2234536 -0.14574777 18 18
1.6046287 -0.0072194058 -0.17968301 57 17
1.6826229 -0.011562344 0.20115279 10 27
1.6960323 -0.23522612 0.16032912 34 26
1.6758848 -0.012104813 0.11417657 20 25
1.6869525 -0.23396105 0.077794321 52 24
1.6594085 -0.012872729 0.03771754 8 23
1.6664248 -0.23138355 0 59 22
1.6419113 -0.01304937 -0.037311349 8 21
1.6670458 -0.23206387 -0.076862648 12 20
1.6185542 -0.012904624 -0.10963279 48 19
1.6498662 -0.23023048 -0.14641838 17 18
1.6021079 -0.013084143 -0.17939872 61 17
1.6875323 -0.017774431 0.20175868 10 27
1.7000855 -0.24214901 0.16080487 19 26
1.6683477 -0.018176641 0.11365601 36 25
1.6836119 -0.23978715 0.077677861 52 24
1.6518557 -0.018591782 0.037543457 8 23
1.6581421 -0.23642135 0 60 22
1.6468507 -0.019117787 -0.037427403 8 21
1.6662257 -0.23788154 -0.076862648 13 20
1.6184959 -0.018836835 -0.10963279 29 19
1.6490111 -0.23627599 -0.14641838 18 18
1.6045359 -0.018701605 -0.17968301 66 17
1.6849786 -0.023633726 0.20145573 9 27
1.711584 -0.2495967 0.16199426 10 26
1.6682739 -0.024000151 0.11365601 55 25
1.685235 -0.24602653 0.077794321 41 24
1.6617771 -0.024490327 0.037775565 8 23
1.6671997 -0.24366698 0 58 22
1.6492774 -0.024612425 -0.037485432 8 21
1.6703262 -0.24442592 -0.077095568 11 20
1.6209141 -0.024520278 -0.10980543 9 19
1.6506819 -0.24210763 -0.14664192 15 18
1.609428 -0.024369992 -0.18025163 69 17
1.6898537 -0.029300012 0.20206162 10 27
1.713163 -0.25594056 0.16223213 9 26
1.6681852 -0.029532216 0.11365601 56 25
1.6942877 -0.25310218 0.078260154 12 24
1.649192 -0.029793652 0.037485432 8 23
1.6663824 -0.24919426 0 60 22
1.6516804 -0.030411636 -0.037543457 8 21
1.6719756 -0.25033659 -0.077212021 11 20
1.628305 -0.030021952 -0.11032339 9 19
1.6522886 -0.24824128 -0.14686546 14 18
1.606855 -0.029664868 -0.17996733 65 17
1.6847788 -0.035102375 0.20145573 10 27
1.7147188 -0.26229849 0.16247001 9 26
1.6655785 -0.035305902 0.11348249 56 25
1.6958618 -0.25939557 0.078376614 8 24
1.6490718 -0.035838045 0.037485432 10 23
1.6679732 -0.25539109 0 59 22
1.6490654 -0.036125857 -0.037485432 8 21
1.6685791 -0.25608096 -0.077095568 12 20
1.6207097 -0.035552837 -0.10980543 11 19
1.6514119 -0.25400737 -0.14686546 13 18
1.6092187 -0.035605233 -0.18025163 66 17
1.7355393 -0.040959034 0.32820165 8 29
1.6871196 -0.041334331 0.20175868 10 27
1.7137458 -0.26858151 0.16247001 9 26
1.6704245 -0.041526966 0.11382953 56 25
1.6948998 -0.26560947 0.078376614 13 24
1.646438 -0.041534837 0.037427403 37 23
1.6670259 -0.26150283 0 55 22
1.648922 -0.042169742 -0.037485432 9 21
1.6602753 -0.26073182 -0.076746188 14 20
1.6280485 -0.041672993 -0.11032339 41 19
1.655388 -0.26083997 -0.14731254 13 18
1.6041185 -0.041102607 -0.17968301 67 17
1.7157544 -0.046513166 0.32441291 9 29
1.6869651 -0.047223225 0.20175868 11 27
1.710389 -0.27386639 0.16223213 9 26
1.6702694 -0.047357582 0.11382953 55 25
1.6890317 -0.27072737 0.078143694 47 24
1.6537782 -0.047485854 0.037601486 56 23
1.6685709 -0.26771954 0 52 22
1.6412778 -0.047432102 -0.037311349 33 21
1.6741459 -0.26892126 -0.077444941 11 20
1.6278931 -0.047355689 -0.11032339 64 19
1.6594297 -0.2671259 -0.14775962 12 18
1.6089308 -0.046838742 -0.18025163 66 17
1.7254055 -0.052486997 0.3263073 9 29
1.6892798 -0.052891195 0.20206162 20 27
1.7143333 -0.28064543 0.16270788 9 26
1.6750889 -0.053046718 0.11417657 55 25
1.6856607 -0.2759203 0.078027233 51 24
1.6511133 -0.052893385 0.037543457 39 23
1.6652074 -0.27284378 0 37 22
1.6411023 -0.053160943 -0.037311349 59 21
1.6658537 -0.27324918 -0.077095568 15 20
1.6302199 -0.052830745 -0.11049604 64 19
1.6609435 -0.27332434 -0.14798316 12 18
1.6062841 -0.052097175 -0.17996733 66 17
1.7252116 -0.058509465 0.3263073 9 29
1.6866045 -0.058704846 0.20175868 32 27
1.7157974 -0.28704163 0.16294576 9 26
1.6699084 -0.058725554 0.11382953 52 25
1.6896123 -0.28263304 0.078260154 54 24
1.6534063 -0.059030149 0.037601486 14 23
1.6765704 -0.28073505 0 21 22
1.635911 -0.058717296 -0.037195295 44 21
1.6673031 -0.27976945 -0.077212021 14 20
1.6275331 -0.05843522 -0.11032339 66 19
1.6943488 -0.28494596 -0.15111272 21 18
1.6085647 -0.058069967 -0.18025163 66 17
1.6027035 -0.057325479 -0.27352327 89 15
1.7249857 -0.064832292 0.3263073 8 29
1.6863781 -0.064886168 0.20175868 47 27
1.6696818 -0.064845681 0.11382953 32 25
1.6910261 -0.28924811 0.078376614 51 24
1.6581854 -0.064989656 0.03771754 8 23
1.6755302 -0.28687811 0 12 22
1.6431774 -0.064998031 -0.037369378 16 21
1.6663165 -0.2855877 -0.077212021 13 20
1.6248157 -0.064305164 -0.11015074 62 19
1.6133163 -0.063873515 -0.18082026 65 17
1.5951103 -0.062641129 -0.2722351 98 15
1.7247488 -0.070853211 0.3263073 8 29
1.69358 -0.071073703 0.2026675 51 27
1.679413 -0.071080878 0.11452361 10 25
1.6949251 -0.2960147 0.078609534 52 24
1.6629428 -0.070983246 0.037833594 8 23
1.681905 -0.29402617 0 11 22
1.64545 -0.070550002 -0.037427403 8 21
1.6677687 -0.29183614 -0.077328481 12 20
1.6270733 -0.070080012 -0.11032339 61 19
1.6155651 -0.069607794 -0.18110457 68 17
1.5924213 -0.068107314 -0.2718057 96 15
1.7294095 -0.076783024 0.32725447 8 29
1.6908557 -0.076580741 0.20236456 51 27
1.6816593 -0.076759696 0.11469713 18 25
1.6939342 -0.30163363 0.078609534 51 24
1.665195 -0.076608568 0.037891619 8 23
1.6833812 -0.30004376 0 10 22
1.6426969 -0.076181196 -0.037369378 8 21
1.6741657 -0.2986905 -0.077677861 10 20
1.631815 -0.07569886 -0.11066869 54 19
1.6153253 -0.074964821 -0.18110457 68 17
1.594647 -0.073497169 -0.2722351 90 15
1.7242267 -0.082591482 0.3263073 8 29
1.6905781 -0.082482465 0.20236456 51 27
1.676399 -0.082391754 0.11435009 43 25
1.6953275 -0.30799422 0.078725986 49 24
1.6574137 -0.082350247 0.03771754 8 23
1.6872418 -0.3068189 0 10 22
1.6474137 -0.08215639 -0.037485432 8 21
1.6706033 -0.3043738 -0.077561401 10 20
1.6215762 -0.080912374 -0.10997809 31 19
1.610078 -0.080643848 -0.18053594 66 17
1.5943669 -0.079341345 -0.2722351 86 15
1.7337191 -0.089402169 0.32820165 9 29
1.6952211 -0.088931024 0.20297045 51 27
1.6760857 -0.088535503 0.11435009 55 25
1.6941872 -0.31420586 0.078725986 48 24
1.6646042 -0.08852239 0.037891619 8 23
1.686106 -0.31300092 0 10 22
1.6495975 -0.088323832 -0.037543457 8 21
1.6793495 -0.31204095 -0.078027233 10 20
1.6287408 -0.087244183 -0.11049604 10 19
1.6147476 -0.086521827 -0.18110457 65 17
1.5940802 -0.084906235 -0.2722351 86 15
1.7235914 -0.094927564 0.3263073 9 29
1.6973784 -0.094982967 0.20327339 50 27
1.6782568 -0.094522208 0.11452361 57 25
1.6979865 -0.32105193 0.078958906 50 24
1.6667806 -0.094470181 0.037949648 8 23
1.6874591 -0.31935266 0 10 22
1.649279 -0.094081461 -0.037543457 8 21
1.6733438 -0.31696519 -0.077794321 10 20
1.623446 -0.092652321 -0.11015074 12 19
1.6144357 -0.092157818 -0.18110457 65 17
1.5986924 -0.090741627 -0.27309388 75 15
1.730602 -0.10136351 0.32772809 9 29
1.6945589 -0.10076363 0.20297045 46 27
1.6729372 -0.10008925 0.11417657 55 25
1.6968554 -0.32697704 0.078958906 41 24
1.6589556 -0.099848293 0.037775565 16 23
1.6887882 -0.3257176 0 10 22
1.6564432 -0.099990919 -0.03771754 9 21
1.6722271 -0.32280433 -0.077794321 10 20
1.6355612 -0.099053852 -0.11101399 44 19
1.6165837 -0.097939126 -0.18138887 64 17
1.5959072 -0.096177205 -0.27266449 69 15
1.7302563 -0.10710184 0.32772809 8 29
1.6991693 -0.1066863 0.20357633 19 27
1.6800637 -0.10609702 0.11469713 55 25
1.6957618 -0.33260223 0.078958906 22 24
1.6586154 -0.10534903 0.037775565 40 23
1.6901512 -0.33180082 0 10 22
1.646106 -0.10514987 -0.037485432 35 21
1.678497 -0.32980177 -0.078143694 10 20
1.6352237 -0.10447702 -0.11101399 63 19
1.6162499 -0.10329936 -0.18138887 58 17
1.5980377 -0.10162139 -0.27309388 71 15
1.6938338 -0.11229571 0.20297045 7 27
1.6796831 -0.11196089 0.11469713 55 25
1.7043835 -0.34048882 0.079424739 14 24
1.660712 -0.11159137 0.037833594 36 23
1.6963352 -0.33917835 0 10 22
1.6432352 -0.11073086 -0.037427403 59 21
1.674829 -0.33545792 -0.078027233 14 20
1.6323606 -0.11002039 -0.11084135 64 19
1.6158606 -0.10922253 -0.18138887 42 17
1.595197 -0.10731632 -0.27266449 65 15
1.7008381 -0.11901212 0.20387927 7 27
1.6792614 -0.11811648 0.11469713 51 25
1.7055707 -0.34723473 0.079541199 21 24
1.6628058 -0.11756025 0.037891619 10 23
1.6975298 -0.34589571 0 10 22
1.6428182 -0.11675288 -0.037427403 59 21
1.6834329 -0.34331071 -0.078493066 10 20
1.6344342 -0.11617567 -0.11101399 63 19
1.6229029 -0.11537945 -0.1822418 32 17
1.5997267 -0.11322411 -0.27352327 66 15
1.6979373 -0.12477013 0.20357633 7 27
1.6887888 -0.12469767 0.11539122 29 25
1.7165716 -0.3557353 0.080123484 21 24
1.6623852 -0.12336381 0.037891619 7 23
1.6963121 -0.3518191 0 10 22
1.6449147 -0.12238178 -0.037485432 43 21
1.6365061 -0.122062 -0.11118665 63 19
1.6249672 -0.12122479 -0.18252611 31 17
1.5944089 -0.11845018 -0.27266449 58 15
1.6975142 -0.1304 0.20357633 7 27
1.6908528 -0.13048552 0.11556474 9 25
1.7129397 -0.36090779 0.080007032 11 24
1.6694434 -0.12944452 0.038065702 7 23
1.6902449 -0.35640451 0 10 22
1.6494617 -0.12850372 -0.037601486 15 21
1.6360924 -0.12748817 -0.11118665 63 19
1.6270329 -0.12680195 -0.18281041 31 17
1.5890958 -0.12336317 -0.2718057 49 15
1.6995225 -0.13651979 0.20387927 7 27
1.6779561 -0.13540202 0.11469713 9 25
1.7263163 -0.37004361 0.080705784 9 24
1.663975 -0.13516505 0.037949648 8 23
1.7012091 -0.36493966 0 9 22
1.653986 -0.13465892 -0.03771754 7 21
1.6381235 -0.13339713 -0.11135929 59 19
1.6339848 -0.13335949 -0.18366335 30 17
1.5935432 -0.12957828 -0.27266449 46 15
1.7039571 -0.14315632 0.20448515 10 27
1.6824195 -0.14196329 0.11504417 28 25
1.72007 -0.37529758 0.080472864 9 24
1.6734558 -0.14180219 0.038181756 8 23
1.702302 -0.37170887 0 9 22
1.6460091 -0.14009535 -0.037543457 8 21
1.6351383 -0.13919243 -0.11118665 54 19
1.628559 -0.13864839 -0.18309473 32 17
1.5881726 -0.13473125 -0.2718057 40 15
1.7009746 -0.14889053 0.20418221 30 27
1.6819137 -0.14783517 0.11504417 51 25
1.7236242 -0.38238728 0.080705784 9 24
1.6629908 -0.1467784 0.037949648 8 23
1.703434 -0.37819368 0 9 22
1.6554698 -0.146708 -0.037775565 8 21
1.6271886 -0.14424978 -0.11066869 35 19
1.633014 -0.14476351 -0.18366335 31 17
1.5901459 -0.14048712 -0.2722351 37 15
1.7029161 -0.15504861 0.20448515 48 27
1.6863554 -0.15415211 0.11539122 54 25
1.7295852 -0.39005882 0.081055157 9 24
1.6699357 -0.15325677 0.038123727 8 23
1.6972275 -0.38303059 0 9 22
1.6499958 -0.15174648 -0.037659511 8 21
1.6341267 -0.15060437 -0.11118665 28 19
1.6324987 -0.1504629 -0.18366335 29 17
1.5945516 -0.14647992 -0.27309388 35 15
1.7048635 -0.16092446 0.20478809 47 27
1.6808685 -0.15928006 0.11504417 55 25
1.6619254 -0.15838461 0.037949648 8 23
1.7008201 -0.38977975 0 9 22
1.6594095 -0.15844075 -0.037891619 10 21
1.6361014 -0.1562559 -0.11135929 48 19
1.6344364 -0.15639335 -0.18394765 30 17
1.5989349 -0.15250517 -0.27395266 34 15
1.6968521 -0.16645589 0.20387927 49 27
1.6877203 -0.166162 0.11556474 54 25
1.6688253 -0.16491129 0.038123727 25 23
1.6993802 -0.39601094 0 9 22
1.6538427 -0.16403568 -0.037775565 42 21
1.6429642 -0.16297898 -0.11187725 61 19
1.6338805 -0.16209763 -0.18394765 28 17
1.5983927 -0.15808555 -0.27395266 34 15
1.7011992 -0.17287268 0.20448515 49 27
1.6846485 -0.1718028 0.11539122 53 25
1.6682394 -0.17073557 0.038123727 27 23
1.6979874 -0.40194044 0 9 22
1.6507734 -0.16955598 -0.03771754 60 21
1.639904 -0.16846184 -0.11170459 55 19
1.638247 -0.16830024 -0.18451627 26 17
1.7030537 -0.17906587 0.20478809 46 27
1.6865191 -0.17794037 0.11556474 44 25
1.670119 -0.1768173 0.038181756 9 23
1.6941441 -0.40727767 0 11 22
1.6576594 -0.17580906 -0.037891619 62 21
1.6318647 -0.17340568 -0.11118665 38 19
1.6351794 -0.17375901 -0.18423197 25 17
1.7024505 -0.18471241 0.20478809 30 27
1.693359 -0.18433104 0.11608531 26 25
1.6645536 -0.18181914 0.038065702 7 23
1.6903561 -0.4122979 0 14 22
1.6520659 -0.18105702 -0.037775565 59 21
1.6337601 -0.17908423 -0.11135929 28 19
1.6345942 -0.1791805 -0.18423197 26 17
1.709195 -0.19147219 0.20569691 20 27
1.6902264 -0.18996589 0.11591178 8 25
1.6688441 -0.18847252 0.038181756 7 23
1.6840549 -0.41698793 0 23 22
1.64894 -0.18654543 -0.03771754 38 21
1.640561 -0.18561614 -0.11187725 24 19
1.6388633 -0.1857224 -0.18480058 27 17
1.7084818 -0.1977354 0.20569691 10 27
1.6969521 -0.19701177 0.11643235 7 25
1.6681759 -0.19429673 0.038181756 7 23
1.6556938 -0.19344702 -0.037891619 11 21
1.637392 -0.19134206 -0.11170459 22 19
1.6332701 -0.19087273 -0.18423197 28 17
1.7127101 -0.20427868 0.20630279 9 27
1.6937773 -0.20264134 0.11625882 20 25
1.6724515 -0.20070696 0.03829781 7 23
1.6624888 -0.19982035 -0.038065702 8 21
1.6416672 -0.19764532 -0.11204989 20 19
1.6350602 -0.19686596 -0.18451627 27 17
1.7144868 -0.21025568 0.20660573 9 27
1.693096 -0.20825699 0.11625882 46 25
1.6668147 -0.20564705 0.038181756 7 23
1.6642619 -0.20592558 -0.038123727 8 21
1.6410028 -0.20308821 -0.11204989 21 19
1.6393292 -0.20288976 -0.18508488 28 17
1.7088176 -0.21562475 0.20599985 9 27
1.6923587 -0.21416572 0.11625882 55 25
1.6734893 -0.2126894 0.038355835 7 23
1.6610533 -0.21142173 -0.038065702 8 21
1.6378094 -0.20850384 -0.11187725 20 19
1.6385747 -0.20889683 -0.18508488 27 17
1.7153999 -0.22283499 0.20690867 9 27
1.6915624 -0.2203671 0.11625882 55 25
1.6752155 -0.21884984 0.038413864 7 23
1.662746 -0.21782941 -0.038123727 23 21
1.6395075 -0.21482566 -0.11204989 16 19
1.6402987 -0.21493429 -0.18536919 24 17
1.7146115 -0.22882149 0.20690867 9 27
1.6932553 -0.22659764 0.11643235 55 25
1.6719636 -0.22436729 0.038355835 11 23
1.659537 -0.22301282 -0.038065702 54 21
1.6387477 -0.22054732 -0.11204989 14 19
1.6370764 -0.22033104 -0.18508488 28 17
1.7187616 -0.23517194 0.20751455 9 27
1.694966 -0.2325469 0.11660586 54 25
1.6811163 -0.23125865 0.038587943 21 23
1.6587483 -0.22880435 -0.038065702 61 21
1.6429495 -0.22665477 -0.11239519 14 19
1.6387978 -0.22609439 -0.18536919 25 17
1.7498838 -0.24560972 0.2114528 10 27
1.6966139 -0.2388061 0.11677939 37 25
1.6753069 -0.23672646 0.038471889 7 23
1.6579397 -0.23459306 -0.038065702 52 21
1.6446184 -0.23273414 -0.11256784 14 19
1.6354983 -0.23175456 -0.18508488 19 17
1.6907896 -0.24431664 0.11643235 13 25
1.6744704 -0.24257293 0.038471889 7 23
1.6570685 -0.24066813 -0.038065702 33 21
1.6437544 -0.23876041 -0.11256784 14 19
1.6395965 -0.23816888 -0.18565349 18 17
1.6948617 -0.25094059 0.11677939 7 25
1.6785591 -0.2491432 0.038587943 7 23
1.6686248 -0.24798091 -0.038355835 21 21
1.650313 -0.24558714 -0.11308579 14 19
1.6915537 -0.25618964 0.11660586 7 25
1.6851383 -0.25582287 0.038762026 7 23
1.6677489 -0.25380397 -0.038355835 15 21
1.6420912 -0.24994348 -0.11256784 13 19
1.7005094 -0.26360682 0.11729994 12 25
1.6817192 -0.26161689 0.038704 7 23
1.6668528 -0.25962394 -0.038355835 12 21
1.6510682 -0.25719497 -0.11325844 12 19
1.7019957 -0.27022529 0.11747347 38 25
1.6807958 -0.26748559 0.038704 7 23
1.6732962 -0.26690191 -0.038529918 10 21
1.6501144 -0.26324475 -0.11325844 12 19
1.7010419 -0.27616474 0.11747347 47 25
1.6798519 -0.27335101 0.038704 7 23
1.6723543 -0.27274117 -0.038529918 10 21
1.6516474 -0.26940095 -0.11343109 12 19
1.7000676 -0.2821008 0.11747347 37 25
1.6813536 -0.2796196 0.038762026 7 23
1.6689748 -0.27787849 -0.038471889 10 21
1.6531577 -0.27557114 -0.11360374 11 19
1.6991228 -0.28773689 0.11747347 23 25
1.6828319 -0.28590202 0.038820054 21 23
1.6729237 -0.28453365 -0.038587943 12 21
1.6571535 -0.28188097 -0.11394905 11 19
1.7103469 -0.29607216 0.11834107 10 25
1.6818236 -0.29177445 0.038820054 48 23
1.6694067 -0.29023877 -0.038529918 13 21
1.6511936 -0.28710556 -0.11360374 11 19
1.7166725 -0.30333209 0.11886163 9 25
1.6832565 -0.29807565 0.03887808 50 23
1.6708448 -0.29649743 -0.038587943 11 21
1.647725 -0.29243532 -0.11343109 11 19
1.7156032 -0.30932254 0.11886163 9 25
1.6822058 -0.30394948 0.03887808 44 23
1.6673924 -0.30159521 -0.038529918 12 21
1.658968 -0.30038917 -0.11429434 11 19
1.7170216 -0.31545722 0.11903515 9 25
1.6811887 -0.30952621 0.03887808 28 23
1.668788 -0.30786356 -0.038587943 12 21
1.667776 -0.30768457 -0.11498494 14 19
1.7183621 -0.32190457 0.11920867 9 25
1.6849568 -0.31660205 0.038994133 13 23
1.6750739 -0.31506225 -0.038762026 13 21
1.7171706 -0.32820052 0.11920867 9 25
1.6961184 -0.3248148 0.039284267 9 23
1.6763631 -0.32166708 -0.038820054 10 21
1.7233604 -0.33561248 0.11972923 9 25
1.6998818 -0.33168375 0.039400321 9 23
1.6752872 -0.32722434 -0.038820054 10 21
1.7271323 -0.34228837 0.12007628 9 25
1.7036767 -0.33828557 0.039516374 9 23
1.6814907 -0.33452266 -0.038994133 10 21
1.699975 -0.34403527 0.039458349 9 23
1.672962 -0.33891195 -0.038820054 11 21
1.7012124 -0.35046804 0.039516374 9 23
1.6863992 -0.34805161 -0.039168216 10 21
1.7048725 -0.35742304 0.039632428 9 23
1.6876208 -0.35444638 -0.039226241 9 21
1.7011694 -0.36285403 0.039574403 9 23
1.6888812 -0.36055914 -0.039284267 9 21
1.7024 -0.36901936 0.039632428 9 23
1.6924986 -0.36750606 -0.039400321 9 21
1.7034774 -0.37579143 0.039690454 9 23
1.6935812 -0.37424269 -0.039458349 9 21
1.7094738 -0.38336593 0.039864536 9 23
1.7056875 -0.38877878 0.039806508 9 23
1.7068248 -0.39499298 0.039864536 9 23
1.7053655 -0.40124616 0.039864536 9 23
1.708818 -0.4083516 0.03998059 9 23
1.7073822 -0.414314 0.03998059 9 23
1.7107807 -0.42146033 0.040096644 9 23
1.7044481 -0.42622358 0.03998059 9 23
1.7078724 -0.4330954 0.040096644 10 23
1.7062734 -0.43935215 0.040096644 12 23
1.6974722 -0.4434205 0.039922561 16 23
1.6276364 0.25449112 0 9 22
1.6210995 0.24768528 0 75 22
1.6095886 0.24019688 0 33 22
1.6202735 0.2362877 0 69 22
1.6236044 0.23069589 0 76 22
1.6243998 0.22502705 0 89 22
1.6226972 0.21902439 0 58 22
1.6134984 0.2123507 0 40 22
1.6092695 0.20608886 0 36 22
1.610014 0.2001892 0 33 22
1.6082206 0.19427153 0 34 22
1.608889 0.18865661 0 32 22
1.6573955 0.18900192 0.076163903 7 24
1.6144743 0.18387939 0 37 22
1.6326771 0.18535039 -0.074999318 3 20
1.6406989 0.18103197 0.07534869 20 24
1.6151375 0.17796081 0 34 22
1.6357967 0.17991985 -0.07511577 4 20
1.6413208 0.17530376 0.07534869 27 24
1.6157488 0.17232184 0 34 22
1.6115787 0.17159837 -0.073951185 15 20
1.6468916 0.1700799 0.075581603 26 24
1.6188277 0.16693386 0 33 22
1.6121678 0.16597189 -0.073951185 60 20
1.6474466 0.16461767 0.075581603 29 24
1.6168844 0.16131988 0 34 22
1.6127093 0.16062483 -0.073951185 70 20
1.6480112 0.15886602 0.075581603 28 24
1.6174376 0.15567492 0 35 22
1.6132872 0.15471287 -0.073951185 66 20
1.6485825 0.15282467 0.075581603 27 24
1.6179973 0.14974567 0 32 22
1.6088434 0.14862783 -0.073718272 68 20
1.6491057 0.14706913 0.075581603 27 24
1.623491 0.14453354 0 31 22
1.6168159 0.14366399 -0.074067645 71 20
1.6471206 0.14110193 0.07546515 24 24
1.6165122 0.13823673 0 32 22
1.6148188 0.13781039 -0.073951185 68 20
1.6500686 0.1358407 0.075581603 23 24
1.6219455 0.13327816 0 33 22
1.6152902 0.13217276 -0.073951185 66 20
1.6505554 0.12979198 0.075581603 22 24
1.6199304 0.1271403 0 39 22
1.6132517 0.12634197 -0.073834725 59 20
1.6509985 0.12402967 0.075581603 21 24
1.6253508 0.12185198 0 43 22
1.6161735 0.12089279 -0.073951185 58 20
1.6539124 0.11844093 0.075698063 22 24
1.630754 0.11652736 0 55 22
1.6190768 0.11542477 -0.074067645 59 20
1.6561483 0.11308581 0.1553337 6 26
1.6542962 0.1129557 0.075698063 23 24
1.633626 0.1112855 0 64 22
1.6169589 0.10988913 -0.073951185 59 20
1.6615003 0.10761921 0.15580945 13 26
1.6521881 0.10702233 0.075581603 23 24
1.6364994 0.10574025 0 65 22
1.6148584 0.10380514 -0.073834725 63 20
1.6618837 0.10152879 0.15580945 15 26
1.6525693 0.10096604 0.075581603 23 24
1.6368761 0.099741474 0 68 22
1.6177038 0.098315701 -0.073951185 66 20
1.6354982 0.098519571 -0.14395946 5 18
1.6622279 0.095727116 0.15580945 15 26
1.6529115 0.095196888 0.075581603 20 24
1.6372143 0.094027095 0 65 22
1.6180371 0.092668265 -0.073951185 66 20
1.6159425 0.091708466 -0.14217113 35 18
1.6650214 0.090345986 0.15604733 14 26
1.6532338 0.089426562 0.075581603 20 24
1.6300428 0.08791776 0 66 22
1.6208446 0.087150402 -0.074067645 65 20
1.6137512 0.086219862 -0.1419476 99 18
1.6678122 0.084656298 0.1562852 10 26
1.6560155 0.084067054 0.075698063 20 24
1.6353194 0.082757838 0 65 22
1.6186446 0.081370071 -0.073951185 66 20
1.6165293 0.080707058 -0.14217113 96 18
1.6705973 0.078656651 0.15652309 10 26
1.6513232 0.077768572 0.07546515 19 24
1.6381091 0.076877385 0 65 22
1.6214136 0.075832739 -0.074067645 64 20
1.6217892 0.075004935 -0.14261821 86 18
1.6733482 0.072929785 0.15676096 10 26
1.6540796 0.072109349 0.075581603 20 24
1.6383675 0.071158849 0 63 22
1.6216685 0.070172481 -0.074067645 66 20
1.6170654 0.069137454 -0.14217113 79 18
1.6686072 0.067186683 0.1562852 13 26
1.659312 0.066528566 0.075814523 20 24
1.641104 0.065535851 0 65 22
1.6243989 0.064607248 -0.074184105 65 20
1.6197741 0.063869409 -0.14239468 75 18
1.6688316 0.061361752 0.1562852 12 26
1.6595235 0.061025728 0.075814523 28 24
1.6413122 0.060093392 0 64 22
1.6196231 0.058762327 -0.073951185 63 20
1.6199871 0.058214951 -0.14239468 66 18
1.6690452 0.055244762 0.1562852 12 26
1.662232 0.055022173 0.075930983 35 24
1.6390228 0.053998321 0 63 22
1.6198182 0.053108431 -0.073951185 63 20
1.6201897 0.052277006 -0.14239468 63 18
1.6791786 0.049699798 0.15723671 10 26
1.6499325 0.048866563 0.07534869 49 24
1.6367023 0.04820649 0 60 22
1.6224902 0.047523618 -0.074067645 63 20
1.6178732 0.046552949 -0.14217113 68 18
1.6718783 0.043653049 0.15652309 12 26
1.6500931 0.043106928 0.07534869 60 24
1.6368606 0.042493038 0 28 22
1.6201495 0.041798767 -0.073951185 32 20
1.6180257 0.040905237 -0.14217113 59 18
1.6695256 0.038055237 0.1562852 14 26
1.6552269 0.037453108 0.075581603 62 24
1.6444973 0.036937449 0 9 22
1.6277757 0.03630003 -0.074300557 9 20
1.6231314 0.035641998 -0.14261821 63 18
1.6721367 0.032272011 0.15652309 14 26
1.6528451 0.031919081 0.07546515 59 24
1.6409922 0.24687445 0.03771754 4 23
1.6396116 0.031394891 0 40 22
1.6204019 0.030487059 -0.073951185 9 20
1.623246 0.029975995 -0.14261821 64 18
1.6697552 0.026107494 0.1562852 15 26
1.6604421 0.025968105 0.075814523 59 24
1.6319549 0.23967746 0.037485432 8 23
1.6397156 0.025385205 0 62 22
1.6254927 0.024900354 -0.074184105 16 20
1.623345 0.024026303 -0.14261821 66 18
1.6723248 0.02030573 0.15652309 12 26
1.6530312 0.020090852 0.07546515 60 24
1.6278344 0.23326299 0.037369378 9 23
1.6397942 0.019661373 0 64 22
1.6378105 0.23412412 -0.037601486 3 21
1.6205753 0.019173872 -0.073951185 51 20
1.6259089 0.018384395 -0.14284176 66 18
1.6971354 0.014661719 0.26001009 9 28
1.6698943 0.014741313 0.1562852 15 26
1.6580858 0.014357186 0.075698063 59 24
1.636063 0.22862805 0.037543457 9 23
1.6398529 0.013937303 0 63 22
1.6237289 0.22659688 -0.037253324 7 21
1.6256268 0.01355176 -0.074184105 64 20
1.6234709 0.012976071 -0.14261821 66 18
1.6922348 0.0090139043 0.25923741 11 28
1.6699356 0.0089122038 0.1562852 15 26
1.6556271 0.0088486718 0.075581603 55 24
1.6343364 0.22286008 0.037485432 17 23
1.6423899 0.0085088778 0 62 22
1.6195579 0.2202466 -0.037137266 9 21
1.6256628 0.0081609124 -0.074184105 65 20
1.6235062 0.0073090214 -0.14261821 66 18
1.694726 0.003108141 0.25962374 9 28
1.6724452 0.0030842894 0.15652309 13 26
1.6631397 0.0030733238 0.075930983 29 24
1.6277107 0.21587159 0.037311349 27 23
1.6399097 0.002774942 0 63 22
1.6029764 0.21226902 -0.036731079 17 21
1.6256818 0.0022025055 -0.074184105 63 20
1.6185418 0.0016436208 -0.14217113 64 18
1.5974017 0.0010994952 -0.21709149 98 16
1.6996659 -0.0031188803 0.26039642 9 28
1.6774226 -0.0030611868 0.15699884 12 26
1.6706315 -0.0030459447 0.076280355 9 24
1.6210195 0.20921761 0.037137266 28 23
1.6424088 -0.0032439367 0 62 22
1.6037437 0.20639239 -0.036731079 38 21
1.6256796 -0.0034721964 -0.074184105 63 20
1.6260071 -0.0043186294 -0.14284176 63 18
1.5973949 -0.0047552818 -0.21709149 95 16
1.6996447 -0.0090518016 0.26039642 9 28
1.6749146 -0.0086076325 0.15676096 13 26
1.6656163 -0.0088443942 0.076047435 7 24
1.6242193 0.20387289 0.037195295 28 23
1.6473873 -0.0090110274 0 61 22
1.614337 0.20233123 -0.036963187 91 21
1.6231602 -0.0091294218 -0.074067645 62 20
1.6185139 -0.0096558817 -0.14217113 37 18
1.5998466 -0.010071424 -0.21743552 96 16
1.6946656 -0.014638835 0.25962374 9 28
1.6748743 -0.014454122 0.15676096 22 26
1.6655779 -0.014367728 0.076047435 7 24
1.6248865 0.19848567 0.037195295 28 23
1.6423486 -0.014423297 0 59 22
1.6150335 0.19669491 -0.036963187 97 21
1.6256183 -0.014537681 -0.074184105 36 20
1.6309196 -0.015440211 -0.14328884 10 18
1.6047537 -0.015711188 -0.2181236 87 16
1.6970739 -0.020587426 0.26001009 9 28
1.6773022 -0.020333882 0.15699884 35 26
1.6605234 -0.020114472 0.075814523 7 24
1.6256031 0.19252883 0.037195295 27 23
1.6397886 -0.020122044 0 28 22
1.6132286 0.19075896 -0.036905158 94 21
1.6330452 -0.020600373 -0.074533477 9 20
1.6308558 -0.021133088 -0.14328884 9 18
1.6046892 -0.021312729 -0.2181236 75 16
1.6994566 -0.026849616 0.26039642 9 28
1.674728 -0.026438801 0.15676096 50 26
1.6679293 -0.026328597 0.076163903 8 24
1.6287477 0.18714225 0.037253324 27 23
1.639704 -0.026132034 0 39 22
1.6114342 0.18455677 -0.036847133 73 21
1.6354603 -0.026344223 -0.074649937 8 20
1.6382362 -0.027244611 -0.14395946 8 18
1.607076 -0.027239442 -0.21846765 73 16
1.6993525 -0.032781664 0.26039642 9 28
1.6721374 -0.032233279 0.15652309 55 26
1.6628337 -0.032047741 0.075930983 9 24
1.6318746 0.18173605 0.037311349 27 23
1.6421021 -0.031907428 0 59 22
1.617036 0.17948963 -0.036963187 60 21
1.6428486 -0.032209788 -0.074999318 8 20
1.6331522 -0.032856058 -0.14351238 8 18
1.6044955 -0.032795001 -0.2181236 66 16
1.6992278 -0.038713314 0.26039642 9 28
1.6745092 -0.03783761 0.15676096 57 26
1.6627117 -0.037851918 0.075930983 42 24
1.622561 0.17495199 0.037079241 28 23
1.6469792 -0.03776053 0 63 22
1.6126531 0.17358389 -0.036847133 45 21
1.637733 -0.037822172 -0.074766397 10 20
1.640502 -0.038456716 -0.14418299 8 18
1.6019026 -0.038053289 -0.21777958 62 16
1.6990901 -0.044347942 0.26039642 9 28
1.6743671 -0.043682508 0.15676096 56 26
1.6650735 -0.043433882 0.076047435 58 24
1.6281326 0.16981311 0.037195295 28 23
1.6443459 -0.043152973 0 62 22
1.6157348 0.16821617 -0.036905158 44 21
1.6251094 -0.043190051 -0.074184105 44 20
1.6403577 -0.044182904 -0.14418299 8 18
1.60176 -0.043644741 -0.21777958 56 16
1.7038536 -0.050728563 0.26116911 9 28
1.6766831 -0.049896382 0.15699884 34 26
1.664903 -0.049536388 0.076047435 59 24
1.6287155 0.16412881 0.037195295 28 23
1.6466753 -0.049257599 0 62 22
1.6113676 0.1617862 -0.036789104 40 21
1.6274447 -0.048940916 -0.074300557 62 20
1.637696 -0.050115302 -0.14395946 8 18
1.5991143 -0.049435254 -0.21743552 53 16
1.7036661 -0.05667581 0.26116911 10 28
1.6839602 -0.056006748 0.15771246 9 26
1.6622242 -0.0552614 0.075930983 53 24
1.6292785 0.15844254 0.037195295 27 23
1.6464934 -0.055005271 0 61 22
1.6119226 0.1561605 -0.036789104 39 21
1.627264 -0.054621462 -0.074300557 63 20
1.6350226 -0.055743422 -0.14373592 9 18
1.598932 -0.055016901 -0.21743552 58 16
1.703458 -0.062622368 0.26116911 9 28
1.6862414 -0.06197919 0.15795034 7 26
1.656143 0.15583813 0.11330897 7 25
1.6695076 -0.061348289 0.076280355 21 24
1.6323098 0.15299131 0.037253324 28 23
1.6462914 -0.060752269 0 62 22
1.614946 0.15076895 -0.036847133 50 21
1.6295589 -0.060397211 -0.074417017 63 20
1.6273538 -0.061159708 -0.14306529 39 18
1.6036788 -0.060792316 -0.2181236 63 16
1.7056969 -0.068670742 0.26155546 9 28
1.6810535 -0.067364804 0.15747459 7 26
1.6591603 0.1502848 0.11348249 11 25
1.6742736 -0.067382999 0.076513276 8 24
1.6303449 0.14706427 0.037195295 28 23
1.6460694 -0.066498525 0 62 22
1.6129481 0.14518495 -0.036789104 59 21
1.6293381 -0.066085055 -0.074417017 62 20
1.6395808 -0.067081571 -0.14418299 35 18
1.6034684 -0.06610997 -0.2181236 66 16
1.7054597 -0.074326657 0.26155546 10 28
1.6907526 -0.073678732 0.15842611 7 26
1.6571653 0.1445616 0.11330897 20 25
1.6715461 -0.072822735 0.076396815 8 24
1.6308483 0.14137241 0.037195295 27 23
1.6458398 -0.071956724 0 61 22
1.613445 0.13955383 -0.036789104 63 21
1.6340871 -0.071998686 -0.074649937 34 20
1.6076165 0.13903472 -0.10928749 6 19
1.6393368 -0.072804362 -0.14418299 10 18
1.6057016 -0.071820773 -0.21846765 62 16
1.7076428 -0.080696777 0.26194182 9 28
1.6879854 -0.079754449 0.15818822 7 26
1.652714 0.13806422 0.11296193 19 25
1.6762567 -0.079191014 0.076629736 8 24
1.6338224 0.13588971 0.037253324 26 23
1.6455649 -0.07798855 0 55 22
1.6164362 0.13384932 -0.036847133 63 21
1.6413087 -0.078068249 -0.074999318 9 20
1.6006597 0.13251288 -0.10876954 22 19
1.641546 -0.078935288 -0.14440654 8 18
1.6054275 -0.07770548 -0.21846765 48 16
1.7048843 -0.086528659 0.26155546 9 28
1.6876968 -0.08564613 0.15818822 7 26
1.6556715 0.13249695 0.11313545 18 25
1.6759701 -0.085041761 0.076629736 8 24
1.6367779 0.13038795 0.037311349 27 23
1.6402894 -0.083471358 0 32 22
1.6193849 0.12840742 -0.036905158 57 21
1.6385322 -0.083666302 -0.074882858 8 20
1.6110561 0.12772827 -0.10946014 60 19
1.6437469 -0.084796481 -0.14463007 8 18
1.6051464 -0.083308995 -0.21846765 44 16
1.7021056 -0.09234228 0.26116911 9 28
1.6824338 -0.090967029 0.15771246 17 26
1.656124 0.12671678 0.11313545 18 25
1.6831433 -0.091307066 0.076979108 10 24
1.6322393 0.12428677 0.037195295 27 23
1.6424844 -0.08933565 0 58 22
1.6247854 0.12342272 -0.037021212 28 21
1.6407237 -0.089524753 -0.074999318 8 20
1.606519 0.12171945 -0.10911484 92 19
1.6434566 -0.090246879 -0.14463007 8 18
1.5999168 -0.088351496 -0.21777958 47 16
1.7042558 -0.098131351 0.26155546 9 28
1.6796218 -0.096692979 0.15747459 43 26
1.6565351 0.12122418 0.11313545 16 25
1.6678734 -0.096007265 0.076280355 47 24
1.6376482 0.118958 0.037311349 27 23
1.6471704 -0.095076621 0 60 22
1.6326839 0.11830348 -0.037195295 9 21
1.6379082 -0.095103286 -0.074882858 8 20
1.6094011 0.11657533 -0.10928749 89 19
1.6381606 -0.095685989 -0.14418299 8 18
1.6020705 -0.094084285 -0.2181236 43 16
1.7038846 -0.1043771 0.26155546 9 28
1.6842237 -0.10315923 0.15795034 54 26
1.6569682 0.11515186 0.11313545 13 25
1.6724951 -0.10243156 0.076513276 57 24
1.6405466 0.11341691 0.037369378 24 23
1.6493058 -0.10126971 0 61 22
1.6430793 0.11301946 -0.037427403 8 21
1.6425509 -0.1011337 -0.07511577 9 20
1.6098175 0.1106758 -0.10928749 80 19
1.6427689 -0.10200479 -0.14463007 8 18
1.6017147 -0.099955536 -0.2181236 39 16
