# .PCD v0.7 - Point Cloud Data file format
VERSION 0.7
FIELDS x y z intensity ring
SIZE 4 4 4 4 2
TYPE F F F F U
COUNT 1 1 1 1 1
WIDTH 1238
HEIGHT 1
VIEWPOINT 0 0 0 1 0 0 0
POINTS 1238
DATA ascii
1.3929185 0.057630889 0.094568744 67 25
1.4178094 -0.12607077 0.064750962 46 24
1.3783755 0.056527659 0.031218518 67 23
1.3993716 -0.12464876 0 71 22
1.3734009 0.055834576 -0.031102462 74 21
1.3879206 -0.12385486 -0.063353457 69 20
1.3630898 0.055390906 -0.092022486 73 19
1.3888603 -0.12466723 -0.12205258 79 18
1.352668 0.054942541 -0.15096785 78 17
1.3689994 -0.12332842 -0.18612756 30 16
1.336622 0.054710686 -0.22714885 101 15
1.3253342 0.05444115 -0.29580641 98 14
1.4378996 0.056272719 0.27089661 10 29
1.4037007 0.053672742 0.16722341 17 27
1.4373616 -0.13289304 0.1346384 27 26
1.3956032 0.052867122 0.094742268 65 25
1.4248196 -0.13172023 0.065100335 44 24
1.3785734 0.051475283 0.031218518 67 23
1.3964391 -0.12929831 0 52 22
1.3735875 0.051040165 -0.031102462 74 21
1.3974022 -0.12988107 -0.063819289 22 20
1.3632748 0.050632492 -0.092022486 73 19
1.3884168 -0.1295145 -0.12205258 79 18
1.3553423 0.050080605 -0.15125217 78 17
1.3734905 -0.12857588 -0.18681565 29 16
1.3417354 0.050003879 -0.22800763 100 15
1.3279512 0.049910638 -0.29636455 98 14
1.4331901 0.050819706 0.26994941 11 29
1.4038881 0.048527561 0.16722341 7 27
1.4368649 -0.13816035 0.1346384 29 26
1.390803 0.047572337 0.094395228 56 25
1.4243273 -0.13694157 0.065100335 79 24
1.3837403 0.046840787 0.031334572 66 23
1.4133726 -0.13612032 0 10 22
1.3762631 0.046093471 -0.031160491 73 21
1.4043964 -0.1354892 -0.064168662 9 20
1.3609587 0.045547586 -0.091849834 73 19
1.3879328 -0.13460243 -0.12205258 78 18
1.3530266 0.045261726 -0.15096785 77 17
1.3754742 -0.1338529 -0.1871597 29 16
1.3369792 0.0451447 -0.22714885 99 15
1.3281252 0.045043122 -0.29636455 96 14
1.4358122 0.045899302 0.27042302 19 29
1.4139698 0.043952428 0.16843517 7 27
1.4388748 -0.1431746 0.13487628 29 26
1.4034237 0.043121975 0.095262825 25 25
1.4263251 -0.14216407 0.065216795 68 24
1.3838953 0.042010345 0.031334572 46 23
1.4079144 -0.14054866 0 7 22
1.3789065 0.041609183 -0.031218518 65 21
1.3989458 -0.1398859 -0.063935749 8 20
1.3611094 0.040796675 -0.091849834 62 19
1.3874787 -0.13920423 -0.12205258 76 18
1.3556588 0.040617388 -0.15125217 68 17
1.3420517 0.040635653 -0.22800763 99 15
1.3209603 0.040401366 -0.29469013 96 14
1.4310493 0.040988658 0.26947585 24 29
1.4165882 0.03933648 0.16873811 7 27
1.4383664 -0.14819635 0.13487628 30 26
1.4010661 0.038395133 0.095089309 9 25
1.4283296 -0.14715287 0.065333247 57 24
1.3865253 0.037492916 0.031392597 21 23
1.4173861 -0.14625853 0 7 22
1.38404 0.036937837 -0.031334572 37 21
1.3984741 -0.1445242 -0.063935749 8 20
1.3612372 0.036282852 -0.091849834 38 19
1.3869842 -0.1440466 -0.12205258 76 18
1.3632344 0.036333594 -0.15210509 43 17
1.3347937 0.035972279 -0.22671944 97 15
1.325965 0.035931289 -0.29580641 95 14
1.4311837 0.035993118 0.26947585 26 29
1.4216783 0.034520477 0.16934399 7 27
1.4427887 -0.15375124 0.13535203 30 26
1.4111643 0.033760186 0.09578339 8 25
1.4278072 -0.15213777 0.065333247 55 24
1.3991405 0.032969035 0.031682733 9 23
1.4143814 -0.15093608 0 7 22
1.3791634 0.031981666 -0.031218518 10 21
1.4054095 -0.15021273 -0.064285129 8 20
1.3638489 0.031593271 -0.092022486 15 19
1.3864731 -0.14888719 -0.12205258 70 18
1.3633529 0.031574797 -0.15210509 26 17
1.3373733 0.03137508 -0.22714885 96 15
1.3236462 0.031240501 -0.29524827 90 14
1.4411168 0.031226752 0.2713702 18 29
1.4118664 0.029334214 0.16813223 7 27
1.4372967 -0.15823434 0.13487628 30 26
1.4137667 0.028889371 0.095956907 8 25
1.4297493 -0.1573979 0.065449715 43 24
1.389257 0.027624363 0.031450626 9 23
1.4163306 -0.1561501 0 7 22
1.3867627 0.027328238 -0.031392597 27 21
1.4048495 -0.1553628 -0.064285129 8 20
1.3614573 0.026778819 -0.091849834 37 19
1.3884192 -0.1540044 -0.12227612 50 18
1.3560098 0.026418997 -0.15125217 52 17
1.3350168 0.026419856 -0.22671944 96 15
1.32862 0.026727095 -0.29636455 87 14
1.4412216 0.025944583 0.2713702 10 29
1.4169267 0.024252813 0.16873811 7 27
1.4441239 -0.16435675 0.1355899 31 26
1.4163568 0.023753602 0.096130431 10 25
1.4415671 -0.16406798 0.066032007 41 24
1.3918436 0.022820147 0.031508651 33 23
1.4182322 -0.16162707 0 7 22
1.379357 0.022111842 -0.031218518 57 21
1.4018178 -0.15997866 -0.064168662 8 20
1.3690274 0.021921841 -0.092367783 65 19
1.3977388 -0.16024213 -0.12317027 34 18
1.3585774 0.021729695 -0.15153648 76 17
1.335101 0.021759618 -0.22671944 91 15
1.3262725 0.021812623 -0.29580641 89 14
1.4437578 0.020953463 0.27184379 10 29
1.4120401 0.019230444 0.16813223 7 27
1.4460422 -0.16943812 0.13582778 31 26
1.4064562 0.018659718 0.09543635 35 25
1.4409857 -0.16909899 0.066032007 39 24
1.389416 0.017924925 0.031450626 58 23
1.4201418 -0.16687222 0 10 22
1.3819219 0.017573813 -0.031276543 74 21
1.4086901 -0.16575801 -0.064518042 8 20
1.3715893 0.017178601 -0.092540428 72 19
1.399672 -0.165172 -0.12339382 30 18
1.3586448 0.016987242 -0.15153648 78 17
1.3351688 0.01709911 -0.22671944 88 15
1.3360839 0.01756073 -0.2980389 86 14
1.4462739 0.01619738 0.27231741 10 29
1.4145775 0.014577729 0.16843517 7 27
1.4503824 -0.17508872 0.13630354 33 26
1.411498 0.014053966 0.09578339 57 25
1.4428957 -0.17417957 0.06614846 35 24
1.3944659 0.013374064 0.031566679 69 23
1.4146177 -0.17097305 0 54 22
1.3844739 0.01277738 -0.031334572 74 21
1.4056538 -0.17012456 -0.064401582 9 20
1.3691449 0.012602731 -0.092367783 75 19
1.4015583 -0.17036107 -0.12361735 25 18
1.3586937 0.012481719 -0.15153648 80 17
1.3376808 0.012699378 -0.22714885 88 15
1.3385739 0.01292489 -0.29859704 83 14
1.4487761 0.011171975 0.272791 10 29
1.4220643 0.0097035095 0.16934399 10 27
1.4497623 -0.18015042 0.13630354 35 26
1.4040568 0.0090654576 0.095262825 67 25
1.4422789 -0.17921515 0.06614846 34 24
1.3920063 0.0082438076 0.031508651 69 23
1.4115318 -0.17559746 0 71 22
1.38451 0.0079445858 -0.031334572 74 21
1.3926331 -0.17371045 -0.063819289 44 20
1.3691806 0.0078234468 -0.092367783 75 19
1.4009551 -0.17525239 -0.12361735 25 18
1.3636976 0.0075381873 -0.15210509 79 17
1.332793 0.0077586216 -0.22629006 79 15
1.336174 0.0082327509 -0.2980389 87 14
1.4512622 0.0058760094 0.27326459 10 29
1.4146457 0.0044549368 0.16843517 32 27
1.4441563 -0.18482351 0.13582778 35 26
1.4065745 0.0039305892 0.09543635 66 25
1.4416125 -0.18450016 0.06614846 33 24
1.3920267 0.0033847485 0.031508651 69 23
1.4108787 -0.1807698 0 71 22
1.3820305 0.0028604527 -0.031276543 75 21
1.4019241 -0.17985713 -0.064285129 72 20
1.3716938 0.0028146727 -0.092540428 74 19
1.4052415 -0.18102995 -0.12406443 25 18
1.3587482 0.0027588743 -0.15153648 80 17
1.3352747 0.0031165744 -0.22671944 68 15
1.3361952 0.0033353735 -0.2980389 91 14
1.4537284 0.00081569306 0.27373818 10 29
1.412171 -0.00048659043 0.16813223 55 27
1.4459692 -0.19019172 0.13606566 39 26
1.4065797 -0.00097929582 0.09543635 65 25
1.4384841 -0.1892018 0.066032007 32 24
1.3920299 -0.0014743517 0.031508651 71 23
1.405283 -0.18503317 0 58 22
1.3845314 -0.0019628792 -0.031334572 77 21
1.3988123 -0.18441938 -0.064168662 74 20
1.3741895 -0.0019725792 -0.092713088 72 19
1.4021331 -0.18560345 -0.1238409 23 18
1.3587495 -0.0019840591 -0.15153648 81 17
1.3328147 -0.0015461422 -0.22629006 60 15
1.3313248 -0.0013330916 -0.29692265 96 14
1.4561772 -0.0042617703 0.27421179 10 29
1.4146422 -0.0054211812 0.16843517 63 27
1.4040737 -0.0058830753 0.095262825 65 25
1.4402891 -0.19455995 0.06614846 30 24
1.3945158 -0.0063404143 0.031566679 69 23
1.421967 -0.19230939 0 36 22
1.3845173 -0.0065541402 -0.031334572 74 21
1.395686 -0.18896213 -0.064052209 72 20
1.3741741 -0.0067693838 -0.092713088 72 19
1.4064436 -0.19092965 -0.12428798 21 18
1.3612181 -0.0067347712 -0.15182078 77 17
1.3377268 -0.0062122792 -0.22714885 62 15
1.3361869 -0.0057598255 -0.2980389 86 14
1.4561551 -0.0090906043 0.27421179 10 29
1.412135 -0.010098848 0.16813223 60 27
1.4065404 -0.010553484 0.09543635 53 25
1.4322166 -0.19829625 0.065799087 29 24
1.3969862 -0.010980027 0.031624705 68 23
1.4188455 -0.19667669 0 29 22
1.3844861 -0.011386967 -0.031334572 74 21
1.3999978 -0.19428357 -0.064285129 69 20
1.3766383 -0.011342378 -0.09288574 72 19
1.4033029 -0.19549049 -0.12406443 21 18
1.3661557 -0.011280775 -0.15238939 76 17
1.335236 -0.010633262 -0.22671944 69 15
1.3361588 -0.010423953 -0.2980389 66 14
1.4487505 -0.014114356 0.272791 10 29
1.4145726 -0.015050147 0.16843517 55 27
1.4114828 -0.0155093 0.09578339 23 25
1.4364597 -0.20400423 0.066032007 28 24
1.401935 -0.016149018 0.031740759 48 23
1.4206252 -0.20198388 0 23 22
1.3869369 -0.01624452 -0.031392597 70 21
1.4017478 -0.19976971 -0.064401582 66 20
1.3740963 -0.016122863 -0.092713088 71 19
1.4075407 -0.20109974 -0.12451151 22 18
1.3661052 -0.01628791 -0.15238939 78 17
1.3327254 -0.015503005 -0.22629006 77 15
1.338551 -0.015110921 -0.29859704 38 14
1.4511437 -0.019452903 0.27326459 10 29
1.4169893 -0.020265898 0.16873811 44 27
1.416404 -0.020746959 0.096130431 8 25
1.4431139 -0.21035954 0.06638138 27 24
1.3968719 -0.020976285 0.031624705 20 23
1.4198753 -0.20718938 0 21 22
1.3893673 -0.021361813 -0.031450626 40 21
1.4035126 -0.20502631 -0.064518042 66 20
1.3690404 -0.021091167 -0.092367783 46 19
1.3610729 -0.020988785 -0.15182078 58 17
1.3400511 -0.020252991 -0.22757822 79 15
1.3506702 -0.020176345 -0.30138767 34 14
1.451067 -0.02451822 0.27326459 10 29
1.4218725 -0.025291678 0.16934399 35 27
1.4213102 -0.025772834 0.096477471 8 25
1.4423709 -0.21539567 0.06638138 27 24
1.3967901 -0.025852151 0.031624705 8 23
1.4216152 -0.21251781 0 22 22
1.3967857 -0.026095936 -0.031624705 14 21
1.4052575 -0.21029767 -0.064634502 67 20
1.3664647 -0.025827223 -0.092195131 24 19
1.3734084 -0.025952093 -0.15324232 33 17
1.3399721 -0.02493052 -0.22757822 83 15
1.4534318 -0.029375406 0.27373818 10 29
1.4192997 -0.029958569 0.16904105 26 27
1.4187233 -0.030436741 0.096303947 8 25
1.4465849 -0.2209391 0.066614293 25 24
1.4016943 -0.03058425 0.031740759 8 23
1.4283149 -0.2183757 0 23 22
1.3916883 -0.0308694 -0.031508651 9 21
1.3996165 -0.21419328 -0.064401582 47 20
1.3738523 -0.030511219 -0.092713088 11 19
1.373315 -0.030506337 -0.15324232 24 17
1.3423445 -0.029423319 -0.22800763 75 15
1.4508665 -0.034394674 0.27326459 10 29
1.4216675 -0.034969397 0.16934399 23 27
1.4211018 -0.035446715 0.096477471 8 25
1.4458048 -0.22598727 0.066614293 23 24
1.4040717 -0.035780836 0.031798787 12 23
1.4250746 -0.2229699 0 22 22
1.3990681 -0.035906382 -0.031682733 32 21
1.4136213 -0.22166565 -0.065100335 32 20
1.3737372 -0.03530667 -0.092713088 39 19
1.3657446 -0.035360131 -0.15238939 56 17
1.3397655 -0.034284607 -0.22757822 72 15
1.4531845 -0.039775107 0.27373818 10 29
1.4215298 -0.040179834 0.16934399 22 27
1.4159763 -0.040521026 0.096130431 18 25
1.4474323 -0.2316833 0.06673076 22 24
1.3964429 -0.040477619 0.031624705 37 23
1.4242476 -0.22819155 0 22 22
1.3914318 -0.040827241 -0.031508651 62 21
1.4128389 -0.22659877 -0.065100335 26 20
1.3760917 -0.040410202 -0.09288574 68 19
1.3680958 -0.040195741 -0.15267371 77 17
1.3396376 -0.038961053 -0.22757822 68 15
1.4530368 -0.044847421 0.27373818 10 29
1.4213808 -0.045141652 0.16934399 19 27
1.4108405 -0.045312002 0.09578339 38 25
1.4466147 -0.23673439 0.06673076 21 24
1.396293 -0.045351867 0.031624705 65 23
1.425909 -0.23356961 0 21 22
1.3912889 -0.045441169 -0.031508651 73 21
1.4169669 -0.23234487 -0.065333247 19 20
1.378435 -0.04529088 -0.093058385 74 19
1.3679471 -0.044971038 -0.15267371 79 17
1.3468785 -0.043863948 -0.22886641 60 15
1.45288 -0.049665622 0.27373818 10 29
1.4261837 -0.050020292 0.16994987 19 27
1.4181602 -0.050242241 0.096303947 65 25
1.4532092 -0.24277577 0.067080133 20 24
1.4011306 -0.050151978 0.031740759 69 23
1.4300569 -0.23912893 0 24 22
1.3911217 -0.050297394 -0.031508651 75 21
1.418651 -0.23745844 -0.065449715 18 20
1.38077 -0.049947422 -0.093231037 74 19
1.3702729 -0.049592454 -0.15295802 77 17
1.3541099 -0.048581526 -0.23015459 51 15
1.4625105 -0.055089772 0.27563256 10 29
1.4284803 -0.055089667 0.17025281 22 27
1.417976 -0.05519224 0.096303947 71 25
1.4523529 -0.24784693 0.067080133 20 24
1.3984495 -0.054948773 0.031682733 70 23
1.4242862 -0.24326998 0 20 22
1.3934352 -0.05524765 -0.031566679 75 21
1.4178134 -0.24240901 -0.065449715 18 20
1.3830794 -0.054861341 -0.093403682 74 19
1.3676094 -0.054281246 -0.15267371 79 17
1.353932 -0.053307958 -0.23015459 51 15
1.4307482 -0.060425397 0.17055576 24 27
1.4202563 -0.060490847 0.096477471 71 25
1.4538943 -0.25360122 0.067196593 20 24
1.3982389 -0.060073979 0.031682733 70 23
1.4258472 -0.24892232 0 20 22
1.3932235 -0.060354471 -0.031566679 75 21
1.4193747 -0.24803761 -0.065566167 18 20
1.3803773 -0.059826642 -0.093231037 74 19
1.3698829 -0.059396569 -0.15295802 78 17
1.3512669 -0.058168598 -0.2297252 47 15
1.4280494 -0.065310158 0.17025281 23 27
1.4175447 -0.065337569 0.096303947 72 25
1.457916 -0.25955743 0.067429505 19 24
1.4030142 -0.065177649 0.031798787 69 23
1.4274302 -0.25434023 0 20 22
1.3980093 -0.065198377 -0.031682733 74 21
1.4209582 -0.25343287 -0.065682627 16 20
1.38016 -0.064644694 -0.093231037 73 19
1.3721485 -0.064289793 -0.15324232 78 17
1.3584368 -0.063215062 -0.23101339 48 15
1.4303039 -0.070162714 0.17055576 21 27
1.4223027 -0.07027553 0.096650988 67 25
1.4052869 -0.069949754 0.031856813 66 23
1.4290378 -0.2595228 0 19 22
1.3927803 -0.069836378 -0.031566679 74 21
1.427479 -0.25949469 -0.066032007 15 20
1.3774468 -0.069100581 -0.093058385 74 19
1.3694469 -0.068719618 -0.15295802 79 17
1.3532995 -0.06748312 -0.23015459 46 15
1.4300503 -0.075154983 0.17055576 21 27
1.419558 -0.075112388 0.096477471 66 25
1.4025251 -0.074970864 0.031798787 43 23
1.4305807 -0.26496848 0 18 22
1.3925281 -0.074697658 -0.031566679 72 21
1.4314277 -0.26564366 -0.06626492 17 20
1.3821787 -0.074166797 -0.093403682 72 19
1.3741467 -0.073996678 -0.15352663 77 17
1.3555027 -0.072569929 -0.23058398 41 15
1.4297652 -0.080395862 0.17055576 22 27
1.4192733 -0.080314815 0.096477471 64 25
1.4097414 -0.080279455 0.031972867 16 23
1.4369675 -0.27161413 0 18 22
1.3972359 -0.080078319 -0.031682733 42 21
1.3868779 -0.079508945 -0.093748987 58 19
1.3738799 -0.078792892 -0.15352663 70 17
1.3552412 -0.077301078 -0.23058398 38 15
1.4294758 -0.085386194 0.17055576 23 27
1.4214739 -0.085413814 0.096650988 62 25
1.4144427 -0.085492849 0.03208892 8 23
1.4286481 -0.27519861 0 20 22
1.3994576 -0.084858194 -0.031740759 17 21
1.3766332 -0.083761387 -0.093058385 32 19
1.381035 -0.084027469 -0.15437956 44 17
1.3574218 -0.082175635 -0.23101339 36 15
1.4316617 -0.09027797 0.1708587 21 27
1.4211829 -0.090127125 0.096650988 54 25
1.4041733 -0.089563802 0.031856813 8 23
1.4326327 -0.28090417 0 18 22
1.4091307 -0.090365209 -0.031972867 8 21
1.3887938 -0.089102507 -0.093921639 10 19
1.3807486 -0.088606678 -0.15437956 21 17
1.3595998 -0.086829051 -0.23144276 35 15
1.4362906 -0.095595993 0.17146458 20 27
1.4258369 -0.095411912 0.096998028 36 25
1.4138113 -0.09536536 0.03208892 8 23
1.4291927 -0.28540999 0 18 22
1.4113007 -0.095447771 -0.032030895 15 21
1.3834971 -0.093621783 -0.093576342 24 19
1.3903282 -0.094321765 -0.15551679 35 17
1.4359306 -0.10085963 0.17146458 19 27
1.4329419 -0.10115132 0.097518593 35 25
1.4134698 -0.1002999 0.03208892 25 23
1.4379331 -0.29265538 0 16 22
1.4034615 -0.10009938 -0.031856813 45 21
1.3906087 -0.099211238 -0.094094284 58 19
1.3825572 -0.098657154 -0.15466388 66 17
1.4405202 -0.10622792 0.17207046 19 27
1.4276052 -0.10579251 0.097171552 35 25
1.4106183 -0.1050519 0.032030895 51 23
1.4344554 -0.29716212 0 16 22
1.4006109 -0.10481561 -0.031798787 70 21
1.3827918 -0.1035194 -0.093576342 72 19
1.379727 -0.10330153 -0.15437956 75 17
1.4376662 -0.11106871 0.17176753 19 27
1.4322009 -0.11115261 0.097518593 36 25
1.407751 -0.10978524 0.031972867 69 23
1.4383004 -0.30320618 0 15 22
1.4052397 -0.1098405 -0.031914841 72 21
1.382422 -0.10834561 -0.093576342 72 19
1.3867878 -0.10868612 -0.15523249 72 17
1.4372898 -0.11583557 0.17176753 19 27
1.4318243 -0.11590135 0.097518593 36 25
1.4123621 -0.11484946 0.03208892 68 23
1.4446181 -0.30955648 0 14 22
1.3998652 -0.11434676 -0.031798787 73 21
1.382055 -0.1129293 -0.093576342 73 19
1.3814679 -0.11288848 -0.15466388 68 17
1.4368769 -0.12085195 0.17176753 19 27
1.4289255 -0.12069298 0.097345069 36 25
1.416913 -0.12044003 0.032204974 67 23
1.4410869 -0.31406125 0 14 22
1.4044386 -0.11964817 -0.031914841 73 21
1.3816524 -0.11775288 -0.093576342 73 19
1.3810449 -0.11795105 -0.15466388 59 17
1.4388965 -0.12633036 0.17207046 20 27
1.4259889 -0.12571469 0.097171552 34 25
1.411504 -0.12495308 0.03208892 68 23
1.4374863 -0.31879607 0 19 22
1.4089705 -0.12522882 -0.032030895 71 21
1.3836961 -0.1230326 -0.093748987 71 19
1.3929967 -0.12384913 -0.1560854 39 17
1.4409184 -0.13157375 0.17237341 19 27
1.4329933 -0.13136184 0.09769211 36 25
1.4110593 -0.12987939 0.03208892 69 23
1.4583064 -0.3287929 0 9 22
1.4085474 -0.12990044 -0.032030895 72 21
1.3807744 -0.12763667 -0.093576342 73 19
1.3900824 -0.1284866 -0.1558011 33 17
1.4404743 -0.13635127 0.17237341 18 27
1.4275833 -0.13564976 0.097345069 37 25
1.4180863 -0.13525702 0.032263003 68 23
1.4080855 -0.13481639 -0.032030895 69 21
1.3853098 -0.13268161 -0.093921639 72 19
1.3921213 -0.13332801 -0.1560854 29 17
1.4375193 -0.14114037 0.17207046 19 27
1.4295835 -0.14087246 0.097518593 39 25
1.4150933 -0.14021148 0.032204974 69 23
1.4051187 -0.1394881 -0.031972867 38 21
1.3823559 -0.13727434 -0.093748987 58 19
1.3965675 -0.13891251 -0.15665403 27 17
1.4468694 -0.14739753 0.17328222 20 27
1.4340205 -0.14661007 0.097865634 40 25
1.4170821 -0.14540108 0.032263003 68 23
1.4220042 -0.14639914 -0.032379057 12 21
1.3892875 -0.14309353 -0.094266936 33 19
1.3911316 -0.14328632 -0.1560854 27 17
1.4414093 -0.15193523 0.17267634 20 27
1.4335001 -0.15161484 0.097865634 45 25
1.4190515 -0.15060624 0.032321028 61 23
1.4214846 -0.15136196 -0.032379057 8 21
1.3838187 -0.14742252 -0.093921639 10 19
1.3955636 -0.14865893 -0.15665403 26 17
1.4354417 -0.15688454 0.098039158 53 25
1.4135474 -0.15502235 0.032204974 46 23
1.4259447 -0.15661219 -0.032495111 9 21
1.3981727 -0.15386297 -0.094957538 13 19
1.3900974 -0.15299468 -0.1560854 26 17
1.4398711 -0.16219372 0.098386198 59 25
1.4254457 -0.16109115 0.032495111 35 23
1.4154537 -0.16047955 -0.032263003 38 21
1.3976549 -0.15849864 -0.094957538 47 19
1.3994563 -0.15870586 -0.15722264 27 17
1.4368184 -0.16693519 0.098212674 68 25
1.4223626 -0.16602907 0.032437082 32 23
1.4223336 -0.16627729 -0.032437082 65 21
1.3946154 -0.16309103 -0.094784886 72 19
1.4013327 -0.16411869 -0.15750696 27 17
1.4386736 -0.17249297 0.098386198 67 25
1.4267383 -0.17158139 0.032553136 32 23
1.4117872 -0.17030902 -0.032204974 74 21
1.3915317 -0.16790701 -0.094612241 76 19
1.405684 -0.1695957 -0.15807557 31 17
1.4405384 -0.17781517 0.098559715 57 25
1.4286118 -0.17686346 0.032611165 30 23
1.4136651 -0.17553979 -0.032263003 76 21
1.3884615 -0.17246026 -0.094439581 71 19
1.4424156 -0.18290074 0.098733239 47 25
1.4280173 -0.18159994 0.032611165 30 23
1.4155548 -0.18053864 -0.032321028 76 21
1.387882 -0.17706361 -0.094439581 63 19
1.4392948 -0.18761642 0.098559715 40 25
1.4322995 -0.18747298 0.032727219 30 23
1.4173946 -0.18579938 -0.032379057 72 21
1.389729 -0.18222709 -0.094612241 40 19
1.4385974 -0.19289044 0.098559715 36 25
1.4291587 -0.19214271 0.03266919 28 23
1.4167042 -0.19099313 -0.032379057 71 21
1.4014128 -0.18896441 -0.09547548 33 19
1.4453291 -0.19891855 0.099080279 35 25
1.4334323 -0.19780518 0.032785248 26 23
1.4209815 -0.19661386 -0.032495111 68 21
1.3982737 -0.19351751 -0.095302835 27 19
1.4470959 -0.20430696 0.099253796 35 25
1.4376835 -0.20349981 0.032901302 25 23
1.4203218 -0.20132491 -0.032495111 65 21
1.4049993 -0.19943592 -0.095820785 22 19
1.4439417 -0.20875192 0.099080279 32 25
1.4320527 -0.20755757 0.032785248 24 23
1.4220841 -0.20663671 -0.032553136 66 21
1.4018614 -0.20373955 -0.09564814 20 19
1.4481395 -0.21451354 0.09942732 30 25
1.4362278 -0.21353167 0.032901302 25 23
1.4213542 -0.21159945 -0.032553136 65 21
1.4011418 -0.20863171 -0.09564814 19 19
1.4424108 -0.21907909 0.099080279 28 25
1.4354737 -0.21854377 0.032901302 24 23
1.4255118 -0.21755329 -0.03266919 57 21
1.4053 -0.2145099 -0.095993437 19 19
1.4441023 -0.22449167 0.099253796 27 25
1.4396424 -0.22431444 0.033017356 22 23
1.4222739 -0.22214644 -0.032611165 37 21
1.4020777 -0.21903332 -0.095820785 19 19
1.4363818 -0.22894911 0.032959327 22 23
1.4314044 -0.22842041 -0.032843273 28 21
1.4111586 -0.22548333 -0.096511386 18 19
1.4405497 -0.23450595 0.033075381 25 23
1.4330657 -0.23381385 -0.032901302 23 21
1.407941 -0.22976419 -0.096338734 18 19
1.4372562 -0.23912691 0.033017356 22 23
1.4273089 -0.23800096 -0.032785248 21 21
1.4363703 -0.24439313 0.033017356 20 23
1.4288913 -0.24364662 -0.032843273 23 21
1.4379716 -0.24982919 0.033075381 18 23
1.4330018 -0.24923192 -0.032959327 28 21
1.4371351 -0.25459629 0.033075381 18 23
1.4296614 -0.2537998 -0.032901302 28 21
1.4386524 -0.26030284 0.03313341 18 23
1.4312268 -0.25922999 -0.032959327 27 21
1.4426523 -0.266222 0.033249464 17 23
1.4327254 -0.26492426 -0.033017356 21 21
1.4368002 -0.27034011 0.03313341 16 23
1.431792 -0.26992381 -0.033017356 17 21
1.4456693 -0.27722025 0.033365518 15 23
1.4333445 -0.27513736 -0.033075381 16 21
1.4471959 -0.28248748 0.033423543 14 23
1.434829 -0.28061461 -0.03313341 19 21
1.4412466 -0.28682235 0.033307489 15 23
1.4338408 -0.2856214 -0.03313341 19 21
1.442687 -0.2923438 0.033365518 17 23
1.4352342 -0.29136792 -0.033191435 19 21
1.4441063 -0.29787877 0.033423543 15 23
1.4391574 -0.29712829 -0.033307489 19 21
1.4577924 -0.30571979 0.033771705 15 23
1.4737777 -0.31468633 0.034177892 18 23
1.324952 0.35779595 0 13 22
1.3262545 0.35293737 0 26 22
1.3298974 0.34893629 0 25 22
1.3213623 0.34203401 0 23 22
1.3322418 0.33987597 0 26 22
1.3310529 0.33438554 0 36 22
1.3346397 0.33033404 0 38 22
1.330925 0.32449669 0 35 22
1.3368573 0.32124183 0 34 22
1.3802572 0.32676154 0.064518042 3 24
1.3355367 0.31600168 0 34 22
1.3522488 0.31494907 0.063120544 21 24
1.3391218 0.31166735 0 34 22
1.3582098 0.31133515 0.063353457 27 24
1.3377638 0.30643675 0 35 22
1.3567979 0.30628338 0.063236997 28 24
1.3387727 0.30199885 0 35 22
1.3578589 0.30154544 0.063236997 27 24
1.3398187 0.29732388 0 37 22
1.3589549 0.29656661 0.063236997 28 24
1.3408995 0.29241118 0 39 22
1.3444132 0.2929258 -0.062538244 3 20
1.3575394 0.2913011 0.063120544 27 24
1.3394667 0.28720859 0 37 22
1.3307711 0.28511584 -0.061839495 32 20
1.3585479 0.28656062 0.063120544 26 24
1.335567 0.28150788 0 40 22
1.3195356 0.27791542 -0.061257202 69 20
1.3594908 0.28205395 0.063120544 31 24
1.3315955 0.27607033 0 48 22
1.3253423 0.27454329 -0.061490119 79 20
1.3580192 0.27681181 0.063004084 42 24
1.3325511 0.27142051 0 49 22
1.3287878 0.27017748 -0.061606579 82 20
1.3639238 0.27280438 0.063236997 42 24
1.3359894 0.26702064 0 48 22
1.3272729 0.26505238 -0.061490119 83 20
1.3648678 0.26804176 0.063236997 41 24
1.3320051 0.26140067 0 45 22
1.32819 0.26041773 -0.061490119 89 20
1.3657491 0.26351419 0.063236997 41 24
1.3377759 0.25792077 0 47 22
1.3290462 0.25601184 -0.061490119 92 20
1.3617516 0.25782391 0.063004084 48 24
1.338668 0.25324947 0 49 22
1.3324306 0.25159833 -0.061606579 82 20
1.3577753 0.25192779 0.062771164 59 24
1.3371283 0.24788959 0 47 22
1.3333007 0.24694575 -0.061606579 85 20
1.3611041 0.24762982 0.062887624 69 24
1.3330647 0.24233434 0 45 22
1.3316965 0.24184792 -0.061490119 78 20
1.3842849 0.24707705 0.13107024 10 26
1.3545827 0.24157368 0.062538244 73 24
1.3388264 0.23854871 0 52 22
1.3325326 0.23719795 -0.061490119 81 20
1.3777827 0.24096888 0.13035661 21 26
1.3652186 0.23878576 0.063004084 66 24
1.3420734 0.23453407 0 44 22
1.3358135 0.23297018 -0.061606579 83 20
1.3590795 0.23650643 -0.12071135 11 18
1.3811102 0.23633333 0.13059449 19 26
1.3685471 0.23419774 0.063120544 20 24
1.342924 0.22961356 0 47 22
1.3341562 0.2278894 -0.061490119 81 20
1.3402944 0.22821182 -0.11892302 99 18
1.3819268 0.23151091 0.13059449 19 26
1.3767469 0.23064536 0.063469917 8 24
1.3486501 0.22574197 0 48 22
1.3374074 0.22363885 -0.061606579 87 20
1.3410829 0.22353193 -0.11892302 103 18
1.377774 0.22612864 0.13011873 21 26
1.3701487 0.22463785 0.063120544 8 24
1.3420266 0.21983252 0 47 22
1.340645 0.21936831 -0.061723035 97 20
1.3393587 0.21868627 -0.11869949 106 18
1.3760971 0.22092733 0.12988086 20 26
1.3733523 0.22048497 0.063236997 8 24
1.340279 0.21498905 0 54 22
1.3388987 0.2145303 -0.061606579 98 20
1.340114 0.21400972 -0.11869949 106 18
1.3817782 0.21688657 0.13035661 21 26
1.3765813 0.21607308 0.063353457 8 24
1.350903 0.21184261 0 67 22
1.3446116 0.21038564 -0.061839495 100 20
1.3334703 0.20819029 -0.11802886 109 18
1.3776428 0.21107462 0.12988086 23 26
1.374895 0.2106519 0.063236997 8 24
1.3516705 0.20688987 0 75 22
1.3379302 0.20457047 -0.061490119 100 20
1.3366867 0.20367257 -0.11825241 107 18
1.3759093 0.20590006 0.12964298 22 26
1.3731515 0.20548569 0.063120544 8 24
1.3548576 0.20253603 0 83 22
1.3386362 0.19989897 -0.061490119 97 20
1.3373896 0.19900541 -0.11825241 106 18
1.3790475 0.20169249 0.12988086 22 26
1.3713887 0.20033416 0.063004084 8 24
1.3555562 0.19780546 0 82 22
1.3442693 0.19593742 -0.061723035 98 20
1.3355775 0.19421507 -0.11802886 109 18
1.3822074 0.19722512 0.13011873 22 26
1.3720455 0.19578539 0.063004084 8 24
1.3537291 0.1929604 0 81 22
1.3424389 0.19113061 -0.061606579 100 20
1.3411789 0.19024321 -0.11847594 105 18
1.3804221 0.19206008 0.12988086 35 26
1.3751947 0.1913351 0.063120544 9 24
1.3568712 0.18857396 0 83 22
1.338182 0.1855312 -0.061373662 100 20
1.3418348 0.18556046 -0.11847594 108 18
1.3835833 0.18732928 0.13011873 41 26
1.3734114 0.1859623 0.063004084 49 24
1.3575532 0.18359953 0 81 22
1.3462473 0.18184978 -0.061723035 99 20
1.3400377 0.18031313 -0.11825241 111 18
1.374326 0.18145286 0.12916723 54 26
1.3690995 0.18052205 0.062771164 71 24
1.3618753 0.36339965 0.031914841 5 23
1.3507487 0.17789239 0 68 22
1.3394445 0.17618448 -0.061373662 97 20
1.345567 0.17650808 -0.11869949 119 18
1.3774198 0.17696767 0.12940511 67 26
1.3672132 0.17566669 0.062654711 64 24
1.3485779 0.35503823 0.031566679 9 23
1.3562914 0.17404057 0 20 22
1.3449765 0.17236862 -0.061606579 99 20
1.341234 0.17118768 -0.11825241 110 18
1.3755592 0.17185391 0.12916723 71 26
1.377732 0.17211573 0.063120544 22 24
1.3401365 0.3478002 0.031334572 24 23
1.3668157 0.17052732 0 9 22
1.34557 0.16767271 -0.061606579 100 20
1.3442948 0.16680744 -0.11847594 106 18
1.3174427 0.1630592 -0.17959073 166 16
1.3761798 0.16681108 0.12916723 68 26
1.3733944 0.16647181 0.062887624 8 24
1.338982 0.34226277 0.031276543 31 23
1.3575021 0.16433078 0 8 22
1.3512044 0.34490734 -0.031566679 5 21
1.3486552 0.16303551 -0.061723035 96 20
1.3424246 0.16158572 -0.11825241 114 18
1.3155723 0.15793839 -0.17924669 186 16
1.3816978 0.1625801 0.12964298 25 26
1.3764477 0.16196464 0.063004084 8 24
1.3425912 0.33820155 0.031334572 28 23
1.3630342 0.16016676 0 9 22
1.3475546 0.3389608 -0.031450626 8 21
1.3392931 0.1571787 -0.061257202 76 20
1.3454541 0.15718369 -0.11847594 112 18
1.3161156 0.15334523 -0.17924669 203 16
1.3847024 0.15827604 0.12988086 8 26
1.3770046 0.15715896 0.063004084 8 24
1.3413388 0.33290663 0.031276543 28 23
1.363585 0.15540791 0 9 22
1.3389722 0.33206663 -0.031218518 19 21
1.3398336 0.15250275 -0.061257202 77 20
1.3509171 0.15327452 -0.11892302 111 18
1.311695 0.14843138 -0.1785586 225 16
1.3971982 0.15475853 0.21442139 10 28
1.3901944 0.1539817 0.13035661 7 26
1.3800009 0.1528628 0.063120544 8 24
1.3448621 0.32905507 0.031334572 28 23
1.3665781 0.1511561 0 8 22
1.3376962 0.32679325 -0.031160491 27 21
1.3428146 0.14832899 -0.061373662 77 20
1.3464929 0.14802188 -0.11847594 113 18
1.3171289 0.14438324 -0.17924669 235 16
1.4124676 0.15143725 0.21673946 19 28
1.3832986 0.14834377 0.12964298 8 26
1.3780425 0.14778242 0.063004084 8 24
1.3412014 0.32294488 0.031218518 28 23
1.3596388 0.14559837 0 8 22
1.3363998 0.32153288 -0.031102462 25 21
1.3458328 0.14366736 -0.061490119 86 20
1.3470013 0.14332086 -0.11847594 115 18
1.3151621 0.13952759 -0.17890264 247 16
1.4105561 0.14600882 0.21635312 20 28
1.386309 0.14352509 0.12988086 8 26
1.3835437 0.14323711 0.063236997 8 24
1.3447514 0.3188422 0.031276543 27 23
1.3651376 0.14112023 0 8 22
1.3327072 0.31547239 -0.030986408 25 21
1.3438417 0.13871631 -0.061373662 86 20
1.349995 0.13863322 -0.11869949 116 18
1.3156646 0.13470635 -0.17890264 244 16
1.4135152 0.14132605 0.21673946 19 28
1.3942074 0.13965958 0.13059449 9 26
1.3815502 0.13816223 0.063120544 8 24
1.3458561 0.31414619 0.031276543 29 23
1.3705978 0.13684294 0 8 22
1.3337458 0.31105125 -0.030986408 27 21
1.3468031 0.13426825 -0.061490119 82 20
1.3504473 0.13415572 -0.11869949 120 18
1.3210332 0.13082254 -0.17959073 235 16
1.4090583 0.13617043 0.21596676 17 28
1.3847762 0.13385004 0.12964298 54 26
1.3795145 0.13334376 0.063004084 8 24
1.3468904 0.30968145 0.031276543 28 23
1.3710443 0.13229711 0 8 22
1.3372586 0.30695724 -0.031044437 36 21
1.3472408 0.12980135 -0.061490119 82 20
1.3509073 0.12944095 -0.11869949 120 18
1.3264126 0.1266731 -0.18027882 205 16
1.4119847 0.13147621 0.21635312 18 28
1.3852351 0.12901545 0.12964298 74 26
1.3849454 0.12898281 0.063236997 37 24
1.3431427 0.3036319 0.031160491 31 23
1.3665184 0.12705556 0 23 22
1.3334482 0.3011775 -0.030928383 40 21
1.3501947 0.12508895 -0.061606579 81 20
1.3513509 0.12472462 -0.11869949 121 18
1.3243805 0.12181959 -0.17993478 190 16
1.4099966 0.12608403 0.21596676 20 28
1.3856987 0.12393745 0.12964298 76 26
1.375458 0.12303179 0.062771164 67 24
1.349072 0.30003542 0.031276543 32 23
1.361994 0.12160952 0 71 22
1.3345431 0.29628813 -0.030928383 45 21
1.3481352 0.12015747 -0.061490119 79 20
1.3493184 0.11955512 -0.11847594 125 18
1.3272852 0.11717833 -0.18027882 171 16
1.4153507 0.12157653 0.21673946 20 28
1.3811632 0.11868148 0.12916723 77 26
1.3783675 0.11843963 0.062887624 70 24
1.3501111 0.29532447 0.031276543 31 23
1.3649014 0.11706416 0 74 22
1.3331281 0.29109034 -0.030870354 42 21
1.3535235 0.1158688 -0.061723035 38 20
1.3472462 0.11463734 -0.11825241 129 18
1.3276861 0.11254452 -0.18027882 158 16
1.4157665 0.11663529 0.21673946 20 28
1.381569 0.1138596 0.12916723 76 26
1.3812617 0.11382865 0.063004084 63 24
1.3511338 0.2906099 0.031276543 32 23
1.3653016 0.11229905 0 27 22
1.336579 0.28696412 -0.030928383 41 21
1.3613875 0.11174426 -0.062072415 10 20
1.3501201 0.11013226 -0.11847594 128 18
1.3330076 0.10830223 -0.1809669 140 16
1.4136828 0.11174902 0.21635312 20 28
1.3893826 0.1098542 0.12988086 73 26
1.3915908 0.11001915 0.063469917 23 24
1.3496457 0.28560603 0.031218518 35 23
1.3781294 0.10873427 0 9 22
1.3399676 0.28305119 -0.030986408 40 21
1.3592606 0.10703709 -0.061955951 9 20
1.3504779 0.10565449 -0.11847594 116 18
1.3358285 0.10406946 -0.18131095 126 16
1.4140644 0.10681367 0.21635312 20 28
1.3847939 0.10463656 0.12940511 61 26
1.3672427 0.28486979 0.094742268 10 25
1.3894761 0.10497674 0.063353457 8 24
1.3457912 0.27963176 0.031102462 34 23
1.3710208 0.10337114 0 9 22
1.34584 0.27939686 -0.031102462 35 21
1.3621345 0.10223734 -0.062072415 9 20
1.3533219 0.10112131 -0.11869949 105 18
1.333714 0.099226288 -0.1809669 129 16
1.4144464 0.10163014 0.21635312 24 28
1.4000634 0.10060713 0.13083237 20 26
1.3658351 0.27935261 0.094568744 17 25
1.3898513 0.099883355 0.063353457 8 24
1.3492069 0.27543664 0.031160491 31 23
1.3738844 0.098520242 0 9 22
1.3419588 0.27345541 -0.030986408 34 21
1.3575006 0.097133562 -0.061839495 8 20
1.3511994 0.09598805 -0.11847594 100 18
1.3340685 0.094337314 -0.1809669 126 16
1.4073991 0.096198522 0.21519408 35 28
1.4003892 0.095963798 0.13083237 8 26
1.3594692 0.27309674 0.094048187 19 25
1.3951752 0.095364012 0.063586377 8 24
1.3501602 0.27072534 0.031160491 32 23
1.3767145 0.093890004 0 9 22
1.3428582 0.26900381 -0.030986408 40 21
1.3603231 0.092559919 -0.061955951 8 20
1.3564794 0.091835096 -0.11892302 88 18
1.3393159 0.090237632 -0.18165499 121 16
1.4101753 0.09168727 0.21558043 62 28
1.3957484 0.090759806 0.13035661 8 26
1.3701507 0.27053666 0.094742268 19 25
1.3904991 0.090420686 0.063353457 8 24
1.3485992 0.26575899 0.031102462 34 23
1.3770182 0.089324139 0 9 22
1.3413376 0.26382801 -0.030928383 44 21
1.3656073 0.088362895 -0.062188867 9 20
1.3287849 0.26132947 -0.091331884 25 19
1.3617619 0.087410495 -0.1193701 84 18
1.3396227 0.085561991 -0.18165499 119 16
1.4030901 0.086320959 0.21442139 64 28
1.4035091 0.086333863 0.13107024 8 26
1.3661917 0.26479462 0.094395228 18 25
1.3858207 0.085267574 0.063120544 8 24
1.3544705 0.26177156 0.031218518 33 23
1.3773217 0.084516905 0 9 22
1.3373441 0.25818792 -0.030812329 50 21
1.3684149 0.083505206 -0.062305331 9 20
1.3296891 0.25668958 -0.091331884 52 19
1.3595731 0.082509734 -0.11914656 82 18
1.3349694 0.080595061 -0.1809669 117 16
1.4058632 0.081316538 0.21480775 66 28
1.4038161 0.08118917 0.13107024 9 26
1.367153 0.25978547 0.094395228 19 25
1.3911105 0.08046826 0.063353457 8 24
1.355376 0.25704196 0.031218518 33 23
1.3776222 0.079468198 0 9 22
1.3382813 0.25328454 -0.030812329 60 21
1.3637112 0.078449242 -0.062072415 9 20
1.3281711 0.25134608 -0.091159232 81 19
1.3598664 0.077526085 -0.11914656 84 18
1.3327832 0.075565547 -0.18062288 115 16
1.4036719 0.07627853 0.21442139 65 28
1.3941503 0.075763986 0.13011873 50 26
1.3705024 0.25547296 0.094568744 18 25
1.3913829 0.075611889 0.063353457 8 24
1.3538085 0.25184777 0.031160491 36 23
1.3778912 0.074658915 0 9 22
1.3391573 0.24861152 -0.030812329 61 21
1.358989 0.073427126 -0.061839495 9 20
1.3265892 0.24624874 -0.090986587 89 19
1.3601288 0.072778806 -0.11914656 81 18
1.3379848 0.071167678 -0.18131095 117 16
1.4063965 0.071499854 0.21480775 65 28
1.3919207 0.0707746 0.12988086 73 26
1.3689333 0.25023472 0.094395228 19 25
1.3916384 0.070754588 0.063353457 32 24
1.3497635 0.24621479 0.031044437 41 23
1.3806403 0.069971278 0 10 22
1.3424749 0.24438751 -0.030870354 60 21
1.3667198 0.069048896 -0.062188867 9 20
1.3323466 0.24251875 -0.091331884 96 19
1.3603745 0.068030618 -0.11914656 81 18
1.3357517 0.066378005 -0.1809669 111 16
1.4066377 0.066590182 0.21480775 68 28
1.3921477 0.066158436 0.12988086 74 26
1.3673443 0.24501047 0.094221704 19 25
1.3843929 0.065553971 0.063004084 68 24
1.3506148 0.24150173 0.031044437 57 23
1.3708866 0.064696148 0 53 22
1.3432779 0.23993436 -0.030870354 60 21
1.3619632 0.064051159 -0.061955951 45 20
1.3356394 0.23830901 -0.091504529 93 19
1.36308 0.063631162 -0.1193701 81 18
1.3334907 0.061837524 -0.18062288 108 16
1.4068506 0.061925232 0.21480775 68 28
1.3973429 0.061509561 0.13035661 73 26
1.3706049 0.24091095 0.094395228 22 25
1.3870978 0.061068684 0.063120544 71 24
1.3538692 0.23745775 0.031102462 62 23
1.3760891 0.06036089 0 75 22
1.3441074 0.23524398 -0.030870354 61 21
1.3696533 0.059849415 -0.062305331 76 20
1.3339665 0.23344421 -0.091331884 90 19
1.3632939 0.058872737 -0.1193701 80 18
1.3361726 0.057284363 -0.1809669 112 16
1.4095263 0.057110135 0.21519408 65 28
1.3950623 0.056534708 0.13011873 68 26
1.3738945 0.23655264 0.094568744 27 25
1.3873025 0.056226432 0.063120544 72 24
1.3571523 0.23315799 0.031160491 65 23
1.3737932 0.055460233 0 73 22
1.3449204 0.23055074 -0.030870354 64 21
1.3623675 0.054779161 -0.061955951 42 20
1.3323157 0.22836056 -0.091159232 94 19
1.3585147 0.053924166 -0.11892302 46 18
1.3413134 0.052806552 -0.18165499 107 16
1.4097261 0.051943582 0.21519408 65 28
1.3977474 0.051508892 0.13035661 67 26
1.3722937 0.23109701 0.094395228 35 25
1.3899949 0.051229361 0.063236997 65 24
1.3604617 0.22860074 0.031218518 67 23
1.3789843 0.050600026 0 29 22
1.3432922 0.22520214 -0.030812329 62 21
1.3600636 0.049698312 -0.061839495 10 20
1.3356028 0.22389264 -0.091331884 96 19
1.3686572 0.04928698 -0.11981718 11 18
1.3439726 0.0479743 -0.18199904 104 16
1.4098989 0.047022402 0.21519408 66 28
1.400406 0.046708565 0.13059449 66 26
1.3632518 0.22466578 0.093701147 40 25
1.4001493 0.046694316 0.063702829 21 24
1.3612515 0.22385046 0.031218518 66 23
1.3741549 0.045628238 0 9 22
1.3440701 0.22051181 -0.030812329 68 21
1.3677168 0.045185827 -0.062188867 8 20
1.3363762 0.21922915 -0.091331884 97 19
1.3762873 0.044739902 -0.1204878 9 18
1.3391818 0.04313143 -0.18131095 98 16
1.4100544 0.042100649 0.21519408 65 28
1.3980657 0.041993607 0.13035661 52 26
1.3640277 0.21990576 0.093701147 52 25
1.3953111 0.041665398 0.063469917 8 24
1.3570907 0.21829478 0.031102462 50 23
1.381803 0.041041985 0 8 22
1.349728 0.21685529 -0.030928383 70 21
1.36537 0.040341601 -0.062072415 8 20
1.3297478 0.21336415 -0.090813935 97 19
1.3739392 0.040107071 -0.12026427 9 18
1.3393176 0.038690306 -0.18131095 87 16
1.4519502 0.037978202 0.32804602 7 30
1.4101863 0.037424508 0.21519408 65 28
1.410643 0.037423719 0.13154599 14 26
1.3672121 0.21577442 0.093874656 62 25
1.3979384 0.037100472 0.063586377 8 24
1.3578072 0.21379332 0.031102462 28 23
1.3794322 0.036397584 0 8 22
1.3504767 0.21214253 -0.030928383 71 21
1.3629996 0.035752196 -0.061955951 8 20
1.3378373 0.21012771 -0.091331884 99 19
1.3740709 0.035310883 -0.12026427 9 18
1.3369688 0.033956207 -0.1809669 80 16
1.4472039 0.032806855 0.32691872 12 30
1.4103084 0.032501813 0.21519408 63 28
1.408277 0.032446008 0.13130812 8 26
1.3704213 0.21138522 0.094048187 64 25
1.4005558 0.032274138 0.063702829 8 24
1.3659906 0.20996752 0.031276543 32 23
1.3795509 0.031582247 0 8 22
1.351209 0.2074272 -0.030928383 69 21
1.3656183 0.030808616 -0.062072415 8 20
1.3385627 0.20545651 -0.091331884 99 19
1.3667172 0.03036043 -0.11959364 9 18
1.3406039 0.20552789 -0.15125217 47 17
1.339555 0.029339239 -0.18131095 76 16
1.4448791 0.027459862 0.32635507 12 30
1.4178269 0.027464464 0.21635312 63 28
1.3890065 0.20956483 0.16722341 9 27
1.4133631 0.027372804 0.13178387 8 26
1.3662558 0.20560992 0.093701147 65 25
1.3981681 0.027096175 0.063586377 8 24
1.3593023 0.20407169 0.031102462 54 23
1.3871561 0.026657928 0 8 22
1.349489 0.20209876 -0.030870354 68 21
1.3682144 0.02608511 -0.062188867 8 20
1.3393068 0.20054904 -0.091331884 100 19
1.3792676 0.025561724 -0.12071135 9 18
1.3290347 0.19898571 -0.14983062 101 17
1.3421295 0.024470383 -0.18165499 83 16
1.4547077 0.022552153 0.3286097 10 30
1.4228535 0.022585852 0.2171258 40 28
1.3848207 0.20398314 0.16661753 17 27
1.4159344 0.02272182 0.13202174 10 26
1.3694319 0.20120642 0.093874656 65 25
1.405745 0.022322707 0.063935749 8 24
1.3649509 0.20005925 0.031218518 66 23
1.3822412 0.021745004 0 8 22
1.3476795 0.19725618 -0.030812329 65 21
1.3707943 0.021343863 -0.062305331 8 20
1.3399987 0.19587278 -0.091331884 99 19
1.376855 0.020953869 -0.1204878 9 18
1.3370923 0.1954364 -0.15068354 110 17
1.3372512 0.019953897 -0.1809669 87 16
1.4499035 0.017676182 0.3274824 10 30
1.4229205 0.017867377 0.2171258 28 28
1.3781224 0.19831637 0.16570871 19 27
1.406051 0.017669693 0.13107024 53 26
1.3700917 0.19666411 0.093874656 65 25
1.4033142 0.017633507 0.063819289 8 24
1.3656067 0.19553182 0.031218518 67 23
1.379806 0.017134156 0 8 22
1.3508333 0.19290847 -0.030870354 60 21
1.3708575 0.016798027 -0.062305331 8 20
1.3381724 0.19107108 -0.091159232 99 19
1.3769196 0.016147621 -0.1204878 9 18
1.3352747 0.19064581 -0.15039924 117 17
1.3397887 0.015310099 -0.18131095 85 16
1.4596987 0.012684683 0.32973701 10 30
1.4353237 0.012993033 0.21905755 22 28
1.38372 0.19420308 0.16631459 18 27
1.4036157 0.012742875 0.13083237 70 26
1.3732392 0.19223055 0.094048187 65 25
1.4033673 0.012734918 0.063819289 29 24
1.3638395 0.19017571 0.031160491 68 23
1.3898571 0.012390931 0 9 22
1.3514985 0.18819202 -0.030870354 56 21
1.3709098 0.011773471 -0.062305331 8 20
1.3437704 0.18709563 -0.091504529 99 19
1.3819475 0.011374203 -0.12093488 9 18
1.333505 0.18540397 -0.15011492 119 17
1.3373578 0.010617713 -0.1809669 86 16
1.4597353 0.0073345345 0.32973701 10 30
1.4304217 0.0077132527 0.21828485 21 28
1.3819644 0.18878998 0.16601165 19 27
1.4061414 0.0076078367 0.13107024 66 26
1.3714638 0.186855 0.093874656 66 25
1.39841 0.0075720567 0.063586377 65 24
1.364495 0.18541387 0.031160491 67 23
1.3873932 0.0072876047 0 40 22
1.3497032 0.18289721 -0.030812329 62 21
1.3734398 0.0069967471 -0.062421788 21 20
1.3370347 0.18115118 -0.090986587 99 19
1.3695301 0.0062720971 -0.11981718 37 18
1.3390656 0.18142393 -0.15068354 122 17
1.339864 0.0057224627 -0.18131095 85 16
1.4621876 0.0022390625 0.33030063 10 30
1.43291 0.0027209644 0.21867119 21 28
1.3875337 0.18462814 0.16661753 19 27
1.4036709 0.0026985721 0.13083237 66 26
1.3696361 0.18173414 0.093701147 65 25
1.398428 0.0026906491 0.063586377 68 24
1.3651339 0.18064976 0.031160491 67 23
1.3749101 0.0024424726 0 71 22
1.3552879 0.17884758 -0.030928383 68 21
1.3709586 0.0022025055 -0.062305331 65 20
1.3426028 0.17714438 -0.091331884 100 19
1.3695437 0.0014915075 -0.11981718 72 18
1.3372289 0.17641927 -0.15039924 121 17
1.3398758 0.0010454297 -0.18131095 81 16
1.4621866 -0.0028649385 0.33030063 10 30
1.4353808 -0.0022886016 0.21905755 19 28
1.3881698 0.17978363 0.16661753 18 27
1.4036717 -0.0022011704 0.13083237 66 26
1.3727348 0.1772759 0.093874656 66 25
1.3984288 -0.0021907922 0.063586377 70 24
1.3632779 0.17555983 0.031102462 66 23
1.3774103 -0.0023651649 0 72 22
1.3509471 0.17347012 -0.030812329 72 21
1.3784498 -0.0026091984 -0.062654711 75 20
1.3432131 0.17245676 -0.091331884 100 19
1.3720305 -0.0032990968 -0.12004072 74 18
1.3378365 0.17175041 -0.15039924 119 17
1.3522521 -0.0036856376 -0.18303116 40 16
1.4646046 -0.0077302875 0.33086431 11 30
1.4353653 -0.0070484835 0.21905755 20 28
1.3838353 0.17454953 0.16601165 19 27
1.4136112 -0.0069201849 0.13178387 68 26
1.3733152 0.17272279 0.093874656 66 25
1.3984138 -0.0068281377 0.063586377 68 24
1.3638525 0.17103806 0.031102462 65 23
1.3773948 -0.006932809 0 64 22
1.3515149 0.16898926 -0.030812329 73 21
1.3784336 -0.0071802894 -0.062654711 36 20
1.3437775 0.16800155 -0.091331884 100 19
1.3720119 -0.0078488952 -0.12004072 38 18
1.3433266 0.1679382 -0.15096785 121 17
1.3571848 -0.0082078781 -0.18371925 11 16
1.4353319 -0.0120588 0.21905755 20 28
1.3868986 0.17002425 0.16631459 18 27
1.4061127 -0.011780292 0.13107024 70 26
1.3739097 0.16792797 0.093874656 65 25
1.4008787 -0.011734313 0.063702829 53 24
1.3669508 0.16634448 0.031160491 65 23
1.3848618 -0.011816693 0 20 22
1.3545769 0.16457644 -0.030870354 72 21
1.3709065 -0.012153998 -0.062305331 9 20
1.3443558 0.16330986 -0.091331884 102 19
1.3794458 -0.012718895 -0.12071135 9 18
1.3439331 0.16301353 -0.15096785 125 17
1.3546718 -0.01291763 -0.18337521 9 16
1.4377477 -0.017353097 0.21944387 20 28
1.3825852 0.16434532 0.16570871 19 27
1.4110368 -0.017001631 0.13154599 66 26
1.3745159 0.16289119 0.093874656 48 25
1.4083174 -0.016970702 0.064052209 13 24
1.3650416 0.16127425 0.031102462 58 23
1.3798097 -0.016823448 0 8 22
1.3576529 0.15990737 -0.030928383 66 21
1.37585 -0.017009016 -0.062538244 8 20
1.3474216 0.15867761 -0.091504529 102 19
1.3769002 -0.017738661 -0.1204878 8 18
1.3370954 0.15743649 -0.15011492 130 17
1.3546154 -0.017882662 -0.18337521 9 16
1.4376785 -0.022371667 0.21944387 22 28
1.3856152 0.15980689 0.16601165 21 27
1.4134573 -0.021969531 0.13178387 43 26
1.3825077 0.15896 0.094395228 20 25
1.4107465 -0.021929253 0.064168662 8 24
1.3705612 0.15708639 0.031218518 32 23
1.384742 -0.021726171 0 8 22
1.3606853 0.15545543 -0.030986408 39 21
1.3782791 -0.021855108 -0.062654711 8 20
1.34549 0.15368575 -0.091331884 104 19
1.3768299 -0.022544831 -0.1204878 8 18
1.3376368 0.15276821 -0.15011492 133 17
1.3520689 -0.022565667 -0.18303116 9 16
1.4351223 -0.027339103 0.21905755 24 28
1.3886302 0.15524927 0.16631459 26 27
1.4233291 -0.026859865 0.13273539 9 26
1.3830541 0.15413317 0.094395228 8 25
1.4081647 -0.026802117 0.064052209 8 24
1.3760685 0.15286195 0.031334572 10 23
1.3821582 -0.026507769 0 8 22
1.3661608 0.15150216 -0.031102462 31 21
1.3732007 -0.026561465 -0.062421788 8 20
1.3435398 0.14870931 -0.091159232 104 19
1.3817264 -0.027216472 -0.12093488 8 18
1.3455664 0.14893121 -0.15096785 132 17
1.349511 -0.026995583 -0.18268713 9 16
1.4325544 -0.032038931 0.21867119 25 28
1.3891374 0.15064356 0.16631459 36 27
1.4207387 -0.031768546 0.1324975 8 26
1.3909947 0.15036307 0.094915785 9 25
1.4105644 -0.031531319 0.064168662 8 24
1.3691143 0.14748162 0.031160491 27 23
1.3820627 -0.031091025 0 8 22
1.3567427 0.14564754 -0.030870354 54 21
1.3780982 -0.031236179 -0.062654711 8 20
1.3489841 0.14479445 -0.091504529 104 19
1.3741553 -0.031854313 -0.12026427 8 18
1.3460529 0.14446834 -0.15096785 136 17
1.3494086 -0.031706087 -0.18268713 8 16
1.4349029 -0.037106961 0.21905755 25 28
1.3822521 0.14500383 0.16540577 41 27
1.4206192 -0.036727656 0.1324975 23 26
1.3840714 0.14471553 0.094395228 25 25
1.4154385 -0.036591753 0.064401582 8 24
1.3671602 0.14219958 0.031102462 50 23
1.3919418 -0.036190864 0 8 22
1.3597286 0.1411733 -0.030928383 71 21
1.3779746 -0.03628695 -0.062654711 8 20
1.3470012 0.13982275 -0.091331884 103 19
1.3790138 -0.036791604 -0.12071135 8 18
1.3441033 0.13927336 -0.15068354 139 17
1.3542402 -0.036557946 -0.18337521 8 16
1.4322884 -0.042289168 0.21867119 25 28
1.3852427 0.14019085 0.16570871 54 27
1.4155002 -0.041779637 0.13202174 61 26
1.3895541 0.14015093 0.094742268 44 25
1.4152949 -0.04177935 0.064401582 8 24
1.3701347 0.13768074 0.031160491 68 23
1.3893011 -0.04121425 0 8 22
1.3577503 0.13593525 -0.030870354 72 21
1.3803355 -0.041175198 -0.062771164 8 20
1.3524669 0.13539059 -0.091677189 98 19
1.3813583 -0.041925207 -0.12093488 8 18
1.3421104 0.13432886 -0.15039924 146 17
1.354097 -0.04152124 -0.18337521 9 16
1.3506485 0.13565706 -0.23058398 99 15
1.4370689 -0.047459207 0.21944387 24 28
1.3857237 0.13535461 0.16570871 59 27
1.4153539 -0.046473373 0.13202174 67 26
1.3801078 0.13431576 0.094048187 65 25
1.4176363 -0.04680568 0.064518042 36 24
1.3730942 0.13314287 0.031218518 69 23
1.3941458 -0.046237193 0 8 22
1.3557065 0.13118686 -0.030812329 73 21
1.3801835 -0.045993216 -0.062771164 9 20
1.3504493 0.13042454 -0.091504529 85 19
1.3812116 -0.046505727 -0.12093488 8 18
1.3450429 0.12988643 -0.15068354 150 17
1.3539519 -0.046011358 -0.18337521 9 16
1.3388592 0.12973137 -0.22843701 99 15
1.4418402 -0.052411489 0.22021657 19 28
1.3886352 0.13099606 0.16601165 62 27
1.41767 -0.051507834 0.13225962 62 26
1.3805457 0.12973844 0.094048187 67 25
1.4099869 -0.051222801 0.064168662 63 24
1.3710401 0.12835141 0.031160491 69 23
1.3939848 -0.050860092 0 37 22
1.3611324 0.12692679 -0.030928383 72 21
1.3825188 -0.050665248 -0.062887624 10 20
1.3483915 0.12570958 -0.091331884 73 19
1.3860171 -0.051519681 -0.12138196 11 18
1.3479388 0.12566042 -0.15096785 160 17
1.3636802 -0.051124386 -0.18475139 9 16
1.32212 0.12365343 -0.22543128 126 15
1.4441162 -0.057546269 0.22060291 19 28
1.3890841 0.12614803 0.16601165 61 27
1.414995 -0.056353193 0.13202174 53 26
1.38099 0.12491862 0.094048187 69 25
1.4073043 -0.056040991 0.064052209 67 24
1.3739902 0.12355369 0.031218518 70 23
1.3863052 -0.055414241 0 68 22
1.364056 0.12240259 -0.030986408 71 21
1.3773336 -0.055522945 -0.062654711 56 20
1.3537893 0.12145671 -0.091677189 70 19
1.3783655 -0.056042057 -0.12071135 59 18
1.3508637 0.1209451 -0.15125217 174 17
1.3634936 -0.055884209 -0.18475139 21 16
1.3274695 0.11925665 -0.22629006 127 15
1.4438957 -0.06283883 0.22060291 19 28
1.3920087 0.12127566 0.16631459 60 27
1.4222373 -0.061875105 0.13273539 37 26
1.3814386 0.11985621 0.094048187 67 25
1.4095842 -0.061311051 0.064168662 67 24
1.3744131 0.11875682 0.031218518 68 23
1.3910878 -0.060720876 0 72 22
1.3595159 0.11696485 -0.030870354 72 21
1.3821208 -0.060556963 -0.062887624 74 20
1.351741 0.11627579 -0.091504529 72 19
1.3806382 -0.061207902 -0.12093488 73 18
1.3512777 0.11622898 -0.15125217 192 17
1.3533853 -0.060423341 -0.18337521 71 16
1.3278778 0.11462219 -0.22629006 126 15
1.4412004 -0.067758791 0.22021657 19 28
1.3973687 0.11683812 0.16692047 49 27
1.4244983 -0.06695997 0.13297325 31 26
1.3793635 0.11482205 0.093874656 66 25
1.4118559 -0.066352174 0.064285129 70 24
1.3723289 0.11374763 0.031160491 67 23
1.3883703 -0.065454625 0 71 22
1.3673874 0.11284856 -0.031044437 71 21
1.3794066 -0.065259099 -0.062771164 64 20
