# .PCD v0.7 - Point Cloud Data file format
VERSION 0.7
FIELDS x y z intensity ring
SIZE 4 4 4 4 2
TYPE F F F F U
COUNT 1 1 1 1 1
WIDTH 1323
HEIGHT 1
VIEWPOINT 0 0 0 1 0 0 0
POINTS 1323
DATA ascii
-1.1567643 0.35326749 -1.1228889 4 4
-0.79034185 0.10899422 -0.8096472 4 3
-1.1795663 0.36599782 -1.4177042 1 2
nan nan nan 0 1
nan nan nan 0 0
-0.91059166 0.14057489 0.23653826 39 31
-1.1252817 0.32885435 0.26322594 101 30
-0.9198575 0.14277652 0.17286235 38 29
-1.1241887 0.3281256 0.17771864 99 28
-0.91470605 0.14278358 0.1087558 40 27
-1.1205534 0.32685745 0.10823404 97 26
-0.92152005 0.14415193 0.062467426 39 25
-1.1290535 0.32957464 0.053221561 98 24
-0.9134959 0.14323872 0.020657606 41 23
-1.1349826 0.33153251 0 97 22
-0.91841108 0.1441603 -0.02077366 41 21
-1.1241471 0.32855853 -0.052988645 99 20
-0.91651112 0.14403717 -0.061808724 42 19
-1.139955 0.33363697 -0.1034988 98 18
-0.9202472 0.14462039 -0.1026354 47 17
-1.1218491 0.32872027 -0.15757194 99 16
-0.90795672 0.14241599 -0.15415205 48 15
-0.2783497 0.08025483 -0.072910503 5 13
-0.90120476 0.14107187 -0.2009251 45 14
nan nan nan 0 12
-0.76280653 0.11810938 -0.29806951 5 11
-1.1439956 0.34224156 -0.61557454 13 9
-0.85082793 0.13072042 -0.38794708 6 10
-1.1417818 0.34369072 -0.69962162 14 8
-0.86175889 0.12868117 -0.56609941 7 7
-1.1483991 0.34953007 -0.88756955 5 6
-0.85020798 0.12365612 -0.69781387 6 5
-1.1590371 0.35817635 -1.126344 4 4
-0.78318167 0.11068136 -0.80236948 4 3
-1.1783462 0.36990741 -1.4177042 1 2
nan nan nan 0 1
nan nan nan 0 0
-0.91966844 0.14507356 0.23911633 38 31
-1.124185 0.33258414 0.26322594 99 30
-0.92665517 0.14696032 0.17428313 38 29
-1.1183596 0.33044297 0.17694594 99 28
-0.92403412 0.14735349 0.10996757 40 27
-1.1170202 0.3300572 0.10799617 98 26
-0.92350072 0.14759414 0.06264095 43 25
-1.1231672 0.33189249 0.052988645 97 24
-0.9228915 0.1478225 0.020889714 40 23
-1.1266888 0.33315432 0 97 22
-0.92777729 0.14892401 -0.021005768 41 21
-1.120658 0.33157152 -0.052872188 98 20
-0.9160285 0.14707565 -0.061808724 43 19
-1.1363976 0.3369019 -0.10327526 97 18
-0.91976261 0.14767122 -0.1026354 44 17
-1.1159497 0.3312161 -0.15688387 97 16
-0.90747947 0.14542609 -0.15415205 49 15
-0.26887444 0.07841152 -0.070159167 5 13
-0.91033596 0.14573157 -0.2031576 43 14
nan nan nan 0 12
-0.79445368 0.12574086 -0.3111921 5 11
-1.1449058 0.34687722 -0.61674708 10 9
-0.84815329 0.13319692 -0.38688421 6 10
-1.1344393 0.34579009 -0.69574207 11 8
-0.85723209 0.1309261 -0.56329697 7 7
-1.1490716 0.35412642 -0.88908422 5 6
-0.857324 0.12772232 -0.70427519 6 5
-1.1543328 0.3611331 -1.1228889 4 4
-0.78109288 0.11317531 -0.80055004 4 3
-1.1939694 0.37943828 -1.4386932 1 2
nan nan nan 0 1
nan nan nan 0 0
-0.91915643 0.14828293 0.23911633 38 31
-1.1206853 0.33580264 0.26266229 99 30
-0.92856073 0.15058059 0.17475672 38 29
-1.1195642 0.33505741 0.17733228 98 28
-0.9259643 0.15097098 0.11027051 39 27
-1.1134785 0.33323622 0.10775829 97 26
-0.93036693 0.15200406 0.063161507 40 25
-1.1220018 0.33581105 0.052988645 96 24
-0.92727828 0.15199982 0.021005768 40 23
-1.1255192 0.33708516 0 97 22
-0.92231703 0.15136506 -0.020889714 44 21
-1.1170444 0.33495495 -0.052755725 97 20
-0.92043382 0.1510672 -0.062154025 40 19
-1.1280642 0.33870503 -0.10260464 97 18
-0.92411911 0.15183385 -0.10320401 44 17
-1.1171569 0.33582681 -0.1572279 97 16
-0.91666615 0.15031946 -0.15586962 47 15
-0.26398653 0.077996649 -0.068783499 4 13
-0.90741575 0.14852126 -0.20259948 45 14
nan nan nan 0 12
-0.79627639 0.12901519 -0.31212941 5 11
-1.1352497 0.34826431 -0.61205697 9 9
-0.85660017 0.13771433 -0.39113569 6 10
-1.1392933 0.3518523 -0.69962162 11 8
-0.87107199 0.13626181 -0.57310557 7 7
-1.1401767 0.35594857 -0.88302571 5 6
-0.85873717 0.13114539 -0.70589048 6 5
-1.15128 0.36481184 -1.1211613 4 4
-0.78915715 0.11726454 -0.8096472 4 3
-1.1895643 0.38260749 -1.434877 1 2
nan nan nan 0 1
nan nan nan 0 0
-0.92814398 0.1531989 0.24169442 38 31
-1.1147885 0.33848369 0.26153499 98 30
-0.93527061 0.1551692 0.17617752 38 29
-1.1159664 0.33843726 0.17694594 98 28
-0.92785364 0.1547657 0.11057345 39 27
-1.1074892 0.3358615 0.10728253 96 26
-0.93964726 0.157032 0.063855588 40 25
-1.1183752 0.33919188 0.052872188 96 24
-0.93167418 0.15604866 0.021121822 41 23
-1.1218852 0.34047762 0 96 22
-0.93655151 0.15718855 -0.021237876 40 21
-1.1134804 0.33812198 -0.052639272 96 20
-0.92725593 0.1556592 -0.062671974 41 19
-1.1268152 0.34283736 -0.10260464 97 18
-0.92848462 0.15586832 -0.10377263 44 17
-1.1135511 0.33919311 -0.15688387 96 16
-0.92342597 0.15471995 -0.15715779 45 15
-0.2522282 0.075377993 -0.065344326 5 13
-0.91648346 0.15342975 -0.20483197 47 14
nan nan nan 0 12
-0.78895819 0.13067989 -0.30931744 5 11
-1.1339656 0.35242289 -0.61205697 9 9
-0.84494442 0.13890249 -0.38582134 5 10
-1.1319358 0.35389906 -0.69574207 9 8
-0.87468207 0.13994294 -0.57590812 7 7
-1.1446129 0.36173648 -0.88756955 5 6
-0.86770511 0.13558359 -0.71396703 6 5
-1.1568776 0.37105119 -1.1280714 4 4
-0.80739927 0.1227834 -0.82966095 4 3
-1.1789455 0.38394263 -1.4234285 1 2
nan nan nan 0 1
nan nan nan 0 0
-0.9276036 0.15643781 0.24169442 38 31
-1.1136003 0.34237298 0.26153499 98 30
-0.9419871 0.15964462 0.17759831 38 29
-1.1124184 0.34160104 0.1765596 98 28
-0.93709731 0.15964527 0.11178521 39 27
-1.1039917 0.3387976 0.10704467 96 26
-0.94401234 0.16113773 0.064202629 40 25
-1.1171843 0.34309366 0.052872188 96 24
-0.94098234 0.16096023 0.021353928 40 23
-1.1206899 0.34439161 0 96 22
-0.94095421 0.16112445 -0.021353928 40 21
-1.1122934 0.34200671 -0.052639272 96 20
-0.93408471 0.16014019 -0.063189924 42 19
-1.1209154 0.34509781 -0.10215756 96 18
-0.94018054 0.16117521 -0.10519417 43 17
-1.1100552 0.34215 -0.15653981 96 16
-0.93016624 0.15916947 -0.15844597 44 15
-0.24278592 0.073394179 -0.062592983 5 13
-0.92558229 0.1580836 -0.20706448 42 14
-0.22789475 0.068976827 -0.070280924 5 12
-0.79537982 0.13443223 -0.31212941 4 11
-1.1159509 0.35084912 -0.60267681 8 9
-0.86901397 0.14589924 -0.39751291 5 10
-1.1327946 0.35830018 -0.69703525 8 8
-0.88440955 0.14463432 -0.58291423 7 7
-1.1490866 0.36735916 -0.89211345 4 6
-0.8766768 0.13993298 -0.72204351 6 5
-1.1487701 0.37263981 -1.1211613 4 4
-0.80190212 0.12468922 -0.8242026 4 3
-1.1899306 0.39192048 -1.4386932 1 2
nan nan nan 0 1
nan nan nan 0 0
-0.93898767 0.16152921 0.24491701 38 31
-1.1124588 0.34606391 0.26153499 98 30
-0.94387239 0.16317937 0.1780719 38 29
-1.106565 0.34381333 0.1757869 97 28
-0.94145477 0.16358902 0.11239109 39 27
-1.1051775 0.3433921 0.10728253 96 26
-0.9459309 0.16468878 0.064376153 39 25
-1.1160405 0.34679648 0.052872188 95 24
-0.94290656 0.16450301 0.021411955 40 23
-1.1195416 0.34810609 0 96 22
-0.94531214 0.16525625 -0.021469982 41 21
-1.1111531 0.34569329 -0.052639272 96 20
-0.94092202 0.16450649 -0.063707873 41 19
-1.1220797 0.34975392 -0.1023811 97 18
-0.94208866 0.16471355 -0.10547848 45 17
-1.1064918 0.34528062 -0.15619577 97 16
-0.93206054 0.16267022 -0.15887536 51 15
-0.2562933 0.078540191 -0.066719994 5 13
-0.92982852 0.16213806 -0.20818074 45 14
nan nan nan 0 12
-0.78576535 0.13566019 -0.30838013 5 11
-1.1147194 0.35474235 -0.60267681 8 9
-0.86406249 0.14802936 -0.39538717 5 10
-1.1315372 0.36225218 -0.69703525 8 8
-0.87983871 0.14689717 -0.58011174 6 7
-1.1496885 0.37198427 -0.89362812 4 6
-0.87618297 0.14299229 -0.72204351 6 5
-1.1508937 0.37778234 -1.1246164 3 4
-0.80315626 0.12775052 -0.82602209 4 3
-1.1885552 0.39607173 -1.4386932 1 2
nan nan nan 0 1
nan nan nan 0 0
-0.93841809 0.1648059 0.24491701 38 31
-1.1066005 0.34847295 0.26040769 98 30
-0.9553895 0.16857488 0.18043987 38 29
-1.1077129 0.34841949 0.17617325 97 28
-0.94821173 0.16815557 0.11329992 39 27
-1.1015996 0.34649658 0.10704467 96 26
-0.95026344 0.16884986 0.064723194 38 25
-1.1124424 0.34993625 0.052755725 95 24
-0.94722062 0.16882239 0.021528009 39 23
-1.1159365 0.35125682 0 95 22
-0.95211434 0.16985315 -0.021644065 40 21
-1.1074982 0.34900841 -0.052522808 96 20
-0.94525486 0.16865352 -0.06405317 40 19
-1.1161057 0.35216114 -0.10193402 96 18
-0.94881725 0.16945674 -0.10633141 45 17
-1.1052797 0.34914088 -0.15619577 97 16
-0.93873531 0.16736323 -0.16016355 49 15
-0.25829309 0.080210976 -0.067407824 5 13
-0.93405753 0.16622409 -0.20929699 40 14
-0.23190702 0.072009861 -0.071915366 5 12
-0.78069544 0.13774867 -0.30650547 5 11
-1.1134742 0.35863128 -0.60267681 8 9
-0.87689453 0.15349688 -0.40176439 5 10
-1.1342695 0.36772501 -0.69962162 7 8
-0.88950413 0.1518313 -0.58711797 7 7
-1.142651 0.37432599 -0.88908422 4 6
-0.88318515 0.1474348 -0.72850478 5 5
-1.1460742 0.38085064 -1.1211613 4 4
nan nan nan 0 3
nan nan nan 0 2
nan nan nan 0 1
nan nan nan 0 0
-0.94494367 0.16950509 0.24685055 38 31
-1.1076349 0.35327104 0.26097134 98 30
-0.95959902 0.17293385 0.18138707 38 29
-1.1040764 0.3517229 0.1757869 97 28
-0.95491797 0.17293791 0.11420874 38 27
-1.0979525 0.34977189 0.10680678 97 26
-0.9570033 0.17364882 0.065243758 39 25
-1.1040182 0.35172346 0.052406352 96 24
-0.95154583 0.17300954 0.021644065 39 23
-1.1098807 0.3538169 0 96 22
-0.9539454 0.17378342 -0.021702092 40 21
-1.1062731 0.35287216 -0.052522808 96 20
-0.9495399 0.17299852 -0.064398475 40 19
-1.1148075 0.35624948 -0.10193402 96 18
-0.95555395 0.17408463 -0.10718434 44 17
-1.1039927 0.35318959 -0.15619577 97 16
-0.94299382 0.17150789 -0.16102234 49 15
-0.25343797 0.079632238 -0.066032156 4 13
-0.93823957 0.17050536 -0.21041323 44 14
-0.23614854 0.074278355 -0.073549807 5 12
-0.79162127 0.14248922 -0.3111921 5 11
-1.1100546 0.36202106 -0.60150433 7 9
-0.88972551 0.15890513 -0.40814158 5 10
-1.1228212 0.36832669 -0.69315559 8 8
-0.89100939 0.15528452 -0.58851916 6 7
-1.1451105 0.37957188 -0.89211345 4 6
-0.88078326 0.1502022 -0.72688949 6 5
-1.1481609 0.38600823 -1.1246164 3 4
nan nan nan 0 3
nan nan nan 0 2
nan nan nan 0 1
nan nan nan 0 0
-0.94672334 0.1732311 0.24749507 38 31
-1.1017623 0.35562998 0.25984403 97 30
-0.96382034 0.1771577 0.18233426 39 29
-1.0981432 0.3540498 0.17501421 98 28
-0.95919138 0.17715929 0.11481462 38 27
-1.099092 0.35437053 0.10704467 96 26
-0.96129823 0.1778836 0.065590799 39 25
-1.1027838 0.35557505 0.052406352 96 24
-0.95831186 0.17767838 0.021818146 39 23
-1.1015054 0.35537258 0 96 22
-0.9607082 0.17846321 -0.021876173 40 21
-1.1026596 0.35595998 -0.052406352 97 20
-0.95138347 0.17676134 -0.064571127 41 19
-1.1159248 0.36090937 -0.10215756 96 18
-0.95738363 0.17786659 -0.10746864 44 17
-1.0980443 0.3555066 -0.15550768 96 16
-0.95208019 0.1765701 -0.1627399 45 15
-0.25315845 0.080516405 -0.066032156 4 13
-0.94722766 0.17553064 -0.21264574 40 14
-0.23139867 0.073627114 -0.071915366 5 12
-0.80024254 0.14689648 -0.31494138 4 11
-1.096212 0.36171636 -0.59446913 8 9
-0.89362007 0.16280818 -0.41026732 5 10
-1.1174701 0.37088746 -0.69056922 7 8
-0.89454097 0.15910642 -0.59132165 6 7
-1.1437787 0.38356674 -0.89211345 4 6
-0.88777703 0.15456045 -0.73335075 6 5
-1.1433876 0.38884237 -1.1211613 3 4
nan nan nan 0 3
nan nan nan 0 2
nan nan nan 0 1
nan nan nan 0 0
-0.95799118 0.17871909 0.25071767 38 31
-1.1005141 0.35947368 0.25984403 97 30
-0.96802378 0.18141314 0.18328145 38 29
-1.0945541 0.35711026 0.17462789 98 28
-0.9634468 0.18141258 0.11542051 38 27
-1.0931817 0.3564612 0.10656891 97 26
-0.96802711 0.18260668 0.066111363 39 25
-1.1015359 0.35942233 0.052406352 95 24
-0.96505678 0.18239655 0.021992227 38 23
-1.1050085 0.36077622 0 96 22
-0.96011114 0.18164805 -0.021876173 40 21
-1.0990379 0.35902682 -0.052289892 96 20
-0.95811558 0.181455 -0.065089077 40 19
-1.1076264 0.36227235 -0.10148694 97 18
-0.96408159 0.18257554 -0.10832157 44 17
-1.101563 0.36069602 -0.15619577 97 16
-0.95630032 0.18079512 -0.1635987 45 15
-0.25059429 0.080643728 -0.065344326 5 13
-0.95382768 0.18000807 -0.21432011 40 14
-0.22889826 0.073689021 -0.071098149 5 12
-0.79975098 0.14954939 -0.31494138 4 11
-1.0950066 0.36534953 -0.59446913 7 9
-0.90862775 0.16877501 -0.41770741 5 10
-1.122315 0.3766458 -0.69444883 7 8
-0.90213305 0.16368172 -0.59692657 5 7
-1.1349713 0.38478711 -0.88605499 4 6
-0.8872596 0.15750358 -0.73335075 5 5
-1.1420918 0.39263186 -1.1211613 3 4
-0.80805612 0.14009798 -0.83329982 4 3
nan nan nan 0 2
nan nan nan 0 1
nan nan nan 0 0
-0.96451592 0.18322916 0.25265121 38 31
-1.0970048 0.36235273 0.25928038 98 30
-0.97224164 0.18553036 0.18422864 38 29
-1.0933638 0.36073798 0.17462789 98 28
-0.96771657 0.18552883 0.11602639 38 27
-1.0942926 0.36105925 0.10680678 97 26
-0.97476733 0.18720876 0.066631921 38 25
-1.0979679 0.36228615 0.052289892 96 24
-0.96932501 0.18669733 0.022108281 39 23
-1.1014336 0.36365032 0 95 22
-0.96438181 0.18593243 -0.021992227 40 21
-1.1001476 0.36364925 -0.052406352 97 20
-0.96485889 0.18602939 -0.065607026 39 19
-1.1039926 0.36534965 -0.1012634 96 18
-0.97075832 0.18733339 -0.1091745 41 17
-1.0909009 0.36140591 -0.15481961 97 16
-0.96292198 0.18551153 -0.16488688 42 15
-0.25486907 0.083045647 -0.066719994 4 13
-0.95319349 0.18333647 -0.21432011 41 14
-0.23311839 0.07599397 -0.072732583 5 12
-0.81286508 0.15504237 -0.32056534 4 11
-1.087453 0.36703825 -0.59095156 7 9
-0.91025758 0.17236038 -0.41877028 5 10
-1.1148537 0.37867978 -0.69056922 7 8
-0.91377801 0.16905302 -0.60533398 6 7
-1.1354331 0.38959387 -0.88756955 4 6
-0.89419067 0.16209163 -0.73981196 6 5
-1.1389395 0.39621764 -1.1194339 3 4
-0.80077964 0.14188783 -0.82602209 4 3
nan nan nan 0 2
nan nan nan 0 1
nan nan nan 0 0
-0.96621037 0.18721651 0.25329572 38 31
-1.0956694 0.36637098 0.25928038 98 30
-0.97396576 0.1895555 0.18470223 39 29
-1.0873518 0.36316893 0.17385519 98 28
-0.97677666 0.19095485 0.11723815 38 27
-1.090603 0.36427465 0.10656891 97 26
-0.97897196 0.19172682 0.066978961 38 25
-1.0942657 0.36551228 0.052173436 95 24
-0.97357488 0.19103014 0.022224335 39 23
-1.1000934 0.36768481 0 96 22
-0.9759618 0.19184601 -0.022282362 39 21
-1.0941379 0.36589423 -0.052173436 96 20
-0.97396404 0.19146462 -0.066297628 39 19
-1.1026462 0.36939356 -0.1012634 96 18
-0.98229003 0.19308621 -0.11059604 39 17
-1.0872227 0.36461002 -0.15447555 97 16
-0.9743582 0.19121285 -0.16703384 40 15
-0.25230142 0.083163016 -0.066032156 4 13
-0.96208537 0.18868044 -0.21655262 40 14
-0.2328517 0.076807246 -0.072732583 5 12
-0.80093676 0.15570349 -0.31587872 4 11
-1.0819244 0.36958525 -0.58860654 7 9
-0.91187346 0.17595917 -0.41983315 5 10
-1.1115031 0.38186964 -0.68927604 7 8
-0.91928935 0.17337464 -0.60953772 6 7
-1.1246783 0.39027458 -0.87999648 4 6
-0.90488368 0.16725698 -0.74950385 5 5
-1.1375495 0.40019086 -1.1194339 3 4
-0.79352611 0.14348777 -0.81874436 4 3
nan nan nan 0 2
nan nan nan 0 1
nan nan nan 0 0
-0.97503477 0.19243497 0.25587383 38 31
-1.0851611 0.36705369 0.25702578 98 30
-0.9853434 0.19531074 0.18707021 38 29
-1.083739 0.3661671 0.17346883 98 28
-0.98340917 0.19579911 0.11814697 38 27
-1.0916809 0.36888054 0.10680678 97 26
-0.98563772 0.19658847 0.067499526 38 25
-1.092983 0.36932975 0.052173436 95 24
-0.98271042 0.19636235 0.022456443 39 23
-1.0940697 0.36991212 0 95 22
-0.98018986 0.19622077 -0.022398416 39 21
-1.0928541 0.36971125 -0.052173436 96 20
-0.97328973 0.19486323 -0.066297628 40 19
-1.09428 0.37082928 -0.10059278 95 18
-0.98404658 0.19699545 -0.11088035 40 17
-1.0929737 0.37080306 -0.15550768 97 16
-0.98093367 0.19604287 -0.16832201 41 15
-0.25200957 0.084043205 -0.066032156 4 13
-0.9757663 0.19486508 -0.21990135 40 14
-0.23481624 0.078388393 -0.073549807 5 12
-0.81631273 0.16159944 -0.32243997 4 11
-1.0764569 0.37190878 -0.58626151 7 9
-0.90903211 0.17871092 -0.41877028 5 10
-1.0960265 0.38080209 -0.68022364 8 8
-0.92071289 0.17696728 -0.61093903 6 7
-1.123309 0.39419809 -0.87999648 4 6
-0.90429431 0.1704146 -0.74950385 5 5
-1.1293406 0.4017213 -1.1125238 3 4
nan nan nan 0 3
nan nan nan 0 2
nan nan nan 0 1
nan nan nan 0 0
-0.97435713 0.1958373 0.25587383 39 31
-1.088479 0.37242532 0.25815308 98 30
-0.99669272 0.20114772 0.18943819 39 29
-1.0824542 0.36994782 0.17346883 98 28
-0.99245286 0.20117906 0.11935873 39 27
-1.0904516 0.37249863 0.10680678 97 26
-0.98983598 0.20100856 0.067846566 39 25
-1.0869641 0.37151828 0.051940519 96 24
-0.98691964 0.20077606 0.022572497 39 23
-1.0927716 0.37372887 0 95 22
-0.98688459 0.2009483 -0.022572497 39 21
-1.0915568 0.3735238 -0.052173436 96 20
-0.97993869 0.19973579 -0.066815577 39 19
-1.0977523 0.37607893 -0.10103986 95 18
-0.99796271 0.20336974 -0.11258619 40 17
-1.0870565 0.37280983 -0.15481961 97 16
-0.98748714 0.20092112 -0.16961019 39 15
-0.2471731 0.083347045 -0.064656489 4 13
-0.98228276 0.19953728 -0.22157575 40 14
-0.22338432 0.075324528 -0.0694637 5 12
-0.79985845 0.16115162 -0.31587872 4 11
-1.0731348 0.37474409 -0.58508897 6 9
-0.91950291 0.18407278 -0.42408463 4 10
-1.1108953 0.39013964 -0.69056922 7 8
-0.9322874 0.18253122 -0.61934644 6 7
-1.1219956 0.39792097 -0.87999648 4 6
-0.91497445 0.1755341 -0.75919569 5 5
-1.1398968 0.40976986 -1.1246164 3 4
nan nan nan 0 3
nan nan nan 0 2
nan nan nan 0 1
nan nan nan 0 0
-0.98080558 0.20050086 0.25780737 39 31
-1.0918386 0.37763399 0.25928038 98 30
-1.0032375 0.20591491 0.19085898 38 29
-1.0835545 0.37434641 0.17385519 98 28
-0.99664354 0.2054594 0.11996461 39 27
-1.0867941 0.37548557 0.10656891 97 26
-0.99893856 0.20628385 0.068540648 38 25
-1.0833673 0.37430069 0.051824059 95 24
-0.98869717 0.20454812 0.022630524 39 23
-1.0938874 0.37817192 0 95 22
-0.99107426 0.20539451 -0.022688551 39 21
-1.0903122 0.37714148 -0.052173436 96 20
-0.98660094 0.20448492 -0.067333527 39 19
-1.1011353 0.38154793 -0.10148694 97 18
-1.0021495 0.20767432 -0.11315482 40 17
-1.0810727 0.37497014 -0.15413152 97 16
-0.98922843 0.20468774 -0.17003958 41 15
-0.25143167 0.085756622 -0.066032156 4 13
-0.98874319 0.20442738 -0.22325012 40 14
-0.2231333 0.076064885 -0.0694637 5 12
-0.8174656 0.16761062 -0.32337731 4 11
-1.0676591 0.37700856 -0.58274388 6 9
-0.91223174 0.18578497 -0.42089599 5 10
-1.0934092 0.38825363 -0.68022364 8 8
-0.93574035 0.18641898 -0.62214887 6 7
-1.118729 0.40115961 -0.87848181 4 6
-0.91622996 0.17908704 -0.76081103 5 5
-1.1282772 0.41002017 -1.1142513 3 4
nan nan nan 0 3
nan nan nan 0 2
nan nan nan 0 1
nan nan nan 0 0
-0.987198 0.20538163 0.25974092 37 31
-1.0859188 0.37982565 0.25815308 97 30
-1.0097249 0.21090394 0.19227977 38 29
-1.079911 0.37730724 0.17346883 98 28
-0.99835038 0.20944074 0.12026756 39 27
-1.0807812 0.37762606 0.10609316 96 26
-1.0030962 0.2107836 0.068887688 38 25
-1.0844102 0.37890834 0.051940519 95 24
-0.99772835 0.21020807 0.02286263 38 23
-1.0831275 0.37866968 0 96 22
-0.99769163 0.21038221 -0.02286263 39 21
-1.086567 0.38030553 -0.052056976 96 20
-0.99320596 0.20945378 -0.067851476 39 19
-1.0904034 0.38207769 -0.10059278 95 18
-1.0062445 0.21236013 -0.11372343 39 17
-1.0844274 0.38038978 -0.15481961 97 16
-1.0029385 0.21132386 -0.17261595 40 15
-0.25111568 0.086677581 -0.066032156 4 13
-0.9951812 0.209365 -0.22492447 41 14
nan nan nan 0 12
-0.8259263 0.17247292 -0.32712662 4 11
-1.0704923 0.38222679 -0.58508897 7 9
-0.92041236 0.19094104 -0.4251475 5 10
-1.0960027 0.39371362 -0.68281001 7 8
-0.94723195 0.19228365 -0.63055629 5 7
-1.1172512 0.40525725 -0.87848181 4 6
-0.9230572 0.18391207 -0.76727223 5 5
-1.1267668 0.41415274 -1.1142513 3 4
nan nan nan 0 3
nan nan nan 0 2
nan nan nan 0 1
nan nan nan 0 0
-0.99589556 0.21097764 0.26231897 37 31
-1.0799303 0.38216913 0.25702578 98 30
-1.0137496 0.21561322 0.19322695 38 29
-1.0761938 0.38043502 0.1730825 97 28
-1.0048602 0.21463615 0.12117638 38 27
-1.0817347 0.38241878 0.10633103 97 26
-1.0169569 0.21755454 0.06992881 37 25
-1.085367 0.38371721 0.052056976 97 24
-1.0018786 0.21472538 0.022978684 38 23
-1.0840876 0.38347524 0 96 22
-0.99935871 0.21455631 -0.022920657 39 21
-1.0828803 0.38325837 -0.051940519 95 20
-0.997311 0.21412803 -0.068196774 39 19
-1.0866503 0.38523513 -0.10036924 96 18
-1.0152158 0.21793351 -0.11486067 39 17
-1.0736978 0.3810311 -0.15344343 96 16
-1.0046041 0.21533385 -0.17304532 41 15
-0.25759882 0.089987807 -0.068095662 4 13
-1.0110959 0.21654318 -0.22883137 39 14
-0.22258328 0.077659629 -0.0694637 5 12
-0.8480041 0.18010227 -0.33649987 4 11
-1.0587089 0.38237554 -0.57922637 6 9
-0.93303216 0.19691986 -0.43152472 5 10
-1.0926124 0.39680246 -0.68151683 7 8
-0.94858366 0.19600204 -0.63195747 5 7
-1.112098 0.40777725 -0.87545258 4 6
-0.92802304 0.18825369 -0.77211815 5 5
-1.1253142 0.4180834 -1.1142513 3 4
nan nan nan 0 3
nan nan nan 0 2
nan nan nan 0 1
nan nan nan 0 0
-0.99515307 0.21445268 0.26231897 38 31
-1.0785898 0.38593647 0.25702578 98 30
-1.0201921 0.22069043 0.19464774 38 29
-1.0771835 0.3850252 0.17346883 98 28
-1.0138099 0.22022657 0.12238815 38 27
-1.0803931 0.38619241 0.10633103 96 26
-1.0186296 0.22162755 0.070102334 38 25
-1.0840209 0.38750353 0.052056976 96 24
-1.0084528 0.21980068 0.023152767 37 23
-1.0827425 0.38725707 0 96 22
-1.0108191 0.22068 -0.023210794 39 21
-1.0815361 0.38703603 -0.051940519 95 20
-1.0014333 0.2186604 -0.068542078 39 19
-1.0876414 0.38987061 -0.10059278 95 18
-1.0193046 0.22252402 -0.11542928 39 17
-1.0770195 0.38645831 -0.15413152 98 16
-1.0086615 0.21987683 -0.17390412 40 15
-0.24372575 0.085970707 -0.063968658 4 13
-1.0127162 0.22058415 -0.2293895 39 14
nan nan nan 0 12
-0.84963721 0.18354394 -0.33743721 4 11
-1.0511502 0.3837837 -0.57570875 6 9
-0.94562119 0.20298904 -0.43790191 5 10
-1.0972413 0.40283871 -0.68539643 7 8
-0.95803028 0.20141304 -0.6389637 6 7
-1.1088043 0.41096151 -0.87393796 4 6
-0.93109995 0.1922521 -0.77534878 5 5
-1.1255383 0.42264801 -1.1159788 3 4
nan nan nan 0 3
nan nan nan 0 2
nan nan nan 0 1
nan nan nan 0 0
-1.00388 0.21979505 0.26489708 37 31
-1.077304 0.38951105 0.25702578 98 30
-1.0290498 0.22615732 0.19654213 38 29
-1.0689365 0.3860645 0.17230982 98 28
-1.0227721 0.22570358 0.12359991 38 27
-1.0744284 0.38807312 0.10585528 98 26
-1.0203255 0.22553679 0.070275851 38 25
-1.0780357 0.38939041 0.051824059 96 24
-1.0199257 0.22581643 0.023442902 37 23
-1.0838017 0.39169964 0 96 22
-1.0174055 0.225637 -0.023384873 38 21
-1.0778997 0.38976666 -0.051824059 96 20
-1.0104471 0.22411716 -0.069232672 38 19
-1.0863426 0.3934752 -0.10059278 95 18
-1.0282656 0.22803128 -0.11656652 38 17
-1.0757319 0.3900277 -0.15413152 97 16
-1.0127385 0.22427396 -0.1747629 41 15
-0.247953 0.088432014 -0.065344326 4 13
-1.0143597 0.22446202 -0.22994761 39 14
-0.21539664 0.076727755 -0.067012042 5 12
-0.87620634 0.19224244 -0.34868512 4 11
-1.0540115 0.38880441 -0.57805383 7 9
-0.95157927 0.20755252 -0.44109055 5 10
-1.0958995 0.4064751 -0.68539643 7 8
-0.95533121 0.20416194 -0.63756245 6 7
-1.0999907 0.41183051 -0.86787951 4 6
-0.92672014 0.19456612 -0.77211815 5 5
-1.1173779 0.42379946 -1.1090688 3 4
nan nan nan 0 3
nan nan nan 0 2
nan nan nan 0 1
nan nan nan 0 0
-1.0172609 0.2264125 0.2687642 37 31
-1.0736518 0.39242858 0.2564621 97 30
-1.030651 0.23027763 0.19701572 38 29
-1.0675822 0.38979343 0.17230982 98 28
-1.0268234 0.23034741 0.12420579 38 27
-1.0777394 0.3935374 0.10633103 97 26
-1.0268357 0.23072024 0.070796415 38 25
-1.0719815 0.39142892 0.051591143 95 24
-1.0215307 0.23009664 0.023500927 37 23
-1.0777348 0.39375558 0 96 22
-1.0214906 0.23027493 -0.023500927 39 21
-1.0741203 0.39285246 -0.051707603 96 20
-1.0169615 0.22927128 -0.069750629 38 19
-1.0849625 0.39726487 -0.10059278 95 18
-1.0298471 0.23233952 -0.11685083 39 17
-1.0766872 0.39463699 -0.15447555 97 16
-1.0191214 0.22959107 -0.17605108 41 15
-0.2521348 0.091010302 -0.066719994 4 13
-1.0254638 0.23064694 -0.23273826 39 14
nan nan nan 0 12
-0.86417878 0.19296026 -0.34399846 4 11
-1.0443792 0.38937816 -0.57336372 7 9
-0.96407431 0.213945 -0.44746774 5 10
-1.076387 0.40368882 -0.67375767 7 8
-0.96672249 0.21026812 -0.64596993 6 7
-1.1040497 0.4179841 -0.87242335 4 6
-0.92973506 0.19874765 -0.77534878 5 5
-1.1191887 0.42919368 -1.1125238 3 4
nan nan nan 0 3
nan nan nan 0 2
nan nan nan 0 1
nan nan nan 0 0
-1.0211384 0.23119491 0.27005324 36 31
-1.0722063 0.39636105 0.2564621 97 30
-1.0393798 0.23620725 0.19891009 38 29
-1.0661465 0.39370367 0.17230982 98 28
-1.0356549 0.23629501 0.12541756 38 27
-1.071624 0.39575154 0.10585528 98 26
-1.0357136 0.23668218 0.071490496 37 25
-1.0752217 0.39709458 0.051824059 96 24
-1.0255964 0.23476507 0.023616981 38 23
-1.0739411 0.39683202 0 95 22
-1.027952 0.23567596 -0.02367501 39 21
-1.0727423 0.39659944 -0.051707603 96 20
-1.023411 0.23465219 -0.070268571 38 19
-1.0741657 0.39776218 -0.099698633 96 18
-1.0387189 0.23813067 -0.11798806 39 17
-1.065953 0.39511994 -0.15309937 98 16
-1.030324 0.2358669 -0.17819805 39 15
-0.25631729 0.093575679 -0.068095662 4 13
-1.0364957 0.237093 -0.23552887 39 14
nan nan nan 0 12
-0.86576164 0.196482 -0.3449358 4 11
-1.036752 0.39085332 -0.56984615 6 9
-0.97215623 0.21927723 -0.45171922 4 10
-1.0769705 0.40820622 -0.6750508 6 8
-0.97205096 0.21496557 -0.6501736 6 7
-1.1007279 0.4211207 -0.87090874 4 6
-0.93836445 0.20399006 -0.78342533 5 5
-1.1109494 0.43047082 -1.1056136 3 4
nan nan nan 0 3
nan nan nan 0 2
nan nan nan 0 1
nan nan nan 0 0
-1.0321016 0.2374378 0.27327579 37 31
-1.0708162 0.40010133 0.2564621 97 30
-1.0481213 0.24202098 0.20080447 38 29
-1.0647658 0.39742282 0.17230982 98 28
-1.0396613 0.2410184 0.12602344 38 27
-1.0702361 0.39948979 0.10585528 98 26
-1.0373117 0.24085453 0.07166402 38 25
-1.076167 0.40172324 0.051940519 96 24
-1.0345136 0.24058579 0.023849091 37 23
-1.070209 0.39969918 0 96 22
-1.0393004 0.24206963 -0.023965145 38 21
-1.0713515 0.40034163 -0.051707603 96 20
-1.032307 0.2404639 -0.070959181 37 19
-1.075101 0.40238655 -0.099922165 96 18
-1.0475625 0.24398655 -0.1191253 39 17
-1.0692016 0.40058491 -0.15378746 97 16
-1.0414948 0.24222367 -0.18034501 40 15
-0.25374117 0.093619063 -0.067407824 5 13
-1.0427866 0.24234793 -0.23720326 39 14
-0.21456759 0.079016596 -0.067012042 4 12
-0.889929 0.20515971 -0.35524639 4 11
-1.0127037 0.38577384 -0.55694842 7 9
-0.99566114 0.22816697 -0.46341079 4 10
-1.0715462 0.41042399 -0.67246443 7 8
-0.97331595 0.21880582 -0.65157485 5 7
-1.1048119 0.42712396 -0.87545258 4 6
-0.9525615 0.21051355 -0.7963478 4 5
-1.1094401 0.43434611 -1.1056136 3 4
nan nan nan 0 3
nan nan nan 0 2
nan nan nan 0 1
nan nan nan 0 0
-1.0359733 0.24212743 0.27456483 37 31
-1.0671362 0.40297183 0.25589845 97 30
-1.0544435 0.24734351 0.20222527 38 29
-1.0633719 0.40113711 0.17230982 98 28
-1.0484807 0.24689922 0.1272352 37 27
-1.0689054 0.40303665 0.10585528 97 26
-1.0486078 0.24730873 0.072531618 37 25
-1.0677537 0.40281934 0.051591143 95 24
-1.0409684 0.24590251 0.024023172 37 23
-1.0664701 0.40254512 0 96 22
-1.0482262 0.24779254 -0.024197252 37 21
-1.067613 0.40319204 -0.051591143 96 20
-1.0314614 0.24406585 -0.070959181 38 19
-1.069106 0.40417945 -0.099475086 96 18
-1.0515412 0.24877439 -0.11969391 39 17
-1.0632389 0.40236643 -0.15309937 98 16
-1.0454392 0.24697913 -0.1812038 39 15
-0.248923 0.092787012 -0.066032156 5 13
-1.0443501 0.24635859 -0.23776136 39 14
-0.21208458 0.07891877 -0.066194825 4 12
-0.91182512 0.21332717 -0.36461964 4 11
-1.0237727 0.39391425 -0.56398356 6 9
-0.99706376 0.23214856 -0.46447363 5 10
-1.064198 0.41164669 -0.66858482 7 8
-0.99072313 0.22630167 -0.66418594 5 7
-1.1015382 0.430058 -0.87393796 4 6
-0.96489918 0.21655756 -0.80765498 4 5
-1.1079936 0.43802276 -1.1056136 3 4
nan nan nan 0 3
nan nan nan 0 2
nan nan nan 0 1
nan nan nan 0 0
-1.0422194 0.24721748 0.27649841 37 31
-1.06352 0.40563589 0.25533479 98 30
-1.0560067 0.25140184 0.20269886 38 29
-1.0597293 0.40377718 0.17192346 97 28
-1.0549011 0.25208867 0.12814403 37 27
-1.067492 0.40676534 0.10585528 98 26
-1.0526357 0.25193468 0.072878659 37 25
-1.0687438 0.40725169 0.051707603 96 24
-1.0498743 0.25166148 0.024255278 36 23
-1.0674635 0.40697455 0 97 22
-1.0497866 0.25202793 -0.024255278 37 21
-1.0662701 0.40673015 -0.051591143 96 20
-1.0427784 0.25036851 -0.071822427 38 19
-1.0700129 0.408802 -0.099698633 95 18
-1.0579598 0.25398308 -0.12054683 38 17
-1.064139 0.40696442 -0.15344343 97 16
-1.0494072 0.25158191 -0.18206258 39 15
nan nan nan 0 13
-1.0553397 0.25281388 -0.24055201 39 14
-0.21182172 0.079621635 -0.066194825 4 12
-0.9313817 0.22127537 -0.37305558 4 11
-1.0059421 0.391049 -0.5546034 7 9
-1.0117129 0.23905721 -0.47191373 5 10
-1.048817 0.40987721 -0.65953243 6 8
-0.98794913 0.22912359 -0.66278476 5 7
-1.0926359 0.43096524 -0.86787951 4 6
-0.96599889 0.22034319 -0.80927026 4 5
-1.0980742 0.43851757 -1.096976 3 4
nan nan nan 0 3
nan nan nan 0 2
nan nan nan 0 1
nan nan nan 0 0
-1.0577977 0.25477538 0.28101003 36 31
-1.0620975 0.40934584 0.25533479 97 30
-1.0622846 0.25680059 0.20411965 37 29
-1.0560102 0.40658191 0.17153712 97 28
-1.0612533 0.25750861 0.12905285 37 27
-1.0614243 0.40869164 0.10537952 97 26
-1.0614487 0.25794145 0.073572747 37 25
-1.0673158 0.41097981 0.051707603 96 24
-1.0562339 0.25726578 0.02442936 37 23
-1.0613742 0.40889168 0 96 22
-1.0586185 0.25803655 -0.024487386 37 21
-1.0647722 0.41063553 -0.051591143 95 20
-1.0515958 0.25634772 -0.072513029 37 19
-1.0662582 0.41163328 -0.099475086 95 18
-1.0594362 0.25844222 -0.12083115 38 17
-1.062712 0.41067645 -0.15344343 97 16
-1.0580548 0.25773627 -0.18378015 39 15
nan nan nan 0 13
-1.0568199 0.2570667 -0.24111012 39 14
-0.21592829 0.082120851 -0.067829266 4 12
-0.94859922 0.22899072 -0.38055417 4 11
-1.0025175 0.3937462 -0.5534308 7 9
-1.0174344 0.24433227 -0.47510231 5 10
-1.0532722 0.41608974 -0.66341203 7 8
-0.9992013 0.2355607 -0.67119211 5 7
-1.0928948 0.43570763 -0.86939406 4 6
-0.97820485 0.22686183 -0.8205775 4 5
-1.0998081 0.44389963 -1.1004311 3 4
nan nan nan 0 3
nan nan nan 0 2
nan nan nan 0 1
nan nan nan 0 0
-1.0685945 0.2614947 0.28423262 36 31
-1.0560547 0.41145843 0.25420749 97 30
-1.0756475 0.26417309 0.20696121 38 29
-1.0522128 0.40954918 0.17115077 98 28
-1.0675348 0.26316231 0.12996167 37 27
-1.0576737 0.41148743 0.10514165 97 26
-1.067764 0.2636072 0.074093312 37 25
-1.0634769 0.41397858 0.051591143 95 24
-1.0601847 0.26214013 0.024545414 37 23
-1.0645241 0.41460264 0 96 22
-1.0625664 0.26292002 -0.024603439 38 21
-1.058682 0.41252732 -0.051358223 97 20
-1.0579159 0.26198247 -0.073030978 37 19
-1.0624969 0.4144434 -0.099251553 96 18
-1.0730014 0.26568851 -0.122537 38 17
-1.058967 0.4134784 -0.15309937 98 16
-1.0643251 0.26318541 -0.18506834 40 15
-0.94998223 0.372356 -0.28201234 13 13
-1.0701193 0.26422694 -0.24445888 39 14
-0.21344343 0.082004711 -0.067012042 5 12
-0.97036016 0.23758878 -0.38992742 4 11
-1.009339 0.40051886 -0.55812091 6 9
-1.0319736 0.25159615 -0.48254243 5 10
-1.0379879 0.41400138 -0.65435964 8 8
-1.0124763 0.24238364 -0.68100077 5 7
-1.087757 0.43783602 -0.86636484 4 6
-0.98488146 0.23183173 -0.82703871 4 5
-1.0866263 0.44274423 -1.0883385 3 4
nan nan nan 0 3
-1.0923965 0.45074889 -1.3547376 1 2
nan nan nan 0 1
nan nan nan 0 0
-1.0841411 0.26907298 0.28874427 37 31
-1.0524198 0.41406199 0.25364384 98 30
-1.0747654 0.26773861 0.20696121 39 29
-1.053146 0.41394427 0.17153712 97 28
-1.081109 0.27028033 0.13177931 37 27
-1.0585452 0.41609177 0.10537952 97 26
-1.0765667 0.26954815 0.074787393 36 25
-1.0597758 0.41658479 0.051474687 96 24
-1.0665864 0.26746193 0.024719493 38 23
-1.0584937 0.41629145 0 96 22
-1.0713437 0.26904097 -0.024835547 37 21
-1.0573082 0.4160358 -0.051358223 97 20
-1.0643021 0.26729548 -0.073548928 37 19
-1.0610437 0.41814971 -0.099251553 96 18
-1.0769351 0.27044448 -0.12310562 39 17
-1.0575173 0.41717237 -0.15309937 98 16
-1.0706172 0.26849458 -0.1863565 39 15
-0.97776961 0.38706732 -0.2909542 22 13
-1.0739206 0.26913488 -0.24557514 40 14
-0.21536431 0.083588719 -0.067829266 4 12
-0.98978072 0.24595359 -0.39836338 4 11
-0.97926772 0.39247495 -0.54170561 6 9
-1.0311337 0.25501692 -0.48254243 5 10
-1.0325708 0.41601425 -0.65177321 7 8
-1.0297858 0.2500897 -0.69361192 5 7
-1.0825404 0.44012412 -0.86333561 4 6
-0.9952085 0.23789802 -0.83673054 4 5
-1.0834047 0.44584298 -1.0866109 3 4
nan nan nan 0 3
-1.1027325 0.45955861 -1.3700023 1 2
nan nan nan 0 1
nan nan nan 0 0
-1.0785079 0.27168611 0.28745523 38 31
-1.0509679 0.4177331 0.25364384 98 30
-1.0857303 0.27447033 0.2093292 38 29
-1.0425195 0.41395366 0.16999175 98 28
-1.0849724 0.27526239 0.13238519 37 27
-1.052464 0.41793823 0.10490377 97 26
-1.0828745 0.27513093 0.07530795 36 25
-1.0606344 0.42120779 0.051591143 95 24
-1.0752926 0.27381504 0.024951601 38 23
-1.0523912 0.41812852 0 96 22
-1.0728215 0.27339086 -0.024893576 38 21
-1.0557762 0.41990823 -0.051358223 96 20
-1.0681989 0.27223003 -0.073894225 38 19
-1.057266 0.42092532 -0.099028006 96 18
-1.083161 0.2762152 -0.12395855 38 17
-1.0537562 0.41994005 -0.15275535 98 16
-1.07679 0.27422425 -0.18764469 40 15
-0.98303312 0.39334139 -0.29301769 31 13
-1.0824269 0.27526319 -0.24780764 39 14
-0.21286571 0.083492823 -0.067012042 4 12
-1.0091099 0.25463286 -0.40679929 4 11
-1.0003841 0.40505603 -0.5546034 6 9
-1.0587397 0.2658911 -0.49635971 5 10
-1.02114 0.41574016 -0.64530718 7 8
-1.0429422 0.25729734 -0.70342058 5 7
-1.0790819 0.44332907 -0.861821 4 6
-1.0110289 0.24555002 -0.85126835 4 5
-1.0700942 0.44492725 -1.0745183 3 4
nan nan nan 0 3
nan nan nan 0 2
nan nan nan 0 1
nan nan nan 0 0
-1.0915538 0.27919737 0.29132232 39 31
-1.0516881 0.42249465 0.25420749 97 30
-1.0942332 0.2808682 0.21122359 41 29
-1.0409954 0.41777194 0.16999175 98 28
-1.0887651 0.28046471 0.13299108 38 27
-1.0486175 0.42086145 0.1046659 98 26
-1.0891078 0.28095108 0.075828515 37 25
-1.0590835 0.42509237 0.051591143 95 24
-1.084015 0.28004631 0.025183709 38 23
-1.0485334 0.42104682 0 96 22
-1.0887594 0.28166613 -0.025299765 38 21
-1.0473578 0.42078453 -0.05100885 96 20
-1.0768573 0.27862093 -0.074584827 38 19
-1.053408 0.42386359 -0.098804474 96 18
-1.0870019 0.2812281 -0.12452716 39 17
-1.05221 0.42379943 -0.15275535 98 16
-1.0805981 0.27920294 -0.18850347 41 15
-1.0016922 0.40491927 -0.29920822 38 13
-1.0861325 0.28043658 -0.24892388 40 14
-0.21257298 0.084235355 -0.067012042 4 12
nan nan nan 0 11
-0.97847605 0.40031305 -0.54287815 6 9
-1.053417 0.26847804 -0.494234 5 10
-1.0177058 0.41848403 -0.644014 7 8
-1.0621345 0.26591346 -0.71743292 5 7
-1.0756923 0.44632676 -0.86030638 4 6
-1.0064578 0.24817452 -0.84803778 4 5
-1.0735284 0.45077032 -1.0797009 3 4
nan nan nan 0 3
nan nan nan 0 2
nan nan nan 0 1
nan nan nan 0 0
-1.0952514 0.28420892 0.29261136 52 31
-1.0502069 0.42616317 0.25420749 97 30
-1.1051303 0.2877529 0.21359155 41 29
-1.0395308 0.42140311 0.16999175 98 28
-1.0997913 0.28737441 0.13450579 38 27
-1.0471419 0.42451927 0.1046659 98 26
-1.0977768 0.28725559 0.076522596 37 25
-1.0575932 0.4287867 0.051591143 96 24
-1.0902882 0.28571346 0.025357792 39 23
-1.0447425 0.42376015 0 97 22
-1.095026 0.28735235 -0.025473846 39 21
-1.052819 0.42726862 -0.051358223 97 20
-1.0831195 0.28426164 -0.075102776 38 19
-1.0519221 0.42753816 -0.098804474 96 18
-1.095629 0.28752175 -0.1256644 38 17
-1.0507241 0.42746973 -0.15275535 98 16
-1.0891519 0.28544983 -0.19022106 42 15
-1.0069426 0.41115296 -0.30127174 56 13
-1.0969406 0.28728721 -0.2517145 44 14
-0.21664673 0.086776771 -0.068646483 4 12
-1.08138 0.28071767 -0.43773106 4 11
-0.97503388 0.40287825 -0.54170561 6 9
-1.0678182 0.27608195 -0.50167406 5 10
-1.0083424 0.41873407 -0.63884121 7 8
-1.0692314 0.2716383 -0.72303784 5 7
-1.0759606 0.45085159 -0.861821 4 6
-1.0370743 0.25947309 -0.87549806 4 5
-1.0686241 0.45309627 -1.0762459 3 4
nan nan nan 0 3
nan nan nan 0 2
nan nan nan 0 1
nan nan nan 0 0
-1.1013149 0.28966716 0.29454491 44 31
-1.0442839 0.4277879 0.25308019 97 30
-1.10417 0.29141605 0.21359155 49 29
-1.0404116 0.42578802 0.17037807 98 28
-1.1012323 0.29164997 0.13480872 39 27
-1.0457283 0.42798936 0.1046659 96 26
-1.1040542 0.29279676 0.077043161 39 25
-1.0538561 0.43134096 0.051474687 97 24
-1.0965858 0.29123643 0.025531873 40 23
-1.0456432 0.42817417 0 97 22
-1.0989006 0.29225633 -0.0255899 42 21
-1.0490875 0.42980635 -0.05124177 96 20
-1.0942291 0.291031 -0.07596603 40 19
-1.0504985 0.43102407 -0.098804474 96 18
-1.106678 0.29431945 -0.12708594 38 17
-1.0470121 0.4300065 -0.1524113 97 16
-1.0977261 0.29156819 -0.19193862 45 15
-1.0144545 0.41817209 -0.30402309 69 13
-1.1030521 0.29278332 -0.25338888 46 14
-0.21417624 0.086587526 -0.067829266 4 12
-1.089414 0.2866405 -0.44148034 5 11
-0.95129758 0.39670923 -0.52880782 7 9
-1.0866089 0.28473774 -0.51123989 5 10
-1.0049769 0.42124403 -0.63754797 7 8
-1.0923996 0.28131914 -0.73985267 5 7
-1.067139 0.45130214 -0.85576254 4 6
-1.0362082 0.26291072 -0.87549806 4 5
-1.0637963 0.45520788 -1.0727909 3 4
nan nan nan 0 3
nan nan nan 0 2
nan nan nan 0 1
nan nan nan 0 0
-1.1166439 0.29783177 0.29905656 50 31
-1.0427843 0.43143058 0.25308019 97 30
-1.1126364 0.29778668 0.21548593 55 29
-1.0366381 0.42846918 0.16999175 98 28
-1.1097997 0.29804626 0.13602048 50 27
-1.0442281 0.43163708 0.1046659 98 26
-1.1174841 0.30050412 0.078084283 46 25
-1.0546499 0.43597552 0.051591143 96 24
-1.1075839 0.29847959 0.025822006 46 23
-1.0441422 0.43182153 0 96 22
-1.1123607 0.29996407 -0.02593806 46 21
-1.0405884 0.43076944 -0.05089239 96 20
-1.102844 0.29742575 -0.076656632 47 19
-1.046689 0.43373066 -0.098580927 95 18
-1.1127899 0.3002997 -0.12793887 43 17
-1.0455047 0.43365866 -0.1524113 97 16
-1.1014087 0.29686114 -0.19279741 49 15
-1.0195656 0.42467347 -0.30608657 78 13
-1.1114415 0.29914486 -0.25562137 50 14
-0.21385744 0.08737193 -0.067829266 4 12
-1.0995587 0.29359552 -0.44616696 5 11
nan nan nan 0 9
-1.0964987 0.29160091 -0.51655418 6 10
-0.99555308 0.42156971 -0.63237518 7 8
-1.0973744 0.28687733 -0.7440564 5 7
-1.0581684 0.45206857 -0.84970397 4 6
-1.0481807 0.27000362 -0.88680518 4 5
-1.0621207 0.45910382 -1.0727909 3 4
nan nan nan 0 3
nan nan nan 0 2
nan nan nan 0 1
nan nan nan 0 0
-1.1272097 0.3050524 0.30227914 71 31
-1.041196 0.43524963 0.25308019 97 30
-1.1233892 0.30505386 0.21785392 69 29
-1.0327835 0.43130937 0.16960539 98 28
-1.1182826 0.30470109 0.13723224 67 27
-1.042639 0.43546143 0.1046659 98 26
-1.1235974 0.30655196 0.07860484 62 25
-1.053045 0.43983805 0.051591143 95 24
-1.1161845 0.3049584 0.026054114 61 23
-1.0425525 0.43564561 0 96 22
-1.1209023 0.3066569 -0.026170168 59 21
-1.0413806 0.43536687 -0.05100885 96 20
-1.1161886 0.30538428 -0.077692531 59 19
-1.0496821 0.43949628 -0.099028006 96 18
-1.1261176 0.30808449 -0.12964471 58 17
-1.0461903 0.43844926 -0.15275535 98 16
-1.1122515 0.30392432 -0.19494438 57 15
-1.0247178 0.43103915 -0.30815008 78 13
-1.1150421 0.3044903 -0.25673762 63 14
-0.21572615 0.089040689 -0.068646483 4 12
-1.103004 0.29863313 -0.44804162 5 11
nan nan nan 0 9
-1.1173353 0.30126798 -0.52718294 6 10
-0.99014467 0.42335102 -0.62978882 7 8
-1.1103841 0.29438621 -0.75386512 5 7
-1.056584 0.45575953 -0.84970397 4 6
-1.0509267 0.27461568 -0.89003575 4 5
-1.0505842 0.45844862 -1.0624257 3 4
nan nan nan 0 3
nan nan nan 0 2
nan nan nan 0 1
nan nan nan 0 0
-1.126138 0.30898526 0.30227914 95 31
-1.0396703 0.43888146 0.25308019 97 30
-1.1199495 0.30832687 0.21738032 98 29
-1.0312717 0.43491185 0.16960539 98 28
-1.1243923 0.31056973 0.13814108 89 27
-1.0388979 0.43794534 0.10442802 98 26
-1.1177102 0.30915263 0.078257799 78 25
-1.046905 0.44156122 0.051358223 96 24
-1.1223434 0.31083885 0.026228197 70 23
-1.0341212 0.43635285 0 96 22
-1.1198792 0.31037226 -0.026170168 72 21
-1.0375557 0.43802357 -0.05089239 96 20
-1.1247346 0.31192455 -0.078383133 70 19
-1.0436355 0.44102731 -0.098580927 96 18
-1.1346146 0.31464854 -0.13078195 84 17
-1.0447304 0.44191614 -0.15275535 97 16
-1.1183084 0.309762 -0.19623254 84 15
-1.0232069 0.43461344 -0.30815008 69 13
-1.1187264 0.30947554 -0.2578539 84 14
-0.21324225 0.088862807 -0.067829266 4 12
-1.1221358 0.30776164 -0.45647755 6 11
-0.89844692 0.38562924 -0.50066733 6 9
-1.1468538 0.31345099 -0.54206306 6 10
-0.99266052 0.42833638 -0.63237518 7 8
-1.1133511 0.29932582 -0.75666755 5 7
-1.0514231 0.45766506 -0.84667474 4 6
-1.125688 0.29792458 -0.95626354 4 5
-1.0490582 0.46192995 -1.0624257 3 4
nan nan nan 0 3
-1.0705421 0.47710788 -1.3432891 1 2
nan nan nan 0 1
nan nan nan 0 0
-1.1344217 0.31528544 0.30485722 101 31
-1.0382092 0.44232672 0.25308019 97 30
-1.1331162 0.31596515 0.22022191 100 29
-1.0275531 0.43735749 0.16921906 98 28
-1.1377034 0.31827819 0.13995872 98 27
-1.0350749 0.44058993 0.10419014 98 26
-1.1286935 0.31619614 0.079125404 97 25
-1.0477309 0.44601306 0.051474687 97 24
-1.1333456 0.31790903 0.02651833 95 23
-1.0349667 0.4407638 0 96 22
-1.1236043 0.31562123 -0.026286222 97 21
-1.0338022 0.44047847 -0.050775934 97 20
-1.1309016 0.31766087 -0.078901075 95 19
-1.0398014 0.44368592 -0.098357394 97 18
-1.1311723 0.31774262 -0.13049763 97 17
-1.0386311 0.44360614 -0.15206726 97 16
-1.117275 0.31346875 -0.19623254 97 15
-1.0217601 0.43800414 -0.30815008 75 13
-1.1317261 0.317296 -0.26120263 98 14
nan nan nan 0 12
-1.116586 0.3104451 -0.4546029 6 11
-0.88697636 0.38434851 -0.49480468 6 9
-1.145808 0.3172524 -0.54206306 6 10
-0.98332107 0.42836297 -0.62720239 7 8
-1.1263447 0.3067916 -0.76647615 5 7
-1.0389045 0.45650718 -0.837587 4 6
-1.1080441 0.29744223 -0.94172573 4 5
-1.0375416 0.46116158 -1.0520605 3 4
nan nan nan 0 3
-1.0762274 0.48417315 -1.3528295 1 2
nan nan nan 0 1
nan nan nan 0 0
-1.1333143 0.31924334 0.30485722 103 31
-1.0344235 0.44498116 0.25251654 97 30
-1.1272793 0.31859335 0.21927471 99 29
-1.0237527 0.43996185 0.1688327 97 28
-1.1365856 0.32224759 0.13995872 99 27
-1.0335307 0.44420031 0.10419014 97 26
-1.1323841 0.32148632 0.079472445 98 25
-1.0438751 0.448677 0.051358223 97 24
-1.1369836 0.3234185 0.026634384 98 23
-1.031127 0.44338173 0 96 22
-1.1249011 0.32022068 -0.026344251 99 21
-1.0321807 0.44426459 -0.050775934 97 20
-1.1369863 0.32363996 -0.079419032 99 19
-1.0359615 0.44632304 -0.098133847 96 18
-1.1371707 0.3239128 -0.13135056 100 17
-1.0416199 0.4491989 -0.15275535 97 16
-1.12797 0.32090634 -0.19837952 102 15
-1.0289624 0.44558433 -0.3109014 81 13
-1.1282662 0.32058352 -0.26064453 101 14
nan nan nan 0 12
-1.1288329 0.31827971 -0.46022683 5 11
-0.87552601 0.38299251 -0.48894209 6 9
-1.135918 0.31902185 -0.53781158 7 10
-0.97196239 0.42763343 -0.62073636 8 8
-1.1332003 0.31310445 -0.77208114 6 7
-1.0426728 0.46274447 -0.8421309 4 6
-1.1327385 0.30845582 -0.96434003 4 5
-1.0325507 0.46347341 -1.0486054 3 4
nan nan nan 0 3
-1.0701234 0.48591277 -1.3471053 1 2
nan nan nan 0 1
nan nan nan 0 0
-1.1391087 0.32537052 0.30679077 102 31
-1.0305537 0.44779438 0.25195289 97 30
-1.1284651 0.32339412 0.2197483 97 29
-1.0243971 0.4446992 0.16921906 98 28
-1.1210784 0.32232711 0.13814108 95 27
-1.0296147 0.44698986 0.10395226 97 26
-1.1288 0.32494965 0.079298921 97 25
-1.0353574 0.449503 0.05100885 97 24
-1.1310418 0.32601088 0.02651833 95 23
-1.0317862 0.44815853 0 96 22
-1.1237197 0.32434148 -0.026344251 97 21
-1.0283351 0.44686505 -0.050659474 97 20
-1.1309972 0.32643184 -0.079073727 97 19
-1.0343187 0.45011705 -0.098133847 96 18
-1.1312574 0.32651269 -0.13078195 99 17
-1.0331618 0.45003363 -0.15172321 98 16
-1.1244751 0.3241646 -0.19795014 102 15
-1.0230002 0.44723889 -0.30952576 89 13
-1.1341128 0.3267256 -0.26231888 103 14
nan nan nan 0 12
-1.1254853 0.32158631 -0.45928955 5 11
nan nan nan 0 9
-1.1347976 0.32298499 -0.53781158 7 10
-0.97437054 0.43276954 -0.62332278 7 8
-1.1480604 0.32148728 -0.78329098 6 7
-1.0356113 0.46392962 -0.837587 4 6
-1.1242929 0.31039527 -0.95787883 4 5
-1.0259937 0.46482578 -1.0434229 3 4
nan nan nan 0 3
-1.0683352 0.48983172 -1.3471053 1 2
nan nan nan 0 1
nan nan nan 0 0
-1.1263576 0.32601172 0.30356818 97 31
-1.0267558 0.4504061 0.25138924 97 30
-1.1226118 0.32597226 0.21880111 96 29
-1.0228386 0.44827235 0.16921906 97 28
-1.1199465 0.32623842 0.13814108 86 27
-1.0303255 0.4515847 0.10419014 97 26
-1.1228675 0.32750133 0.07895188 86 25
-1.0360672 0.45412135 0.051125307 96 24
-1.1250956 0.32856575 0.026402276 85 23
-1.0256402 0.44974044 0 95 22
-1.1225806 0.32826203 -0.026344251 92 21
-1.026769 0.45045191 -0.050659474 97 20
-1.1250603 0.32898781 -0.07872843 87 19
-1.0281857 0.45171273 -0.097686768 96 18
-1.1324962 0.33115166 -0.13106626 91 17
-1.0315845 0.4536373 -0.15172321 98 16
-1.1186055 0.32671681 -0.19709133 96 15
-1.0214329 0.45080712 -0.30952576 93 13
-1.1329653 0.3306824 -0.26231888 100 14
-0.21198076 0.091831475 -0.067829266 4 12
-1.1310387 0.32743177 -0.46210149 5 11
nan nan nan 0 9
-1.1488924 0.33129966 -0.54525167 7 10
-0.95920193 0.43000972 -0.61427039 7 8
-1.1449383 0.32493222 -0.7818898 7 7
-1.0285542 0.46507114 -0.83304316 4 6
-1.1379128 0.3183946 -0.97080129 4 5
-1.02929 0.47067064 -1.0486054 3 4
-1.0684175 0.29408723 -1.1389643 1 3
nan nan nan 0 2
nan nan nan 0 1
nan nan nan 0 0
-1.1228933 0.32926673 0.30292365 95 31
-1.0318525 0.45695937 0.25308019 97 30
-1.1261799 0.33126438 0.2197483 96 29
-1.016754 0.44983229 0.16844636 98 28
-1.1211824 0.33084312 0.13844401 88 27
-1.0265483 0.45398781 0.10395226 97 26
-1.1193242 0.33071724 0.078778364 85 25
-1.0367576 0.4587501 0.05124177 96 24
-1.1239419 0.33249107 0.026402276 80 23
-1.0240642 0.45331785 0 95 22
-1.1190881 0.33127844 -0.026286222 88 21
-1.0251904 0.45403326 -0.050659474 97 20
-1.1215123 0.33220965 -0.078555778 84 19
-1.0312308 0.45714694 -0.098133847 96 18
-1.1265674 0.33370188 -0.13049763 88 17
-1.0300746 0.45705566 -0.15172321 98 16
-1.1221846 0.33200693 -0.19795014 96 15
-1.0242399 0.45633495 -0.3109014 94 13
-1.1295241 0.33375207 -0.26176077 97 14
-0.21165891 0.092570864 -0.067829266 4 12
-1.1254956 0.3298867 -0.46022683 5 11
nan nan nan 0 9
-1.1520756 0.33656758 -0.54737741 6 10
-0.95971805 0.43407443 -0.61556357 7 8
-1.1597257 0.33346722 -0.79309964 7 7
-1.0324295 0.47096804 -0.837587 4 6
-1.146036 0.32474479 -0.97887784 5 5
-1.0244451 0.47255954 -1.0451504 3 4
-1.1120629 0.30993751 -1.188089 1 3
nan nan nan 0 2
nan nan nan 0 1
nan nan nan 0 0
-1.1264294 0.33435336 0.30421269 91 31
-1.025888 0.45838255 0.25195289 97 30
-1.1250752 0.33499709 0.2197483 92 29
-1.0152568 0.4532015 0.16844636 98 28
-1.1176999 0.33385408 0.13814108 91 27
-1.0181459 0.45451149 0.10323863 97 26
-1.1206123 0.33513683 0.07895188 82 25
-1.0306739 0.46014056 0.05100885 97 24
-1.1203789 0.33569998 0.026344251 80 23
-1.0202746 0.45568725 0 97 22
-1.1131337 0.33375719 -0.026170168 85 21
-1.0235993 0.45760909 -0.050659474 97 20
-1.118014 0.33521566 -0.078383133 82 19
-1.0250872 0.45870087 -0.097686768 96 18
-1.1253957 0.33763233 -0.13049763 90 17
-1.0307308 0.46166518 -0.15206726 97 16
-1.1186581 0.33522004 -0.19752073 96 15
-1.0226408 0.45990744 -0.3109014 95 13
-1.1236802 0.33630532 -0.26064453 96 14
nan nan nan 0 12
-1.1287252 0.33531991 -0.46210149 5 11
nan nan nan 0 9
-1.1508938 0.34058702 -0.54737741 6 10
-0.95423239 0.43580228 -0.61297715 7 8
-1.1605439 0.33808792 -0.79450095 7 7
-1.027087 0.47307658 -0.83455771 4 6
-1.1521788 0.33103269 -0.98533911 5 5
-1.0145247 0.47247687 -1.0365129 3 4
-1.1208262 0.31678295 -1.1990056 4 3
nan nan nan 0 2
nan nan nan 0 1
nan nan nan 0 0
-1.1205672 0.33709791 0.30292365 87 31
-1.024201 0.46213952 0.25195289 97 30
-1.1167852 0.33700597 0.21832752 92 29
-1.0135889 0.45691955 0.16844636 98 28
-1.1164687 0.33794838 0.13814108 89 27
-1.0187399 0.45926741 0.10347651 98 26
-1.1098232 0.33636844 0.078257799 83 25
-1.0267059 0.46288422 0.05089239 96 24
-1.1168071 0.33888808 0.026286222 78 23
-1.0208745 0.46045604 0 96 22
-1.111903 0.33783478 -0.026170168 84 21
-1.0219957 0.46117932 -0.050659474 96 20
-1.1167779 0.33931112 -0.078383133 82 19
-1.0279331 0.46451452 -0.098133847 96 18
-1.1242102 0.34155864 -0.13049763 85 17
-1.0222692 0.46236515 -0.15103512 97 16
-1.1174811 0.33912286 -0.19752073 95 15
-1.0254024 0.46547008 -0.31227708 96 13
-1.1201065 0.33971921 -0.26008639 95 14
-0.21745265 0.096995719 -0.070280924 5 12
-1.114223 0.33528045 -0.45647755 4 11
nan nan nan 0 9
-1.14536 0.34331241 -0.54525167 6 10
-0.95464629 0.44003069 -0.61427039 7 8
-1.1633308 0.34329975 -0.79730344 7 7
-1.0272311 0.47750133 -0.83607239 4 6
-1.1638496 0.33875427 -0.99664629 5 5
-0.99653274 0.46828961 -1.0192376 3 4
-1.1114661 0.31835496 -1.1899085 1 3
nan nan nan 0 2
nan nan nan 0 1
nan nan nan 0 0
-1.1193837 0.34100741 0.30292365 85 31
-1.0203671 0.46469799 0.25138924 97 30
-1.115602 0.34090221 0.21832752 90 29
-1.0142338 0.46148226 0.1688327 97 28
-1.1129081 0.34112129 0.13783813 89 27
-1.0193939 0.46385592 0.10371439 98 26
