# .PCD v0.7 - Point Cloud Data file format
VERSION 0.7
FIELDS x y z intensity ring
SIZE 4 4 4 4 2
TYPE F F F F U
COUNT 1 1 1 1 1
WIDTH 883
HEIGHT 1
VIEWPOINT 0 0 0 1 0 0 0
POINTS 883
DATA ascii
1.533453 -0.099088579 0.23489767 7 28
1.5845236 -0.10247499 0.14843526 52 26
1.6075938 0.10600944 0.10966504 9 25
1.6372415 -0.10596414 0.074882858 7 24
1.6409324 0.10768964 0.037369378 8 23
1.6738877 -0.10867873 0 34 22
1.685858 0.11011403 -0.038413864 8 21
1.7144501 -0.11166628 -0.078493066 39 20
1.7765615 -0.11671989 -0.15670121 8 18
1.5429537 -0.10512647 0.23644306 7 28
1.5916232 -0.10824581 0.1491489 51 26
1.6054653 0.10023803 0.10949152 8 25
1.6368616 -0.11167853 0.074882858 7 24
1.6363099 0.10164372 0.037253324 9 23
1.6710043 -0.11434708 0 24 22
1.6862139 0.10452291 -0.038413864 9 21
1.7140499 -0.11765015 -0.078493066 44 20
1.7786486 -0.12278511 -0.15692475 8 18
1.5327429 -0.10952409 0.23489767 8 28
1.5862714 -0.11343902 0.14867315 49 26
1.6082782 0.095064528 0.10966504 8 25
1.6414635 -0.11746914 0.07511577 7 24
1.6366382 0.096216954 0.037253324 9 23
1.6780958 -0.12043437 0 9 22
1.6740941 0.097888626 -0.038123727 13 21
1.7161409 -0.12351598 -0.078609534 44 20
1.7831756 -0.12935945 -0.15737183 8 18
1.534814 -0.11506189 0.23528402 42 28
1.5462444 0.086422719 0.18479398 7 27
1.5957916 -0.11973397 0.14962466 10 26
1.6061102 0.089307748 0.10949152 9 25
1.6310835 -0.12243705 0.074649937 7 24
1.6394749 0.09035898 0.037311349 9 23
1.6676944 -0.12552758 0 7 22
1.6719303 0.091903538 -0.038065702 28 21
1.7156767 -0.12980512 -0.078609534 44 20
1.7777481 -0.13519932 -0.15692475 9 18
1.53192 -0.12048927 0.23489767 56 28
1.5515068 0.08102154 0.18539986 9 27
1.5878997 -0.12498586 0.14891101 7 26
1.601446 0.083154194 0.10914448 9 25
1.633113 -0.12861386 0.074766397 35 24
1.6397803 0.084635593 0.037311349 9 23
1.6722071 -0.13203925 0 7 22
1.6672642 0.085511632 -0.037949648 42 21
1.7177024 -0.13599341 -0.078725986 44 20
1.7747587 -0.14151318 -0.15670121 11 18
1.5364127 -0.12624757 0.23567036 56 28
1.5592155 0.075979337 0.1863087 9 27
1.5849738 -0.13032052 0.14867315 7 26
1.6067082 0.077812478 0.10949152 9 25
1.6351427 -0.13452181 0.074882858 30 24
1.6450583 0.07915885 0.037427403 9 23
1.6642623 -0.13724926 0 37 22
1.6675525 0.079691276 -0.037949648 47 21
1.7221941 -0.14240642 -0.078958906 28 20
1.7643293 -0.14686875 -0.15580705 16 18
1.533502 -0.13139547 0.23528402 55 28
1.5520346 0.07018809 0.18539986 9 27
1.5870123 -0.13579136 0.14891101 7 26
1.6019876 0.071972057 0.10914448 9 25
1.6421269 -0.14087906 0.07523223 12 24
1.6403313 0.073185802 0.037311349 9 23
1.6712445 -0.14371015 0 45 22
1.6678076 0.074161038 -0.037949648 46 21
1.7117356 -0.14754653 -0.078493066 7 20
1.7687935 -0.15315445 -0.15625413 22 18
1.5330579 -0.13648002 0.23528402 55 28
1.5572174 0.065256596 0.18600574 9 27
1.5914857 -0.14177875 0.14938676 7 26
1.6072006 0.066874243 0.10949152 9 25
1.6441379 -0.14654879 0.07534869 8 24
1.6330738 0.06742534 0.037137266 9 23
1.6682689 -0.14902569 0 46 22
1.6680564 0.068338849 -0.037949648 29 21
1.721185 -0.15412565 -0.078958906 6 20
1.7732074 -0.15978083 -0.15670121 31 18
1.5374904 -0.14229287 0.2360567 53 28
1.5574355 0.059820499 0.18600574 9 27
1.593459 -0.14756612 0.14962466 8 26
1.6049323 0.061164871 0.109318 9 25
1.6535615 -0.15322188 0.075814523 7 24
1.6283042 0.061528195 0.037021212 12 23
1.6702275 -0.15508252 0 47 22
1.6782744 0.062904835 -0.038181756 8 21
1.7256089 -0.16060193 -0.079191819 6 20
1.7676812 -0.16549912 -0.15625413 31 18
1.5394169 -0.14816728 0.23644306 56 28
1.5551645 0.054021738 0.1857028 9 27
1.5854768 -0.1526795 0.14891101 16 26
1.607638 0.055371743 0.10949152 9 25
1.6405616 -0.15806733 0.07523223 7 24
1.6285188 0.055559743 0.037021212 28 23
1.6746242 -0.16169024 0 45 22
1.6809915 0.056841321 -0.038239781 6 21
1.7225236 -0.16668184 -0.079075366 6 20
1.7720187 -0.17246544 -0.15670121 14 18
1.5388904 -0.15353996 0.23644306 57 28
1.5553435 0.048592877 0.1857028 9 27
1.5874377 -0.15818648 0.1491489 35 26
1.6078215 0.049759697 0.10949152 9 25
1.6449689 -0.16429599 0.07546515 7 24
1.631201 0.049955066 0.037079241 40 23
1.6740496 -0.16753477 0 46 22
1.6786727 0.051186826 -0.038181756 6 21
1.7244155 -0.17294592 -0.079191819 6 20
1.7250543 0.052361272 -0.11705674 8 19
1.7813456 -0.17935069 -0.15759537 9 18
1.535916 -0.15838534 0.2360567 55 28
1.5604572 0.043581281 0.1863087 9 27
1.5943015 -0.16450323 0.14986253 11 26
1.6104707 0.044500377 0.10966504 9 25
1.646899 -0.17000973 0.075581603 8 24
1.6363543 0.044689465 0.037195295 45 23
1.6734848 -0.17308521 0 45 22
1.6888344 0.045611233 -0.038413864 6 21
1.7312835 -0.17944515 -0.079541199 6 20
1.7177395 0.046427675 -0.11653879 8 19
1.7881374 -0.18635108 -0.15826598 8 18
1.4974375 0.037774321 0.28226292 7 29
1.5378095 -0.16401121 0.23644306 52 28
1.5605998 0.038134001 0.1863087 10 27
1.5937175 -0.17006738 0.14986253 7 26
1.6106162 0.038878515 0.10966504 9 25
1.6338814 -0.17441544 0.074999318 42 24
1.636507 0.038691625 0.037195295 46 23
1.6803269 -0.17973308 0 34 22
1.6839863 0.039591078 -0.03829781 6 21
1.7206836 -0.18471059 -0.079075366 7 20
1.7178912 0.040431365 -0.11653879 8 19
1.7850007 -0.19232191 -0.15804245 8 18
1.5000199 0.032342654 0.28273648 15 29
1.5347433 -0.16937198 0.2360567 44 28
1.5557672 0.032302991 0.1857028 10 27
1.5955566 -0.17618404 0.15010041 7 26
1.6032678 0.032810532 0.10914448 9 25
1.6332312 -0.18040274 0.074999318 50 24
1.6291358 0.032816656 0.037021212 35 23
1.6771723 -0.18561235 0 8 22
1.6816213 0.033365477 -0.038239781 7 21
1.7249917 -0.19127251 -0.079308279 36 20
1.7180278 0.034134708 -0.11653879 8 19
1.7867583 -0.19914183 -0.15826598 8 18
1.5074865 0.027251642 0.28415728 12 29
1.5464113 -0.17614338 0.23798843 38 28
1.5558704 0.026872151 0.1857028 10 27
1.6023487 -0.18260802 0.15081403 7 26
1.5983855 0.027121605 0.10879744 12 25
1.6350722 -0.18638884 0.07511577 50 24
1.6342382 0.027220439 0.037137266 10 23
1.6864482 -0.19261329 0 6 22
1.6842265 0.027539812 -0.03829781 8 21
1.7218328 -0.19700564 -0.079191819 41 20
1.7156428 0.028093066 -0.11636614 8 19
1.7934722 -0.20624003 -0.15893659 8 18
1.5100268 0.022029206 0.28463086 11 29
1.5384289 -0.18066549 0.23682939 30 28
1.5559547 0.021440987 0.1857028 10 27
1.5992631 -0.18762724 0.15057616 7 26
1.5984703 0.021542037 0.10879744 29 25
1.6368914 -0.19238999 0.07523223 50 24
1.6318245 0.021479074 0.037079241 7 23
1.688248 -0.1987945 0 6 22
1.6793104 0.021882154 -0.038181756 21 21
1.7236143 -0.20331046 -0.079308279 31 20
1.7257054 0.022246951 -0.11705674 8 19
1.7927784 -0.21218626 -0.15893659 8 18
1.5076371 0.016989956 0.28415728 10 29
1.5427248 -0.18636559 0.2376021 22 28
1.5634614 0.016370788 0.18661162 9 27
1.6010685 -0.19351056 0.15081403 7 26
1.5935454 0.016182873 0.1084504 39 25
1.6362444 -0.19781707 0.07523223 50 24
1.6368849 0.016124338 0.037195295 7 23
1.6875795 -0.20439184 0 6 22
1.6818757 0.016047614 -0.038239781 25 21
1.7254093 -0.20932895 -0.079424739 15 20
1.720782 0.016469339 -0.11671145 8 19
1.7895554 -0.21813862 -0.15871306 8 18
1.5003233 0.01165781 0.28273648 10 29
1.5494168 -0.1926744 0.23876113 16 28
1.5511017 0.010807078 0.18509692 9 27
1.5929756 -0.1981663 0.15010041 7 26
1.6010737 0.010681634 0.10897096 48 25
1.6404994 -0.2041508 0.07546515 48 24
1.6394324 0.010143941 0.037253324 7 23
1.6843754 -0.20996885 0 6 22
1.6844208 0.010195432 -0.03829781 10 21
1.7394962 -0.21752946 -0.080123484 8 20
1.7233231 0.010481305 -0.1168841 8 19
1.7838427 -0.22375813 -0.15826598 8 18
1.5101748 0.0062153256 0.28463086 10 29
1.5487003 -0.19835201 0.23876113 10 28
1.5610571 0.0051704436 0.1863087 9 27
1.5947068 -0.20432317 0.15033828 7 26
1.6011022 0.004813334 0.10897096 50 25
1.6422169 -0.21048293 0.075581603 49 24
1.63196 0.0043897843 0.037079241 8 23
1.6910322 -0.21710567 0 6 22
1.6919446 0.0040504429 -0.038471889 7 21
1.7412027 -0.22392173 -0.080239952 8 20
1.7233497 0.0041649407 -0.1168841 8 19
1.792887 -0.2315827 -0.15916014 8 18
1.5077325 0.00093822461 0.28415728 11 29
1.5504469 -0.20408261 0.23914747 10 28
1.558584 -0.00028215931 0.18600574 10 27
1.5866196 -0.20862675 0.14962466 37 26
1.5936275 -0.00078341982 0.1084504 38 25
1.6389966 -0.21588464 0.07546515 36 24
1.6369638 -0.0013033556 0.037195295 18 23
1.6828297 -0.22201653 0 7 22
1.6944481 -0.0015589609 -0.038529918 6 21
1.7428857 -0.23032857 -0.080356404 8 20
1.7233539 -0.0018506978 -0.1168841 8 19
1.7896411 -0.23719667 -0.15893659 8 18
1.5126367 -0.004066743 0.28510448 11 29
1.5571034 -0.21022473 0.2403065 10 28
1.5585744 -0.0054506082 0.18600574 10 27
1.6006765 -0.21618257 0.15105191 56 26
1.5961099 -0.0060737329 0.10862391 19 25
1.6382716 -0.22131857 0.07546515 8 24
1.6444485 -0.0067513459 0.037369378 29 23
1.6796073 -0.22725736 0 36 22
1.6894338 -0.0074588484 -0.038413864 7 21
1.7396382 -0.23576844 -0.080239952 8 20
1.7233382 -0.0075655351 -0.1168841 8 19
1.7888021 -0.24344224 -0.15893659 7 18
1.5052491 -0.0093133878 0.28368369 12 29
1.5588063 -0.21600123 0.24069285 10 28
1.5535828 -0.010864163 0.18539986 14 27
1.5999122 -0.22176865 0.15105191 55 26
1.596079 -0.01164516 0.10862391 7 25
1.6473818 -0.22842088 0.075930983 6 24
1.6444128 -0.012778506 0.037369378 31 23
1.6812794 -0.23346595 0 46 22
1.6893975 -0.013356027 -0.038413864 7 21
1.7437084 -0.24283808 -0.080472864 8 20
1.7257953 -0.013597167 -0.11705674 8 19
1.7879415 -0.24968484 -0.15893659 8 18
1.5076598 -0.014850477 0.28415728 12 29
1.5531144 -0.22101022 0.23992017 10 28
1.5584956 -0.016603298 0.18600574 28 27
1.5990887 -0.22763114 0.15105191 54 26
1.5985197 -0.017518507 0.10879744 7 25
1.6465336 -0.2344573 0.075930983 6 24
1.6393598 -0.018469647 0.037253324 10 23
1.6804125 -0.23962659 0 40 22
1.6968346 -0.019623788 -0.038587943 8 21
1.7428501 -0.24892329 -0.080472864 8 20
1.7282277 -0.019947678 -0.11722939 9 19
1.7944074 -0.25730559 -0.15960722 8 18
1.505144 -0.020084396 0.28368369 13 29
1.554777 -0.2267902 0.2403065 10 28
1.5534654 -0.021980995 0.18539986 38 27
1.5982842 -0.23321161 0.15105191 53 26
1.6009423 -0.023130484 0.10897096 7 25
1.6506463 -0.24093126 0.076163903 7 24
1.6492816 -0.024324572 0.037485432 6 23
1.6869856 -0.24658519 0 22 22
1.6867595 -0.02541063 -0.038355835 28 21
1.7419707 -0.25500542 -0.080472864 8 20
1.7156786 -0.025810439 -0.11636614 12 19
1.5050647 -0.025338205 0.28368369 12 29
1.5490913 -0.23147902 0.23953381 10 28
1.5533791 -0.027403466 0.18539986 50 27
1.5975021 -0.23851043 0.15105191 50 26
1.6058391 -0.028800504 0.109318 10 25
1.6448566 -0.24594647 0.075930983 9 24
1.6416898 -0.029955868 0.037311349 6 23
1.6861147 -0.25247237 0 9 22
1.684167 -0.030961679 -0.03829781 46 21
1.7484773 -0.2622048 -0.080822244 8 20
1.7255527 -0.031969745 -0.11705674 20 19
1.5074269 -0.030374452 0.28415728 13 29
1.5531973 -0.23736791 0.2403065 10 28
1.555761 -0.032602582 0.1857028 51 27
1.5966599 -0.24408531 0.15105191 48 26
1.6007478 -0.034027133 0.10897096 26 25
1.6514362 -0.25254193 0.076280355 23 24
1.6490779 -0.035550226 0.037485432 6 23
1.6902096 -0.25882551 0 8 22
1.6840487 -0.036840327 -0.03829781 47 21
1.7426624 -0.26723832 -0.080589324 8 20
1.7204502 -0.037589855 -0.11671145 27 19
1.5048573 -0.035582189 0.28368369 18 29
1.5547991 -0.24317324 0.24069285 10 28
1.5556376 -0.038033001 0.1857028 41 27
1.5957981 -0.2496572 0.15105191 46 26
1.5931394 -0.039440919 0.1084504 37 25
1.6554781 -0.25908372 0.076513276 36 24
1.6514351 -0.041653477 0.037543457 6 23
1.6892959 -0.2647239 0 8 22
1.6814111 -0.042658776 -0.038239781 48 21
1.7466043 -0.27440497 -0.080822244 8 20
1.7228018 -0.043654747 -0.1168841 32 19
1.5022631 -0.041034557 0.2832101 21 29
1.5612123 -0.25005239 0.24185188 9 28
1.5629299 -0.043931916 0.18661162 25 27
1.5948724 -0.25550443 0.15105191 11 26
1.5979704 -0.045413855 0.10879744 39 25
1.6446563 -0.263556 0.076047435 49 24
1.6437845 -0.047213688 0.037369378 6 23
1.7006537 -0.27291009 0 8 22
1.6862402 -0.048958994 -0.038355835 47 21
1.7481009 -0.28089935 -0.080938697 8 20
1.7226303 -0.049968842 -0.1168841 37 19
1.5094717 -0.046492796 0.28463086 13 29
1.5603299 -0.2555005 0.24185188 9 28
1.5627669 -0.049387295 0.18661162 24 27
1.6062934 -0.26281765 0.15224129 9 26
1.6002948 -0.051067259 0.10897096 22 25
1.648654 -0.27010933 0.076280355 48 24
1.6436096 -0.052951276 0.037369378 7 23
1.6947578 -0.27802902 0 8 22
1.6785743 -0.054318909 -0.038181756 47 21
1.7495735 -0.28740755 -0.081055157 8 20
1.7274309 -0.056136578 -0.11722939 39 19
1.5068557 -0.051418457 0.28415728 13 29
1.5619097 -0.26108399 0.24223822 9 28
1.555154 -0.054321215 0.1857028 35 27
1.6004583 -0.26759559 0.15176554 22 26
1.6125796 -0.056793712 0.10983856 7 25
1.6477492 -0.27557498 0.076280355 41 24
1.6459229 -0.058486436 0.037427403 13 23
1.6938264 -0.28364751 0 8 22
1.6908636 -0.060607478 -0.038471889 46 21
1.7510732 -0.29362378 -0.081171617 8 20
1.7247427 -0.061778896 -0.11705674 39 19
1.5115733 -0.056854531 0.28510448 16 29
1.5658572 -0.26737276 0.24301092 9 28
1.5599148 -0.059932124 0.1863087 46 27
1.5946094 -0.27233598 0.15128979 35 26
1.6098791 -0.062329628 0.10966504 6 25
1.6590825 -0.28344387 0.076862648 26 24
1.6407024 -0.06433025 0.037311349 38 23
1.6952896 -0.289983 0 8 22
1.6856467 -0.066320054 -0.038355835 37 21
1.7475245 -0.29961479 -0.081055157 8 20
1.7295011 -0.067987867 -0.11740204 40 19
1.508902 -0.06229711 0.28463086 19 29
1.5721644 -0.27439427 0.24416994 9 28
1.5596846 -0.0656491 0.1863087 49 27
1.5985024 -0.27904129 0.15176554 46 26
1.6245912 -0.068840668 0.11070616 6 25
1.6506541 -0.28822446 0.076513276 10 24
1.6454623 -0.07026282 0.037427403 47 23
1.6942154 -0.29619461 0 8 22
1.6928837 -0.072809182 -0.038529918 12 21
1.7538459 -0.30701387 -0.08140453 8 20
1.7292403 -0.074326351 -0.11740204 40 19
1.506223 -0.067457996 0.28415728 26 29
1.5569667 -0.070983894 0.18600574 49 27
1.5975186 -0.28461939 0.15176554 50 26
1.6193581 -0.074290082 0.11035912 7 25
1.6594697 -0.29575005 0.076979108 9 24
1.6452069 -0.076006129 0.037427403 47 23
1.7030135 -0.30387583 0 8 22
1.6876259 -0.078492999 -0.038413864 6 21
1.7289703 -0.080362074 -0.11740204 38 19
1.5059911 -0.072452433 0.28415728 24 29
1.5616804 -0.076381251 0.18661162 48 27
1.5990142 -0.29036337 0.15200342 51 26
1.6141205 -0.079422094 0.11001208 7 25
1.6535671 -0.30035236 0.076746188 8 24
1.6424495 -0.081341498 0.037369378 47 23
1.7044556 -0.30997199 0 8 22
1.6973418 -0.084572077 -0.038645972 6 21
1.7262032 -0.085974574 -0.11722939 34 19
1.5106323 -0.077953845 0.28510448 17 29
1.5614043 -0.081832074 0.18661162 46 27
1.6028836 -0.29685622 0.15247917 52 26
1.6163241 -0.085183419 0.1101856 7 25
1.6525084 -0.30612257 0.076746188 9 24
1.6421403 -0.087360829 0.037369378 46 23
1.7082782 -0.31683782 0 8 22
1.6995324 -0.090625882 -0.038704 7 21
1.7258927 -0.091999628 -0.11722939 26 19
1.5127876 -0.083621532 0.28557807 10 29
1.5685277 -0.087959558 0.18752046 31 27
1.59934 -0.30226362 0.15224129 49 26
1.6209815 -0.091380194 0.11053264 8 25
1.6660947 -0.31497976 0.077444941 9 24
1.6443208 -0.09323021 0.037427403 47 23
1.7071055 -0.32309684 0 8 22
1.6991887 -0.096854374 -0.038704 9 21
1.728034 -0.098463073 -0.11740204 16 19
1.5198387 -0.089321695 0.28699887 10 29
1.5706882 -0.093577914 0.18782339 8 27
1.5982752 -0.30784449 0.15224129 46 26
1.6131835 -0.096602008 0.11001208 29 25
1.6625335 -0.32031795 0.077328481 9 24
1.6464804 -0.099115878 0.037485432 47 23
1.703513 -0.32857716 0 8 22
1.6963453 -0.10263771 -0.038645972 19 21
1.7376386 -0.10508261 -0.11809264 9 19
1.524418 -0.094923533 0.28794605 10 29
1.5703522 -0.099060066 0.18782339 7 27
1.6118948 -0.31603551 0.15366857 39 26
1.6053687 -0.10177051 0.10949152 48 25
1.663855 -0.32660356 0.077444941 9 24
1.6436299 -0.10470738 0.037427403 31 23
1.7097131 -0.33597705 0 8 22
1.7034791 -0.1087293 -0.038820054 30 21
1.7397504 -0.11130319 -0.11826529 7 19
1.5191954 -0.099664763 0.28699887 10 29
1.5675387 -0.10410643 0.18752046 7 27
1.6083418 -0.32116953 0.15343069 19 26
1.6050224 -0.10709354 0.10949152 51 25
1.6627628 -0.33211929 0.077444941 9 24
1.6582375 -0.11113804 0.037775565 9 23
1.7110404 -0.34213808 0 8 22
1.6931136 -0.11401755 -0.038587943 28 21
1.7343946 -0.11674383 -0.11792 7 19
1.5212874 -0.10513239 0.28747246 10 29
1.5696414 -0.10974674 0.18782339 7 27
1.6242776 -0.33027571 0.15509583 9 26
1.6046388 -0.11269546 0.10949152 51 25
1.6664866 -0.33892319 0.077677861 9 24
1.650339 -0.11669724 0.037601486 10 23
1.7147338 -0.34911233 0 8 22
1.7001852 -0.12044605 -0.038762026 8 21
1.7364644 -0.12296995 -0.11809264 27 19
1.5208919 -0.11070748 0.28747246 10 29
1.5741791 -0.1158556 0.18842927 7 27
1.6254925 -0.3367348 0.1553337 9 26
1.6067026 -0.11875605 0.10966504 50 25
1.6676778 -0.34553868 0.077794321 9 24
1.6524142 -0.12263858 0.037659511 25 23
1.6972395 -0.12649456 -0.038704 6 21
1.7310271 -0.12897001 -0.11774734 42 19
1.5180483 -0.11583294 0.28699887 10 29
1.5638669 -0.12060209 0.1872175 7 27
1.634105 -0.34418786 0.1562852 9 26
1.6062782 -0.12436377 0.10966504 50 25
1.6713474 -0.35239458 0.078027233 9 24
1.6444999 -0.12783583 0.037485432 35 23
1.6993029 -0.13231255 -0.038762026 6 21
1.7380269 -0.13558304 -0.11826529 42 19
1.5176558 -0.12086633 0.28699887 10 29
1.5659324 -0.12598255 0.18752046 7 27
1.6207299 -0.34726667 0.15509583 9 26
1.6058569 -0.12968969 0.10966504 51 25
1.6652873 -0.3568821 0.077794321 8 24
1.6490499 -0.13368502 0.037601486 44 23
1.6988307 -0.13824341 -0.038762026 6 21
1.7375677 -0.1413458 -0.11826529 45 19
1.5196713 -0.12636262 0.28747246 10 29
1.5679562 -0.13165165 0.18782339 14 27
1.6268005 -0.35452133 0.15580945 9 26
1.6053945 -0.13529439 0.10966504 48 25
1.66891 -0.36376283 0.078027233 8 24
1.6485488 -0.1397282 0.037601486 46 23
1.7058098 -0.14479612 -0.038936108 6 21
1.7345781 -0.14720279 -0.11809264 45 19
1.5216439 -0.13214006 0.28794605 10 29
1.572408 -0.13782327 0.18842927 37 27
1.6279193 -0.36102355 0.15604733 9 26
1.6098573 -0.14160708 0.11001208 28 25
1.6797522 -0.37259683 0.078609534 8 24
1.648051 -0.14548185 0.037601486 46 23
1.7077575 -0.15126419 -0.038994133 6 21
1.7389963 -0.15399237 -0.11843794 45 19
1.5236185 -0.1376677 0.28841963 10 29
1.5694456 -0.14308971 0.18812634 48 27
1.6242222 -0.3661533 0.15580945 9 26
1.6168051 -0.14789596 0.11053264 21 25
1.676006 -0.37790555 0.078493066 8 24
1.6450437 -0.15100895 0.037543457 26 23
1.7047299 -0.15699881 -0.038936108 8 21
1.7359643 -0.15983647 -0.11826529 42 19
1.5280172 -0.14343622 0.28936681 10 29
1.5738783 -0.14902739 0.18873222 48 27
1.6278491 -0.37265453 0.1562852 8 26
1.6137956 -0.15330666 0.11035912 34 25
1.672243 -0.38319269 0.078376614 8 24
1.6469951 -0.15698378 0.037601486 7 23
1.6942465 -0.16171542 -0.038704 26 21
1.7403618 -0.16636282 -0.1186106 41 19
1.5709053 -0.15400748 0.18842927 49 27
1.6289617 -0.37890154 0.15652309 8 26
1.6107961 -0.15841702 0.1101856 46 25
1.6831211 -0.39158085 0.078958906 8 24
1.6613911 -0.16389486 0.037949648 6 23
1.7011342 -0.16835621 -0.03887808 45 21
1.7398007 -0.17213316 -0.1186106 39 19
1.5728276 -0.15973693 0.18873222 35 27
1.6324716 -0.38573629 0.15699884 9 26
1.6127148 -0.16428779 0.11035912 49 25
1.6533191 -0.16923055 0.037775565 6 23
1.7005363 -0.17429326 -0.03887808 44 21
1.7391891 -0.17820516 -0.1186106 37 19
1.5697632 -0.16524461 0.18842927 23 27
1.6334659 -0.39230138 0.15723671 9 26
1.6145824 -0.17045566 0.11053264 48 25
1.6676332 -0.17655778 0.038123727 6 23
1.7023717 -0.18078525 -0.038936108 45 21
1.7459657 -0.18535791 -0.11912854 27 19
1.5765791 -0.17151678 0.1893381 9 27
1.632156 -0.39771596 0.15723671 9 26
1.6164571 -0.17635733 0.11070616 45 25
1.6670067 -0.18237783 0.038123727 6 23
1.7042476 -0.18669814 -0.038994133 46 21
1.7477875 -0.1917198 -0.11930119 10 19
1.5809348 -0.17728946 0.18994398 10 27
1.6355879 -0.40461242 0.15771246 9 26
1.6158633 -0.18171671 0.11070616 40 25
1.6614249 -0.18735196 0.038007673 6 23
1.7035855 -0.19264595 -0.038994133 46 21
1.7520994 -0.19806805 -0.1196465 8 19
1.5753752 -0.18224415 0.1893381 33 27
1.6317526 -0.40971002 0.15747459 9 26
1.6226528 -0.18820691 0.11122672 23 25
1.6681759 -0.19429673 0.038181756 8 23
1.7053858 -0.19887736 -0.039052162 45 21
1.7513974 -0.20418282 -0.1196465 8 19
1.5746965 -0.18801697 0.1893381 54 27
1.6326506 -0.41630599 0.15771246 9 26
1.6318588 -0.19532377 0.1119208 7 25
1.6550779 -0.19864757 0.037891619 28 23
1.709609 -0.2057167 -0.039168216 46 21
1.7605436 -0.21177839 -0.12033709 8 19
1.5789577 -0.19411051 0.18994398 52 27
1.6263704 -0.42074952 0.15723671 13 26
1.6336429 -0.20132019 0.11209433 6 25
1.6593361 -0.20502937 0.038007673 47 23
1.7088805 -0.21168311 -0.039168216 44 21
1.752367 -0.2170133 -0.11981915 8 19
1.5782704 -0.19962093 0.18994398 53 27
1.6273729 -0.42677492 0.15747459 22 26
1.6304556 -0.20671143 0.1119208 6 25
1.6610903 -0.21113183 0.038065702 47 23
1.7032096 -0.21672489 -0.039052162 43 21
1.7614968 -0.22437577 -0.12050975 8 19
1.5775999 -0.20485355 0.18994398 51 27
1.6210648 -0.43116719 0.15699884 15 26
1.6347083 -0.21275347 0.11226784 6 25
1.6579021 -0.21631929 0.038007673 47 23
1.7123574 -0.22395131 -0.039284267 29 21
1.760743 -0.23021589 -0.12050975 8 19
1.5768752 -0.21035917 0.18994398 47 27
1.6123439 -0.43486938 0.1562852 16 26
1.6314834 -0.21813156 0.11209433 6 25
1.6595757 -0.2227232 0.038065702 47 23
1.7066102 -0.22926866 -0.039168216 10 21
1.7599287 -0.23636059 -0.12050975 8 19
1.5760937 -0.21613729 0.18994398 46 27
1.6356153 -0.22478156 0.11244137 7 25
1.6612645 -0.22885229 0.038123727 48 23
1.7157049 -0.23657608 -0.039400321 8 21
1.7565794 -0.24247186 -0.12033709 8 19
1.580284 -0.22204563 0.19054987 39 27
1.637331 -0.23054826 0.11261488 9 25
1.6604966 -0.23435999 0.038123727 40 23
1.7272446 -0.24429622 -0.039690454 8 21
1.7631756 -0.24933298 -0.12085505 8 19
1.572129 -0.22651023 0.18964103 22 27
1.6192341 -0.23379335 0.11140025 30 25
1.6596264 -0.24044444 0.038123727 32 23
1.7263812 -0.25032398 -0.039690454 8 21
1.7647631 -0.25584054 -0.12102769 8 19
1.5737437 -0.23262994 0.18994398 6 27
1.6208336 -0.24008828 0.11157376 52 25
1.658777 -0.24623613 0.038123727 41 23
1.7279249 -0.25701404 -0.039748482 8 21
1.7588787 -0.26158002 -0.1206824 8 19
1.5802847 -0.2392249 0.19085279 6 27
1.6199857 -0.24574459 0.11157376 50 25
1.6628504 -0.2527689 0.038239781 44 23
1.7295345 -0.26311508 -0.039806508 8 21
1.7628872 -0.26846224 -0.12102769 8 19
1.5794827 -0.24446401 0.19085279 6 27
1.6240921 -0.25187236 0.1119208 46 25
1.662003 -0.25828171 0.038239781 32 23
1.7286055 -0.26915067 -0.039806508 8 21
1.7644523 -0.27468699 -0.12120035 8 19
1.5761682 -0.24959159 0.19054987 7 27
1.6207393 -0.25715289 0.11174729 39 25
1.663514 -0.26476079 0.03829781 14 23
1.7251868 -0.2747933 -0.039748482 8 21
1.7634827 -0.28084439 -0.12120035 8 19
1.5850435 -0.25694019 0.19176163 7 27
1.6247106 -0.26388377 0.11209433 28 25
1.674917 -0.27255526 0.038587943 9 23
1.7315699 -0.28231078 -0.039922561 8 21
1.7747518 -0.28929541 -0.12206359 8 19
1.5865858 -0.26287335 0.19206455 7 27
1.636084 -0.27157721 0.11296193 13 25
1.6714892 -0.27799368 0.038529918 9 23
1.730574 -0.28835335 -0.039922561 8 21
1.5832112 -0.26799956 0.19176163 10 27
1.6326666 -0.27687323 0.11278841 13 25
1.6754379 -0.28465676 0.038645972 8 23
1.7320727 -0.2945061 -0.03998059 8 21
1.5872058 -0.27408528 0.19236751 38 27
1.6292814 -0.28186432 0.11261488 36 25
1.6794113 -0.29105768 0.038762026 8 23
1.7334973 -0.30097449 -0.040038615 8 21
1.5886838 -0.28005105 0.19267043 50 27
1.6307441 -0.28797993 0.11278841 47 25
1.6832565 -0.29807565 0.03887808 8 23
1.7299745 -0.30659097 -0.03998059 8 21
1.5900898 -0.28630805 0.19297339 49 27
1.6272227 -0.29351589 0.11261488 34 25
1.6846659 -0.30439034 0.038936108 9 23
1.736219 -0.31425479 -0.040154673 8 21
1.5841979 -0.29096764 0.19236751 45 27
1.6335487 -0.30053708 0.11313545 20 25
1.6860516 -0.31071851 0.038994133 9 23
1.7327091 -0.31956068 -0.040096644 8 21
1.5905441 -0.29757735 0.19327632 43 27
1.642351 -0.30777559 0.11382953 9 25
1.6874692 -0.31676558 0.039052162 9 23
1.7315829 -0.32560703 -0.040096644 8 21
1.5870574 -0.30266646 0.19297339 38 27
1.6437169 -0.31397089 0.11400305 9 25
1.6862969 -0.32294834 0.039052162 9 23
1.5835006 -0.30801111 0.19267043 30 27
1.6450039 -0.32046664 0.11417657 9 25
1.6925205 -0.33025819 0.039226241 9 23
1.589721 -0.31497255 0.19357927 18 27
1.646322 -0.32668868 0.11435009 9 25
1.6790971 -0.33374545 0.038936108 8 23
1.5813674 -0.31878245 0.19267043 10 27
1.6476752 -0.33263624 0.11452361 9 25
1.6804314 -0.33980355 0.038994133 8 23
1.5924035 -0.32677639 0.19418515 9 27
1.6513913 -0.33938268 0.11487066 9 25
1.6840719 -0.34696209 0.039110187 8 23
1.5863354 -0.33160248 0.19357927 15 27
1.652578 -0.34594047 0.11504417 9 25
1.6877444 -0.35385728 0.039226241 8 23
1.5924525 -0.3386755 0.19448809 21 27
1.6513604 -0.35170692 0.11504417 9 25
1.6840539 -0.35922849 0.039168216 8 23
1.5913206 -0.34395441 0.19448809 13 27
1.6526233 -0.35770518 0.1152177 9 25
1.68774 -0.36586314 0.039284267 8 23
1.6046574 -0.35268149 0.19630574 9 27
1.6513646 -0.36347175 0.1152177 9 25
1.6009313 -0.35802251 0.1960028 9 27
1.6548902 -0.37060484 0.11556474 9 25
1.6045133 -0.36470145 0.19660868 9 27
1.6560193 -0.37692922 0.11573827 8 25
1.6104869 -0.3719646 0.1975175 9 27
1.6571239 -0.38326597 0.11591178 8 25
1.6116611 -0.37786597 0.19782044 9 27
1.6509863 -0.38762602 0.11556474 8 25
1.6079175 -0.38291815 0.1975175 9 27
1.6544768 -0.3945367 0.11591178 8 25
1.6065711 -0.3885285 0.1975175 9 27
1.6555142 -0.40089294 0.11608531 9 25
1.6075469 -0.39500281 0.19782044 9 27
1.6085672 -0.40120879 0.19812338 9 27
1.6144478 -0.40835565 0.1990322 9 27
1.6547977 0.1589282 0 8 22
1.6478735 0.15246987 0 8 22
1.6884276 0.15587056 -0.077444941 15 20
1.6558411 0.14766076 0 8 22
1.6939108 0.15070687 -0.077677861 9 20
1.6023045 0.13760452 0.073368892 9 24
1.6488731 0.1412497 0 8 22
1.6894746 0.14407942 -0.077444941 8 20
1.6227114 0.13334006 0.074300557 9 24
1.6593473 0.13600907 0 8 22
1.6999243 0.13898228 -0.077910781 7 20
1.6181872 0.12729001 0.074067645 9 24
1.6523342 0.12963933 0 8 22
1.6979092 0.13285601 -0.077794321 7 20
1.621091 0.12210742 0.074184105 9 24
1.6552483 0.12434325 0 8 22
1.69585 0.12704149 -0.077677861 8 20
1.6190162 0.11627249 0.074067645 9 24
1.6581659 0.11873986 0 8 22
1.693813 0.12065081 -0.077561401 8 20
1.6169398 0.11017136 0.073951185 8 24
1.65859 0.11266157 0 8 22
1.6942239 0.11473758 -0.077561401 16 20
1.5721062 0.10167252 0.14724588 8 26
1.6173143 0.1045265 0.073951185 8 24
1.6564783 0.10671391 0 8 22
1.6896292 0.10850932 -0.077328481 18 20
1.5674664 0.096160866 0.14677013 9 26
1.6251479 0.099327311 0.074300557 8 24
1.654345 0.10078238 0 8 22
1.7024622 0.10335127 -0.077910781 9 20
1.5677925 0.090688802 0.14677013 10 26
1.6229751 0.093796879 0.074184105 9 24
1.6571661 0.095436245 0 8 22
1.6953155 0.097285628 -0.077561401 9 20
1.575555 0.085610271 0.14748375 9 26
1.6282802 0.088395067 0.074417017 9 24
1.6574893 0.089651078 0 8 22
1.6981544 0.091202036 -0.077677861 10 20
1.5708869 0.079590127 0.147008 9 26
1.6285932 0.082426526 0.074417017 9 24
1.6628007 0.083820589 0 8 22
1.6909795 0.084907837 -0.077328481 16 20
1.5736413 0.074219987 0.14724588 8 26
1.6263764 0.076627024 0.074300557 9 24
1.6456013 0.077218913 0 16 22
1.6962552 0.07923127 -0.077561401 26 20
1.5713922 0.068895683 0.147008 9 26
1.624139 0.070843995 0.074184105 8 24
1.6483587 0.071579352 0 31 22
1.6865411 0.072891444 -0.077095568 31 20
1.5765967 0.063603744 0.14748375 9 26
1.624365 0.065457769 0.074184105 8 24
1.6410925 0.065822273 0 44 22
1.6917642 0.067490876 -0.077328481 38 20
1.5109223 0.055776846 0.23103423 15 28
1.5743221 0.05801186 0.14724588 9 26
1.6170963 0.059521895 0.073834725 8 24
1.6488076 0.060357757 0 49 22
1.6895044 0.061202642 -0.077212021 41 20
1.5283974 0.050787773 0.23373863 13 28
1.5770115 0.052320324 0.14748375 8 26
1.6297837 0.053991105 0.074417017 9 24
1.6465191 0.054235205 0 50 22
1.6946998 0.055461679 -0.077444941 42 20
1.5260966 0.045382537 0.2333523 11 28
1.5722091 0.046674497 0.147008 9 26
1.6224735 0.048089974 0.074067645 9 24
1.6491975 0.048557695 0 49 22
1.6898905 0.049406279 -0.077212021 44 20
1.5262457 0.040055189 0.2333523 12 28
1.5748432 0.041522715 0.14724588 9 26
1.6176382 0.042302415 0.073834725 14 24
1.6493568 0.042800624 0 51 22
1.6950457 0.043629188 -0.077444941 45 20
1.5288393 0.035046775 0.23373863 11 28
1.5774666 0.036078654 0.14748375 9 26
1.6227632 0.037045114 0.074067645 23 24
1.651989 0.037384152 0 49 22
1.6951811 0.038007971 -0.077444941 44 20
1.5264829 0.029665517 0.2333523 12 28
1.5775831 0.030572047 0.14748375 9 26
1.6103982 0.031155933 0.073485352 43 24
1.64961 0.031572904 0 49 22
1.6928122 0.031750984 -0.077328481 45 20
1.5290511 0.024105826 0.23373863 11 28
1.5826613 0.024860945 0.14795952 10 26
1.6129986 0.025289059 0.073601805 51 24
1.6497146 0.02552657 0 49 22
1.6979069 0.025911514 -0.077561401 45 20
1.5266562 0.018741569 0.2333523 11 28
1.5802466 0.019585151 0.14772163 10 26
1.613077 0.019658489 0.073601805 50 24
1.6497936 0.019767834 0 45 22
1.6929926 0.019932251 -0.077328481 45 20
1.5341195 0.013734501 0.23451132 13 28
1.5803053 0.014068943 0.14772163 9 26
1.6156306 0.014327968 0.073718272 50 24
1.6473501 0.014278487 0 38 22
1.6955465 0.014335846 -0.077444941 46 20
1.5292182 0.0083595105 0.23373863 16 28
1.5828334 0.0085625509 0.14795952 9 26
1.6156708 0.0086882766 0.073718272 50 24
1.6548899 0.0085568745 0 29 22
1.6980851 0.0081299786 -0.077561401 45 20
1.5292386 0.0027545893 0.23373863 15 28
1.5728995 0.002757644 0.147008 21 26
1.6156918 0.0027664884 0.073718272 51 24
1.6549102 0.0024913417 0 14 22
1.6956056 0.0022025055 -0.077444941 44 20
1.531709 -0.0025912265 0.23412499 15 28
1.5753882 -0.0027406353 0.14724588 37 26
1.6156915 -0.0028733455 0.073718272 51 24
1.6549088 -0.003285388 0 42 22
1.7080896 -0.0037598624 -0.078027233 38 20
1.5341604 -0.0079542529 0.23451132 14 28
1.5753704 -0.0079647955 0.14724588 52 26
1.6156716 -0.0085131442 0.073718272 44 24
1.6548872 -0.0090620779 0 50 22
1.7030715 -0.0096873157 -0.077794321 9 20
1.5316558 -0.013017097 0.23412499 13 28
1.5728445 -0.013439057 0.147008 54 26
1.6181318 -0.013895701 0.073834725 35 24
1.6573478 -0.014575138 0 49 22
1.7105216 -0.015411997 -0.078143694 6 20
1.531601 -0.018363494 0.23412499 12 28
1.5752765 -0.018962672 0.14724588 53 26
1.6255646 -0.019644631 0.074184105 18 24
1.6547872 -0.020326242 0 49 22
1.7079566 -0.021646401 -0.078027233 6 20
1.5339929 -0.024019213 0.23451132 14 28
1.5776846 -0.024778787 0.14748375 52 26
1.6179907 -0.025474353 0.073834725 9 24
1.659701 -0.026477592 0 48 22
1.7103674 -0.027651733 -0.078143694 6 20
1.5388386 -0.029475432 0.23528402 13 28
1.5775937 -0.030010439 0.14748375 50 26
1.6228856 -0.031224895 0.074067645 7 24
1.6545994 -0.032167029 0 48 22
1.705267 -0.033517264 -0.077910781 6 20
1.5362632 -0.034519188 0.23489767 14 28
1.5725034 -0.035398085 0.147008 39 26
1.6177799 -0.036486991 0.073834725 38 24
1.6544837 -0.037653703 0 47 22
1.7101396 -0.039293107 -0.078143694 6 20
1.5336643 -0.039813865 0.23451132 18 28
1.5798336 -0.041091487 0.14772163 31 26
1.6201391 -0.042202298 0.073951185 49 24
1.656841 -0.043497629 0 31 22
1.7049915 -0.045421358 -0.077910781 7 20
1.5335081 -0.045434758 0.23451132 36 28
1.5871346 -0.047113497 0.14843526 10 26
1.6199735 -0.04814012 0.073951185 52 24
1.6666656 -0.049882323 0 8 22
1.7123106 -0.051607933 -0.078260154 22 20
1.5234661 -0.050446067 0.23296595 50 28
1.5844735 -0.052567363 0.1481974 8 26
1.6197957 -0.053794589 0.073951185 51 24
1.6292785 0.15844254 0.037195295 8 23
1.6714784 -0.055873394 0 6 22
1.7046329 -0.05732324 -0.077910781 41 20
1.5257491 -0.05585761 0.2333523 55 28
1.5818036 -0.057727143 0.14795952 7 26
1.6220936 -0.059543401 0.074067645 50 24
1.6347978 0.15322824 0.037311349 9 23
1.6637787 -0.061421007 0 6 22
1.6696579 0.15625405 -0.038123727 8 21
1.7044224 -0.063273169 -0.077910781 44 20
1.7816278 -0.066855803 -0.15692475 8 18
1.5255554 -0.060916863 0.2333523 56 28
1.5915384 -0.063659966 0.14891101 7 26
1.6243823 -0.065025397 0.074184105 49 24
1.6303192 0.14734881 0.037195295 8 23
1.6660637 -0.06704177 0 6 22
1.6701933 0.1504249 -0.038123727 8 21
1.7042031 -0.068924889 -0.077910781 43 20
1.7788956 -0.072969303 -0.15670121 8 18
1.5253334 -0.066241682 0.2333523 52 28
1.5863341 -0.068991899 0.14843526 8 26
1.6216506 -0.07058318 0.074067645 49 24
1.6333381 0.14159198 0.037253324 8 23
1.6633221 -0.072744474 0 6 22
1.6707082 0.14459391 -0.038123727 8 21
1.7089286 -0.075397216 -0.078143694 44 20
1.7786301 -0.079178363 -0.15670121 8 18
1.5324814 -0.072191246 0.23451132 9 28
1.583585 -0.074684948 0.1481974 45 26
1.6238754 -0.076647468 0.074184105 48 24
1.6313319 0.13567883 0.037195295 8 23
1.6730324 -0.079327121 0 7 22
1.671227 0.13846949 -0.038123727 8 21
1.7111491 -0.081484012 -0.078260154 44 20
1.7733542 -0.085450962 -0.15625413 8 18
1.527287 -0.077283345 0.23373863 7 28
1.5808294 -0.080082849 0.14795952 53 26
1.596014 0.12763415 0.10897096 5 25
1.6285857 -0.082575038 0.074417017 10 24
1.6367779 0.13038795 0.037311349 8 23
1.667752 -0.084905803 0 7 22
1.6717001 0.13263498 -0.038123727 8 21
1.7108543 -0.087456539 -0.078260154 42 20
1.7730449 -0.091640599 -0.15625413 8 18
1.534421 -0.082757354 0.23489767 7 28
1.58304 -0.08546225 0.1481974 53 26
1.5964284 0.12234089 0.10897096 8 25
1.6283029 -0.087975174 0.074417017 7 24
1.6322393 0.12428677 0.037195295 8 23
1.6699574 -0.090574481 0 33 22
1.667147 0.12670459 -0.038007673 8 21
1.7055519 -0.093149208 -0.078027233 35 20
1.7801895 -0.097939312 -0.15692475 8 18
1.5341073 -0.088380732 0.23489767 7 28
1.5802318 -0.091117084 0.14795952 53 26
1.5943793 0.1163036 0.10879744 9 25
1.6354485 -0.094384313 0.074766397 6 24
1.6376482 0.118958 0.037311349 8 23
1.6621275 -0.096251085 0 44 22
1.6750779 0.12114509 -0.038181756 8 21
1.7176808 -0.099842653 -0.078609534 24 20
1.7823042 -0.10461235 -0.15714829 8 18
1.5362545 -0.093889445 0.23528402 7 28
1.5848885 -0.096666738 0.14843526 52 26
1.5972631 0.11091404 0.10897096 9 25
1.6326165 -0.099936582 0.074649937 7 24
1.6330671 0.11288865 0.037195295 8 23
1.6642764 -0.10220895 0 41 22
1.6754704 0.11558966 -0.038181756 8 21
1.7098446 -0.10536745 -0.078260154 32 20
1.7720072 -0.10989325 -0.15625413 8 18
