# .PCD v0.7 - Point Cloud Data file format
VERSION 0.7
FIELDS x y z intensity ring
SIZE 4 4 4 4 2
TYPE F F F F U
COUNT 1 1 1 1 1
WIDTH 1258
HEIGHT 1
VIEWPOINT 0 0 0 1 0 0 0
POINTS 1258
DATA ascii
1.2840149 -0.037415769 0.029013492 10 23
1.2740083 -0.037588321 -0.028781384 10 21
1.2165343 -0.036009099 -0.081836127 63 19
1.2091943 -0.035812732 -0.13447796 78 17
1.1771499 -0.034535885 -0.1992383 44 15
1.2863746 -0.041974347 0.029071517 9 23
1.268873 -0.041879941 -0.02866533 10 21
1.2114156 -0.04010044 -0.08149083 63 19
1.2065792 -0.039956234 -0.13419364 75 17
1.2862201 -0.046464376 0.029071517 9 23
1.2687273 -0.046087448 -0.02866533 12 21
1.2162533 -0.044501163 -0.081836127 61 19
1.2113971 -0.04433937 -0.13476226 69 17
1.2885567 -0.050823152 0.029129546 9 23
1.2710561 -0.050610483 -0.028723355 12 21
1.2260681 -0.048911903 -0.082526729 57 19
1.2112434 -0.048356265 -0.13476226 43 17
1.2933562 -0.055751439 0.0292456 9 23
1.2708716 -0.055046987 -0.028723355 11 21
1.2258899 -0.053191379 -0.082526729 39 19
1.2085764 -0.052692227 -0.13447796 35 17
1.2781519 -0.060042109 -0.028897438 10 21
1.2281783 -0.0577964 -0.082699381 29 19
1.2108663 -0.057022426 -0.13476226 32 17
1.2754492 -0.064159505 -0.028839409 10 21
1.2229867 -0.061841268 -0.082354084 23 19
1.2181023 -0.061610188 -0.1356152 27 17
1.2752175 -0.068611264 -0.028839409 16 21
1.2327378 -0.066413395 -0.083044685 19 19
1.2278132 -0.066163994 -0.13675243 25 17
1.2724749 -0.072923981 -0.028781384 16 21
1.2349886 -0.070853963 -0.08321733 19 19
1.2250824 -0.070525922 -0.13646811 25 17
1.2746938 -0.077734694 -0.028839409 12 21
1.2347207 -0.075379945 -0.08321733 19 19
1.2223494 -0.074655399 -0.13618381 26 17
1.2769092 -0.082339793 -0.028897438 10 21
1.2369392 -0.079845197 -0.083389983 18 19
1.2245603 -0.079076827 -0.13646811 25 17
1.2841108 -0.087066717 -0.029071517 10 21
1.236653 -0.084162436 -0.083389983 18 19
1.2242768 -0.08335086 -0.13646811 24 17
1.2763191 -0.091029465 -0.028897438 10 21
1.2338789 -0.088090181 -0.08321733 19 19
1.2239937 -0.087410249 -0.13646811 25 17
1.2735009 -0.095302358 -0.028839409 11 21
1.2310765 -0.092215344 -0.083044685 26 19
1.2211878 -0.091714785 -0.13618381 27 17
1.2781272 -0.10035108 -0.028955463 10 21
1.2282435 -0.096536353 -0.082872026 29 19
1.238196 -0.097304776 -0.13817397 28 17
1.2802604 -0.10501155 -0.029013492 10 21
1.2303851 -0.1010223 -0.083044685 30 19
1.2774146 -0.10904863 -0.028955463 10 21
1.2300249 -0.10531653 -0.083044685 27 19
1.2820058 -0.11394001 -0.029071517 10 21
1.2371229 -0.11004306 -0.083562627 21 19
1.2766014 -0.11818673 -0.028955463 10 21
1.2391952 -0.11480178 -0.08373528 20 19
1.2786695 -0.12287652 -0.029013492 10 21
1.2363037 -0.11889283 -0.083562627 20 19
1.2832299 -0.12760125 -0.029129546 11 21
1.2408457 -0.12369264 -0.083907925 21 19
1.28775 -0.13258232 -0.0292456 14 21
1.2280217 -0.12655306 -0.083044685 22 19
1.235014 -0.13161707 -0.083562627 22 19
1.2320439 -0.13587426 -0.083389983 22 19
1.2389977 -0.14100549 -0.083907925 20 19
1.1589564 0.51309103 -0.11065206 9 18
1.1684536 0.51288831 -0.057879902 10 20
1.1653937 0.51083118 -0.11109914 10 18
1.1587775 0.50384766 -0.057297613 34 20
1.1717411 0.50873542 -0.11154622 10 18
1.1697104 0.50373483 -0.057763446 38 20
1.1573991 0.49798626 -0.10998145 9 18
1.1760592 0.50160021 -0.057996366 26 20
1.1499608 0.4900547 -0.10908729 9 18
1.1731987 0.49555647 -0.057763446 9 20
1.1517491 0.48583657 -0.10908729 10 18
1.1772268 0.4924179 -0.057879902 9 20
1.1580366 0.48372465 -0.10953437 10 18
1.1766298 0.48735401 -0.057763446 8 20
1.1481221 0.47514147 -0.10841667 9 18
1.1713033 0.48061749 -0.05741407 9 20
1.1520793 0.4720709 -0.1086402 9 18
1.173057 0.47632122 -0.05741407 9 20
1.1514112 0.46711457 -0.10841667 9 18
1.1747124 0.47222364 -0.05741407 9 20
1.1531155 0.46289128 -0.10841667 8 18
1.1693881 0.46536234 -0.057064697 9 20
1.1547242 0.45886335 -0.10841667 8 18
1.1756555 0.46309996 -0.057297613 9 20
1.156319 0.45482984 -0.10841667 8 18
1.1795931 0.45989639 -0.05741407 9 20
1.1578996 0.45079073 -0.10841667 8 18
1.1718656 0.45219624 -0.056948237 9 20
1.1594661 0.44674617 -0.10841667 7 18
1.1734369 0.44810289 -0.056948237 9 20
1.1586902 0.44181314 -0.10819312 8 18
1.3448029 0.5118686 -0.1950727 35 16
1.174994 0.44400412 -0.056948237 9 20
1.1578943 0.43689102 -0.10796959 9 18
1.1812179 0.44164091 -0.057181153 9 20
1.1570024 0.43218178 -0.10774604 9 18
1.1346767 0.42344326 -0.16342069 12 16
1.2049634 0.446165 0 8 22
1.1803325 0.43685874 -0.057064697 10 20
1.1631782 0.42985839 -0.10819312 10 18
1.1291742 0.41691968 -0.16238855 13 16
1.2088624 0.442812 0 8 22
1.1819258 0.43252969 -0.057064697 10 20
1.1670117 0.42664635 -0.10841667 10 18
1.1352776 0.41466618 -0.16307664 13 16
1.201069 0.4349893 0 8 22
1.1810787 0.42755538 -0.056948237 9 20
1.1685677 0.42236617 -0.10841667 10 18
1.1297983 0.40799215 -0.16204453 14 16
1.2072902 0.43247226 0 8 22
1.1896217 0.42594323 -0.057297613 21 20
1.172381 0.41911855 -0.1086402 10 18
1.1382158 0.40653169 -0.16307664 13 16
1.2064345 0.42742461 0 8 22
1.1816794 0.41847005 -0.056831781 35 20
1.1714157 0.41440225 -0.10841667 11 18
1.1348853 0.4011133 -0.16238855 13 16
1.2102058 0.42424452 0 8 22
1.1807745 0.41352141 -0.056715317 64 20
1.1705031 0.40949267 -0.10819312 10 18
1.1362785 0.39714932 -0.16238855 13 16
1.2046617 0.41736308 0 8 22
1.1774882 0.40777114 -0.056482401 67 20
1.1767056 0.40681863 -0.1086402 10 18
1.1353846 0.39217794 -0.16204453 12 16
1.2061113 0.41315547 0 8 22
1.1718123 0.40124407 -0.056133024 65 20
1.1734034 0.4011063 -0.10819312 10 18
1.1320571 0.3866204 -0.16135643 11 16
1.2028075 0.40734723 0 9 22
1.1708388 0.39635468 -0.056016568 66 20
1.1770873 0.39800635 -0.10841667 11 18
1.133333 0.38286424 -0.16135643 10 16
1.2065235 0.40414622 0 9 22
1.1745162 0.39325857 -0.056133024 66 20
1.1784695 0.39389512 -0.10841667 10 18
1.1323123 0.37812588 -0.16101238 10 16
1.2055525 0.39915061 0 9 22
1.1759498 0.38895112 -0.056133024 69 20
1.1798372 0.38977906 -0.10841667 12 18
1.1383311 0.3757146 -0.16170047 9 16
1.2117623 0.39627522 0 20 22
1.1844255 0.38715902 -0.056482401 61 20
1.1788893 0.38468394 -0.10819312 13 18
1.134989 0.37001356 -0.16101238 10 16
1.2083778 0.39051369 0 30 22
1.1810142 0.38149542 -0.056249484 11 20
1.180225 0.38056651 -0.10819312 13 18
1.1504236 0.37057891 -0.16307664 18 16
1.2097336 0.38629329 0 48 22
1.1870996 0.3788808 -0.056482401 8 20
1.1814805 0.37665063 -0.10819312 13 18
1.1469246 0.36526778 -0.16238855 16 16
1.2573143 0.39705008 0.059859701 6 24
1.2038519 0.38003421 0 62 22
1.1860317 0.37398794 -0.056365941 7 20
1.1780355 0.37103668 -0.10774604 12 18
1.1529194 0.36273968 -0.16307664 18 16
1.2396785 0.38652471 0.058928031 8 24
1.2052367 0.37561932 0 63 22
1.1897155 0.37058413 -0.056482401 8 20
1.1746294 0.36524633 -0.10729897 19 18
1.1495091 0.35705125 -0.16238855 18 16
1.245796 0.38365701 0.059160948 8 24
1.2041498 0.37067866 0 64 22
1.1886137 0.36569878 -0.056365941 46 20
1.1595918 0.52869475 -0.085807078 9 19
1.1735157 0.36041716 -0.10707543 29 18
1.1507483 0.35303652 -0.16238855 17 16
1.2471275 0.37930602 0.059160948 8 24
1.2078295 0.36719611 0 62 22
1.1803201 0.3586604 -0.055900108 69 20
1.1500757 0.51948839 -0.084943838 10 19
1.1699365 0.35508591 -0.10662835 39 18
1.1495417 0.34850457 -0.16204453 20 16
1.2435927 0.37373888 0.058928031 9 24
1.2090406 0.36318877 0 65 22
1.1815031 0.35474434 -0.055900108 71 20
1.158615 0.51874238 -0.08546178 10 19
1.1687824 0.35028937 -0.10640481 75 18
1.1531247 0.34519553 -0.16238855 19 16
1.2472851 0.37010202 0.059044488 8 24
1.2055049 0.35755286 0 65 22
1.1803998 0.34970644 -0.055783652 70 20
1.1535851 0.51164812 -0.084943838 9 19
1.1652201 0.34480304 -0.10595773 75 18
1.1543226 0.34116828 -0.16238855 20 16
1.2438375 0.36413285 0.058811571 8 24
1.2116085 0.35452786 0 66 22
1.1840113 0.34628066 -0.055900108 69 20
1.1577342 0.50842381 -0.085116483 9 19
1.166476 0.34052995 -0.10595773 74 18
1.157944 0.33762398 -0.1627326 19 16
1.2499017 0.36116722 0.059044488 8 24
1.2080327 0.34891734 0 66 22
1.1828123 0.34145725 -0.055783652 70 20
1.1480764 0.49938309 -0.084253237 8 19
1.1652638 0.33577108 -0.1057342 77 18
1.1543537 0.33221903 -0.16204453 17 16
1.248752 0.35612127 0.058928031 9 24
1.2092433 0.3446984 0 66 22
1.183997 0.33732638 -0.055783652 71 20
1.1566782 0.49834639 -0.084771179 8 19
1.1711632 0.33325934 -0.10618128 75 18
1.1554489 0.32838923 -0.16204453 19 16
1.2499261 0.35197827 0.058928031 9 24
1.2055643 0.33934024 0 67 22
1.1755462 0.33050513 -0.055317819 76 20
1.1560327 0.49352428 -0.084598534 8 19
1.1699208 0.32850042 -0.10595773 77 18
1.1470463 0.321697 -0.16066834 19 16
1.2512078 0.3473947 0.058928031 9 24
1.20921 0.33558369 0 69 22
1.1839155 0.3283892 -0.055667192 71 20
1.1647201 0.49220976 -0.085116483 8 19
1.1711168 0.32421026 -0.10595773 77 18
1.1529934 0.3188017 -0.16135643 21 16
1.2548225 0.34368068 0.059044488 14 24
1.2055492 0.33004886 0 67 22
1.1826446 0.32359979 -0.055550735 72 20
1.1641324 0.48717389 -0.084943838 7 19
1.1794512 0.32207507 -0.10662835 25 18
1.1540993 0.31477502 -0.16135643 21 16
1.2511905 0.33800405 0.058811571 27 24
1.2163528 0.32842863 0 35 22
1.1885915 0.32076234 -0.055783652 33 20
1.156617 0.47927034 -0.084253237 8 19
1.1781074 0.31751847 -0.10640481 8 18
1.157529 0.3115854 -0.16170047 19 16
1.2547187 0.33449227 0.058928031 41 24
1.219852 0.32503268 0 8 22
1.2017202 0.32001075 -0.056365941 8 20
1.1582 0.47543222 -0.084253237 8 19
1.176801 0.312769 -0.10618128 8 18
1.1586096 0.30754298 -0.16170047 19 16
1.2510461 0.32884896 0.058695115 60 24
1.2185602 0.32014161 0 7 22
1.1955804 0.31392425 -0.056016568 8 20
1.1552353 0.46949935 -0.083907925 8 19
1.1778857 0.30865929 -0.10618128 8 18
1.1506258 0.46760884 -0.13817397 7 17
1.1572795 0.30287427 -0.16135643 22 16
1.2672539 0.32836339 0.12179304 7 26
1.2497677 0.32385769 0.058578655 60 24
1.2220914 0.31650865 0 8 22
1.1963202 0.48143467 -0.029129546 6 21
1.2063981 0.31202435 -0.056482401 16 20
1.1522431 0.46359295 -0.083562627 8 19
1.1717198 0.30269063 -0.10551065 8 18
1.1477267 0.46152598 -0.13760534 9 17
1.1559308 0.29821867 -0.16101238 31 16
1.2732736 0.32493913 0.12226879 8 26
1.2485256 0.31866142 0.058462199 65 24
1.2135493 0.30957258 0 37 22
1.1911159 0.47425976 -0.028955463 8 21
1.1953751 0.30474833 -0.055900108 67 20
1.1539345 0.45936665 -0.083562627 9 19
1.1752356 0.29900357 -0.1057342 35 18
1.1424131 0.45474726 -0.13675243 9 17
1.1522138 0.29276928 -0.16032429 37 16
1.2744001 0.3204926 0.12226879 8 26
1.2496303 0.31430131 0.058462199 63 24
1.2170482 0.30593985 0 66 22
1.1950877 0.47102001 -0.029013492 8 21
1.1891623 0.2987614 -0.055550735 71 20
1.1624867 0.45809269 -0.084080584 9 19
1.1786885 0.29550055 -0.10595773 76 18
1.1486118 0.45258704 -0.13732104 9 17
1.1484225 0.28755158 -0.15963621 44 16
1.2754558 0.31626478 0.12226879 8 26
1.2482948 0.30934086 0.058345739 62 24
1.2132531 0.30049616 0 68 22
1.1989694 0.46796745 -0.029071517 8 21
1.1877728 0.2940129 -0.055434272 75 20
1.1571133 0.45129955 -0.083562627 9 19
1.1772437 0.29099712 -0.1057342 78 18
1.1432477 0.44585359 -0.13646811 9 17
1.1469644 0.28315273 -0.15929218 78 16
1.2765521 0.31181067 0.12226879 8 26
1.2493137 0.30519962 0.058345739 62 24
1.2118133 0.29588255 0 70 22
1.205255 0.46558952 -0.029187571 13 21
1.1839373 0.2886906 -0.055201355 76 20
1.1609285 0.44836307 -0.08373528 9 19
1.1782523 0.28688604 -0.1057342 78 18
1.1447972 0.44186017 -0.13646811 9 17
1.1455388 0.27856678 -0.15894812 91 16
1.2704241 0.30539697 0.12155516 8 26
1.252853 0.30119821 0.058462199 64 24
1.2128897 0.291439 0 71 22
1.1976215 0.45758298 -0.028955463 22 21
1.1849377 0.28455615 -0.055201355 77 20
1.1625639 0.44410509 -0.08373528 9 19
1.1792959 0.28256559 -0.1057342 78 18
1.1486511 0.43875235 -0.13675243 9 17
1.1513706 0.2755098 -0.15963621 93 16
1.2787507 0.30266795 0.12226879 8 26
1.2514657 0.29625201 0.058345739 63 24
1.2163334 0.28777477 0 68 22
1.1992115 0.45339972 -0.028955463 23 21
1.1859238 0.28041819 -0.055201355 75 20
1.1594448 0.43827131 -0.083389983 9 19
1.1778504 0.27788001 -0.10551065 76 18
1.1501756 0.43474013 -0.13675243 9 17
1.149914 0.27092573 -0.15929218 95 16
1.282172 0.29898691 0.12250668 8 26
1.2476261 0.29075655 0.058112819 62 24
1.2124588 0.28240162 0 70 22
1.2007084 0.44942048 -0.028955463 20 21
1.1868954 0.27627683 -0.055201355 75 20
1.1703045 0.43773472 -0.084080584 9 19
1.1763391 0.27341333 -0.10528712 76 18
1.1516863 0.43072262 -0.13675243 9 17
1.148393 0.26655567 -0.15894812 95 16
1.3495476 0.50569063 -0.24518335 21 15
1.2807811 0.29395682 0.12226879 8 26
1.2534533 0.28772676 0.058345739 63 24
1.210951 0.27782467 0 71 22
1.2046119 0.44609892 -0.029013492 10 21
1.1878051 0.27233943 -0.055201355 76 20
1.1670753 0.43211031 -0.08373528 10 19
1.182143 0.27040711 -0.1057342 77 18
1.1484531 0.42516714 -0.13618381 9 17
1.1493164 0.26254541 -0.15894812 92 16
1.3419867 0.49777067 -0.24346578 22 15
1.0911083 0.24780546 -0.31021357 37 13
1.2745141 0.28785178 0.12155516 9 26
1.2520131 0.2828036 0.058229282 62 24
1.2167926 0.27468839 0 70 22
1.2014716 0.44016284 -0.028897438 9 21
1.1887952 0.26798409 -0.055201355 75 20
1.1662364 0.42717138 -0.083562627 9 19
1.1806494 0.26573664 -0.10551065 77 18
1.1476729 0.42009655 -0.1358995 9 17
1.147809 0.25799346 -0.15860409 93 16
1.3414912 0.49199665 -0.24303637 23 15
1.0779283 0.24069074 -0.30608657 51 13
1.2828519 0.28478432 0.12226879 9 26
1.2579188 0.27928707 0.058462199 63 24
1.2202327 0.27076405 0 68 22
1.2077732 0.43746755 -0.029013492 8 21
1.1897235 0.26383278 -0.055201355 73 20
1.1631074 0.42118636 -0.08321733 9 19
1.1840477 0.26194099 -0.1057342 77 18
1.144465 0.41438717 -0.13533089 9 17
1.1511657 0.25431442 -0.15894812 66 16
1.3362591 0.48477906 -0.24174818 23 15
1.0787619 0.23692662 -0.30608657 53 13
1.2838382 0.28030458 0.12226879 9 26
1.2564454 0.27436581 0.058345739 18 24
1.2211704 0.26650301 0 60 22
1.2069417 0.43240154 -0.028955463 10 21
1.1955189 0.26073372 -0.055434272 70 20
1.166917 0.4179695 -0.083389983 9 19
1.1849549 0.2578063 -0.1057342 24 18
1.1529144 0.41291624 -0.13618381 10 17
1.156888 0.2513369 -0.15963621 14 16
1.3286766 0.47676817 -0.24003062 25 15
1.0819329 0.23366219 -0.30677441 53 13
1.2823267 0.275527 0.12203092 23 26
1.2573955 0.26997831 0.058345739 8 24
1.2294292 0.26379931 0 12 22
1.2036608 0.42671749 -0.028839409 21 21
1.2013072 0.25759745 -0.055667192 26 20
1.1660196 0.41305614 -0.08321733 9 19
1.1882389 0.25439227 -0.10595773 8 18
1.1496696 0.40722129 -0.1356152 10 17
1.1577151 0.24749914 -0.15963621 9 16
1.3303328 0.47212735 -0.24003062 26 15
1.0803896 0.22938973 -0.30608657 54 13
1.2832807 0.27104914 0.12203092 49 26
1.2533953 0.26478323 0.058112819 7 24
1.2205093 0.25767255 0 8 22
1.2027861 0.42168194 -0.028781384 33 21
1.1948217 0.25207901 -0.055317819 8 20
1.1673828 0.40918723 -0.08321733 9 19
1.181807 0.24871799 -0.10528712 8 18
1.1580406 0.40588531 -0.13646811 10 17
1.1585718 0.24345645 -0.15963621 9 16
1.3272463 0.46607301 -0.23917183 26 15
1.0882057 0.22726551 -0.30815008 63 13
1.2769063 0.26506293 0.12131728 60 26
1.256758 0.26090989 0.058229282 8 24
1.2277751 0.42592692 0.029361654 5 23
1.2262988 0.25441772 0 24 22
1.1995308 0.41583452 -0.02866533 49 21
1.1957376 0.24769808 -0.055317819 34 20
1.171159 0.40593126 -0.083389983 9 19
1.1899859 0.24609067 -0.10595773 8 18
1.1501391 0.39836758 -0.13533089 10 17
1.1666927 0.24089946 -0.16066834 9 16
1.3126689 0.4555243 -0.23616609 23 15
1.0843203 0.22231962 -0.30677441 64 13
1.2876267 0.26235205 0.12226879 62 26
1.2601537 0.25679633 0.058345739 51 24
1.2268916 0.42082328 0.029303625 7 23
1.2174206 0.2479431 0 65 22
1.2010471 0.41143522 -0.02866533 52 21
1.1941468 0.24302906 -0.055201355 75 20
1.1749969 0.4024488 -0.083562627 9 19
1.1908798 0.2417275 -0.10595773 31 18
1.1515226 0.39435038 -0.13533089 10 17
1.1554289 0.23418507 -0.15894812 12 16
1.0827326 0.21806353 -0.30608657 58 13
1.2884896 0.25808072 0.12226879 60 26
1.2536937 0.25093827 0.057996366 64 24
1.2188915 0.41330963 0.029071517 8 23
1.220731 0.24417801 0 71 22
1.195308 0.40503007 -0.028491249 53 21
1.1949879 0.23885924 -0.055201355 75 20
1.1763945 0.39834487 -0.083562627 11 19
1.181904 0.23584592 -0.10506357 73 18
1.1552432 0.39112973 -0.1356152 11 17
1.156199 0.23035225 -0.15894812 77 16
1.0858461 0.21474428 -0.30677441 60 13
1.2796121 0.25167692 0.12131728 62 26
1.254519 0.2467795 0.057996366 66 24
1.2273597 0.41166314 0.0292456 8 23
1.2141724 0.23869495 0 74 22
1.2061878 0.40404886 -0.028723355 35 21
1.1884193 0.2334644 -0.054851983 77 20
1.1729822 0.39284813 -0.08321733 22 19
1.1900533 0.23314165 -0.1057342 79 18
1.1541802 0.38650313 -0.13533089 10 17
1.156996 0.22631495 -0.15894812 93 16
1.1166068 0.37425095 -0.1992383 15 15
1.0841918 0.21068862 -0.30608657 61 13
1.2853713 0.24814391 0.12179304 62 26
1.2553728 0.2423989 0.057996366 66 24
1.2241182 0.40558076 0.029129546 8 23
1.2174537 0.23492454 0 74 22
1.2099622 0.40062624 -0.028781384 10 21
1.19172 0.22957498 -0.054968439 75 20
1.1625159 0.3848089 -0.082354084 35 19
1.1884139 0.22852044 -0.10551065 78 18
1.150876 0.38070065 -0.13476226 10 17
1.1553463 0.22181261 -0.15860409 93 16
1.1203074 0.37093487 -0.19966771 13 15
1.0873188 0.20715848 -0.30677441 61 13
1.3181338 0.24941781 0.20437643 7 28
1.278934 0.24205519 0.1210794 60 26
1.2513437 0.23687565 0.057763446 65 24
1.2279003 0.4020876 0.029187571 8 23
1.2232211 0.2313814 0 76 22
1.2066745 0.39462587 -0.02866533 7 21
1.1900597 0.22495434 -0.054851983 78 20
1.1662874 0.38132527 -0.082526729 51 19
1.1867957 0.22370639 -0.10528712 78 18
1.152198 0.37668103 -0.13476226 10 17
1.1537173 0.21712318 -0.15826003 95 16
1.1192564 0.36625117 -0.1992383 14 15
1.0833081 0.20248823 -0.30539873 63 13
1.3214258 0.24526186 0.20476277 9 28
1.2846664 0.2384896 0.12155516 63 26
1.2497069 0.23205453 0.057646986 63 24
1.2269199 0.39702499 0.029129546 8 23
1.2191035 0.22620669 0 73 22
1.2104212 0.39118454 -0.028723355 6 21
1.1932938 0.22124968 -0.054968439 76 20
1.1676114 0.37725183 -0.082526729 57 19
1.1851201 0.21911412 -0.10506357 80 18
1.151144 0.37188849 -0.13447796 9 17
1.156904 0.21353953 -0.15860409 93 16
1.120528 0.36234197 -0.1992383 13 15
1.0911033 0.19999106 -0.30746222 66 13
1.3295661 0.24196246 0.20592181 8 28
1.2805519 0.23334423 0.1210794 60 26
1.2554246 0.22857697 0.057879902 66 24
1.2235401 0.39120847 0.029013492 8 23
1.2223463 0.22239298 0 74 22
1.204574 0.38487267 -0.028549276 6 21
1.191601 0.21664076 -0.054851983 78 20
1.1665467 0.3724106 -0.082354084 61 19
1.18584 0.21518293 -0.10506357 77 18
1.1524351 0.36786798 -0.13447796 9 17
1.1576058 0.2097019 -0.15860409 93 16
1.1194415 0.35767391 -0.19880892 15 15
1.0941614 0.19660147 -0.30815008 69 13
1.3279289 0.23712195 0.20553546 8 28
1.2887107 0.23017314 0.12179304 63 26
1.2561758 0.22441259 0.057879902 66 24
1.2272122 0.38790667 0.029071517 8 23
1.2181532 0.21746837 0 73 22
1.2082921 0.38142252 -0.028607301 7 21
1.1996908 0.2139903 -0.055201355 73 20
1.1630216 0.36702937 -0.082008779 59 19
1.1914886 0.21190532 -0.10551065 78 18
1.1583828 0.36554882 -0.13504657 9 17
1.1558918 0.20523153 -0.15826003 94 16
1.1206214 0.35395971 -0.19880892 14 15
1.0924394 0.19255958 -0.30746222 65 13
1.3409172 0.2345936 0.20746718 8 28
1.2919585 0.22609818 0.12203092 63 26
1.2643332 0.22130543 0.058229282 65 24
1.2333945 0.38490424 0.029187571 8 23
1.2238315 0.21406765 0 72 22
1.2072315 0.37645385 -0.028549276 7 21
1.2029278 0.21001683 -0.055317819 73 20
1.161916 0.36222038 -0.081836127 62 19
1.192221 0.20774496 -0.10551065 79 18
1.1454958 0.35683924 -0.13334073 10 17
1.1639223 0.20245479 -0.15929218 94 16
1.1148623 0.34763566 -0.19752073 14 15
1.100246 0.1897655 -0.30952576 72 13
1.0753207 0.18439031 -0.36529735 39 12
1.3368975 0.22885178 0.2066945 8 28
1.287871 0.2205296 0.12155516 64 26
1.2602116 0.21583526 0.057996366 64 24
1.2251825 0.3776336 0.028955463 8 23
1.2246081 0.20958066 0 72 22
1.2133778 0.37350643 -0.02866533 7 21
1.2011912 0.20540008 -0.055201355 77 20
1.1680003 0.35943598 -0.082181431 62 19
1.1929744 0.20337385 -0.10551065 77 18
1.1491067 0.35357383 -0.13362503 10 17
1.1597728 0.19736579 -0.15860409 93 16
1.1207734 0.34520179 -0.19837952 14 15
1.0985309 0.18552832 -0.30883789 72 13
1.0573109 0.17754531 -0.35875958 70 12
1.3328149 0.22337522 0.20592181 9 28
1.2910881 0.21644008 0.12179304 64 26
1.2609572 0.21143498 0.057996366 33 24
1.2336621 0.37555182 0.029129546 10 23
1.2253321 0.2053047 0 71 22
1.2122843 0.36853707 -0.028607301 7 21
1.2117559 0.20283739 -0.055667192 78 20
1.1644783 0.35389668 -0.081836127 61 19
1.1912204 0.19880296 -0.10528712 78 18
1.1550839 0.35101458 -0.13419364 10 17
1.1628979 0.19371852 -0.15894812 85 16
1.1243263 0.34200919 -0.19880892 12 15
1.1015439 0.18207976 -0.30952576 75 13
1.0719175 0.17612244 -0.3636629 97 12
1.3238343 0.21713847 0.20437643 9 28
1.2917987 0.21215749 0.12179304 63 26
1.2616875 0.20703213 0.057996366 8 24
1.2301812 0.36979514 0.029013492 20 23
1.2309769 0.20182651 0 39 22
1.2111075 0.36379135 -0.028549276 20 21
1.2050611 0.19740853 -0.055317819 71 20
1.1657064 0.34982973 -0.081836127 58 19
1.1967893 0.19564612 -0.1057342 31 18
1.1539247 0.34626174 -0.13390934 10 17
1.1733124 0.19143791 -0.16032429 32 16
1.1207988 0.3366555 -0.19795014 10 15
1.0950522 0.17709686 -0.30746222 76 13
1.0678588 0.17163967 -0.36202848 98 12
1.3221077 0.21235961 0.20399007 9 28
1.2925314 0.20764697 0.12179304 55 26
1.2599008 0.20245513 0.057879902 8 24
1.2290698 0.36478308 0.028955463 30 23
1.2267011 0.19695945 0 10 22
1.2099751 0.35884625 -0.028491249 44 21
1.2131424 0.19437285 -0.055667192 20 20
1.1620808 0.34453467 -0.08149083 58 19
1.1900865 0.19030137 -0.10506357 9 18
1.1575063 0.34294209 -0.13419364 11 17
1.1739736 0.18734114 -0.16032429 9 16
1.1266866 0.33415163 -0.19880892 17 15
1.0956638 0.17327334 -0.30746222 76 13
1.0707862 0.16827296 -0.36284572 99 12
1.3301994 0.20864859 0.20514911 9 28
1.2908244 0.20252663 0.12155516 33 26
1.2778751 0.3749966 0.090230726 4 25
1.2680378 0.19898476 0.058229282 47 24
1.2327328 0.36119789 0.029013492 41 23
1.2323558 0.19322781 0 61 22
1.2040901 0.35228959 -0.028317168 53 21
1.2088777 0.1893729 -0.055434272 44 20
1.165728 0.34097812 -0.081663482 59 19
1.2006195 0.18745679 -0.10595773 8 18
1.1610788 0.33960167 -0.13447796 12 17
1.1697575 0.18228368 -0.15963621 9 16
1.127846 0.33021674 -0.19880892 18 15
1.1010141 0.17017235 -0.30883789 79 13
1.071367 0.1645342 -0.36284572 100 12
1.3333616 0.20437424 0.20553546 9 28
1.2989053 0.19913858 0.12226879 18 26
1.2576284 0.36424899 0.088669039 7 25
1.2588483 0.19306007 0.057763446 65 24
1.2291869 0.35549474 0.028897438 47 23
1.2280792 0.18817638 0 71 22
1.2149119 0.35087687 -0.028549276 53 21
1.2021239 0.18403171 -0.055084899 75 20
1.1645166 0.33621025 -0.08149083 58 19
1.19388 0.18215156 -0.10528712 30 18
1.1598722 0.33485287 -0.13419364 19 17
1.1728354 0.17856748 -0.15998025 9 16
1.1313565 0.32696658 -0.1992383 18 15
1.0992242 0.16597404 -0.30815008 81 13
1.1244247 0.32514119 -0.26008639 10 14
1.0719349 0.16079341 -0.36284572 101 12
1.3291802 0.19899537 0.20476277 9 28
1.3020203 0.19519502 0.12250668 9 26
1.2588923 0.35985681 0.088669039 8 25
1.2669256 0.18976171 0.058112819 64 24
1.2304204 0.35120192 0.028897438 49 23
1.2287287 0.18388844 0 71 22
1.2160689 0.34684616 -0.028549276 43 21
1.2002884 0.17946956 -0.054968439 78 20
1.1704773 0.33351982 -0.081836127 41 19
1.1969408 0.17855437 -0.10551065 78 18
1.168196 0.33285847 -0.13504657 26 17
1.1636215 0.17323714 -0.15860409 47 16
1.120656 0.31961286 -0.19709133 14 15
1.0974183 0.16179028 -0.30746222 82 13
1.1114459 0.31736577 -0.25673762 19 14
1.0771664 0.15772547 -0.36448014 103 12
1.3298328 0.19458653 0.20476277 9 28
1.2928414 0.18922392 0.12155516 9 26
1.2552807 0.35431623 0.088321999 8 25
1.2626047 0.18484442 0.057879902 63 24
1.2316388 0.34690481 0.028897438 34 23
1.2268572 0.17945537 0 71 22
1.2196767 0.34328097 -0.028607301 17 21
1.2009076 0.17527868 -0.054968439 78 20
1.1811746 0.33235788 -0.082526729 11 19
1.1901629 0.17331234 -0.10484004 79 18
1.1597921 0.32607025 -0.13390934 32 17
1.164219 0.16917431 -0.15860409 92 16
1.1265036 0.3170436 -0.19795014 13 15
1.1003561 0.15829602 -0.30815008 81 13
1.1102028 0.31281817 -0.25617948 23 14
1.0753709 0.15363526 -0.3636629 103 12
1.3305371 0.18971117 0.20476277 9 28
1.2984551 0.18517861 0.12203092 9 26
1.2589724 0.35038623 0.088495523 8 25
1.2706923 0.18126078 0.058229282 66 24
1.2400625 0.34462485 0.029071517 13 23
1.2275069 0.1749575 0 72 22
1.2257407 0.34015423 -0.028723355 7 21
1.2039851 0.17143323 -0.055084899 77 20
1.179983 0.32735491 -0.082354084 7 19
1.1932561 0.16929425 -0.10506357 76 18
1.1609232 0.32201982 -0.13390934 41 17
1.1623789 0.16456361 -0.15826003 95 16
1.1252317 0.31244546 -0.19752073 17 15
1.098521 0.15412498 -0.30746222 81 13
1.1089952 0.30808955 -0.25562137 28 14
1.0735599 0.14955953 -0.36284572 104 12
1.3311913 0.18506557 0.20476277 9 28
1.2941625 0.17996779 0.12155516 9 26
1.2601877 0.34598941 0.088495523 8 25
1.2614212 0.17546499 0.057763446 64 24
1.2388489 0.33962876 0.029013492 7 23
1.22811 0.17067164 0 71 22
1.2221018 0.33454442 -0.028607301 6 21
1.2045763 0.16722949 -0.055084899 77 20
1.1811184 0.32323399 -0.082354084 7 19
1.1938397 0.16512799 -0.10506357 77 18
1.1620402 0.31796545 -0.13390934 62 17
1.1629463 0.16050515 -0.15826003 94 16
1.1334375 0.31048283 -0.19880892 18 15
1.1014345 0.15061028 -0.30815008 81 13
1.1077152 0.30356744 -0.25506324 28 14
1.0717336 0.14549831 -0.36202848 105 12
1.3342773 0.18074523 0.20514911 9 28
1.2922856 0.17534477 0.12131728 9 26
1.2661999 0.34290126 0.088842563 8 25
1.2669764 0.17172302 0.057996366 65 24
1.2352039 0.33398831 0.028897438 6 23
1.2286983 0.1663837 0 69 22
1.220793 0.32983336 -0.028549276 6 21
1.2076279 0.16335399 -0.055201355 75 20
1.1798329 0.31845436 -0.082181431 7 19
1.1919125 0.16083971 -0.10484004 77 18
1.1607462 0.31325519 -0.13362503 69 17
1.1634721 0.1566478 -0.15826003 95 16
1.1392667 0.30781931 -0.19966771 20 15
1.1019535 0.14676465 -0.30815008 84 13
1.1040137 0.29860964 -0.25394699 27 14
1.0652062 0.14084224 -0.35957682 107 12
1.3446662 0.17759722 0.2066945 8 28
1.2978253 0.17147642 0.12179304 9 26
1.2673301 0.3387005 0.088842563 8 25
1.2625864 0.16687477 0.057763446 67 24
1.2314776 0.32859245 0.028781384 6 23
1.2292433 0.16230828 0 70 22
1.2195231 0.32492185 -0.028491249 7 21
1.2056867 0.15902638 -0.055084899 75 20
1.1784738 0.31389341 -0.082008779 7 19
1.1974055 0.15731785 -0.10528712 76 18
1.1617786 0.30940428 -0.13362503 70 17
1.1664677 0.15290277 -0.15860409 95 16
1.1331462 0.3021211 -0.19837952 19 15
1.1048182 0.1434142 -0.30883789 90 13
1.1121091 0.29665366 -0.25562137 25 14
1.0633234 0.13701217 -0.35875958 112 12
1.3428276 0.17259152 0.20630814 9 28
1.3058226 0.16788475 0.12250668 9 26
1.2636838 0.33299458 0.088495523 8 25
1.268116 0.16309507 0.057996366 70 24
1.2399215 0.32599699 0.028955463 7 23
1.2298024 0.15801643 0 71 22
1.2278981 0.32258207 -0.02866533 7 21
1.2013061 0.15398027 -0.054851983 77 20
1.1819732 0.31041619 -0.082181431 7 19
1.1930064 0.15251474 -0.10484004 78 18
1.162905 0.3051441 -0.13362503 70 17
1.1669943 0.14883012 -0.15860409 93 16
1.1390072 0.29922745 -0.1992383 19 15
1.1101069 0.13995552 -0.31021357 88 13
1.1107824 0.29214489 -0.25506324 26 14
1.0638183 0.13311398 -0.35875958 113 12
1.3311939 0.16615933 0.20437643 9 28
1.299019 0.16218507 0.12179304 9 26
1.2673085 0.32899192 0.088669039 8 25
1.2662265 0.1581409 0.057879902 67 24
1.2386336 0.32103521 0.028897438 7 23
1.2303731 0.1535079 0 71 22
1.2242353 0.31681773 -0.028549276 7 21
1.2092723 0.15069902 -0.055201355 75 20
1.1831031 0.30608198 -0.082181431 7 19
1.1960288 0.14844328 -0.10506357 80 18
1.1615597 0.30045602 -0.13334073 70 17
1.1650739 0.14425223 -0.15826003 93 16
1.1376619 0.29462728 -0.19880892 17 15
1.1058161 0.13550468 -0.30883789 89 13
1.1071303 0.28683901 -0.25394699 28 14
1.0689685 0.12996006 -0.36039403 110 12
1.3415757 0.16268483 0.20592181 9 28
1.3045194 0.15824072 0.12226879 9 26
1.2660342 0.32394341 0.088495523 8 25
1.2667708 0.15371998 0.057879902 65 24
1.2373264 0.31608638 0.028839409 7 23
1.233384 0.14950863 0 70 22
1.2253338 0.31254244 -0.028549276 7 21
1.2048315 0.14588557 -0.054968439 76 20
1.1841643 0.30195031 -0.082181431 7 19
1.1940672 0.14397393 -0.10484004 77 18
1.1698179 0.29825518 -0.13419364 71 17
1.1655703 0.14018449 -0.15826003 95 16
1.1315283 0.28881183 -0.19752073 17 15
1.1015079 0.13108549 -0.30746222 96 13
1.1081249 0.28297266 -0.25394699 28 14
1.0647218 0.12568393 -0.35875958 110 12
1.3025651 0.15362659 0.12203092 10 26
1.2647402 0.31890786 0.088321999 9 25
1.2672998 0.14929718 0.057879902 68 24
1.2408447 0.31238016 0.028897438 7 23
1.2289317 0.14462684 0 73 22
1.2215182 0.30724862 -0.028433222 7 21
1.2078142 0.14196607 -0.055084899 74 20
1.1803758 0.29658967 -0.081836127 9 19
1.1945381 0.14001347 -0.10484004 74 18
1.1660365 0.29294968 -0.13362503 69 17
1.1660289 0.13631856 -0.15826003 93 16
1.1349168 0.28546616 -0.19795014 19 15
1.1115116 0.12832305 -0.31021357 97 13
1.1137807 0.28049701 -0.25506324 29 14
1.0675019 0.12223038 -0.35957682 110 12
1.3080394 0.14963625 0.12250668 10 26
1.270629 0.31592464 0.088669039 14 25
1.2677879 0.14509384 0.057879902 64 24
1.2346535 0.30622789 0.028723355 11 23
1.2343731 0.14110985 0 70 22
1.2128841 0.30055919 -0.028201113 9 21
1.2083025 0.13774915 -0.055084899 75 20
1.1837726 0.29327843 -0.082008779 26 19
1.1950196 0.1358429 -0.10484004 74 18
1.1622324 0.28767422 -0.13305642 65 17
1.1640364 0.13197319 -0.15791598 95 16
1.1359062 0.28150281 -0.19795014 19 15
1.1071744 0.12391738 -0.30883789 97 13
1.1076614 0.27483144 -0.25338888 29 14
1.0702708 0.11875893 -0.36039403 112 12
1.311053 0.14511067 0.12274455 9 26
1.2741998 0.31186289 0.088842563 27 25
1.2707937 0.14071676 0.057996366 64 24
1.2357149 0.30191627 0.028723355 37 23
1.2323966 0.13631426 0 34 22
1.2139775 0.29611176 -0.028201113 31 21
1.2112585 0.13380024 -0.055201355 66 20
1.1824176 0.28834194 -0.081836127 47 19
1.1979848 0.13172965 -0.10506357 56 18
1.1656414 0.28420883 -0.13334073 67 17
1.1645123 0.12770592 -0.15791598 74 16
1.1416646 0.27871433 -0.19880892 19 15
1.1076003 0.12005186 -0.30883789 95 13
1.1110272 0.27135313 -0.25394699 29 14
1.0753782 0.11551702 -0.36202848 112 12
1.2967019 0.13896737 0.12131728 9 26
1.2655869 0.30505729 0.088148482 38 25
1.2712772 0.13628002 0.057996366 64 24
1.2319038 0.29642221 0.028607301 52 23
1.2328649 0.13201156 0 69 22
1.2125748 0.29128385 -0.028143087 55 21
1.2142018 0.12983239 -0.055317819 56 20
1.1785692 0.2830382 -0.08149083 62 19
1.1984375 0.12754709 -0.10506357 10 18
1.1690403 0.28072312 -0.13362503 68 17
1.1748027 0.12466698 -0.15929218 21 16
1.1450239 0.27530825 -0.1992383 20 15
1.1080127 0.11618489 -0.30883789 90 13
1.1167039 0.26862344 -0.25506324 28 14
1.3045831 0.13542496 0.12203092 9 26
1.266644 0.30063772 0.088148482 44 25
1.2791984 0.13260131 0.058345739 63 24
1.2305 0.29153937 0.028549276 50 23
1.2308311 0.12745418 0 74 22
1.2183959 0.28842214 -0.028259141 53 21
1.2071941 0.12483614 -0.054968439 75 20
1.1771241 0.27834368 -0.081318185 61 19
1.2038083 0.12407376 -0.10551065 33 18
1.1700132 0.27664068 -0.13362503 68 17
1.1702821 0.12027347 -0.15860409 9 16
1.1387919 0.26959243 -0.19795014 22 15
1.1036278 0.11184156 -0.30746222 84 13
1.1128484 0.26378438 -0.25394699 29 14
1.2976179 0.13013785 0.12131728 8 26
1.2700615 0.29700819 0.088321999 43 25
1.277146 0.12811361 0.058229282 61 24
1.2338928 0.28803015 0.028607301 35 23
1.233735 0.12361673 0 71 22
1.2169622 0.28359538 -0.028201113 27 21
1.2076013 0.12083226 -0.054968439 77 20
1.1780407 0.27443865 -0.081318185 36 19
1.1992779 0.1193867 -0.10506357 78 18
1.1685063 0.27219084 -0.13334073 62 17
1.1731594 0.11642761 -0.15894812 36 16
1.1420768 0.26637906 -0.19837952 22 15
1.1063852 0.10841072 -0.30815008 79 13
1.1185064 0.26101613 -0.25506324 31 14
1.2865988 0.29664028 0.15692341 6 27
1.2980642 0.12560754 0.12131728 8 26
1.261373 0.29031706 0.087627918 30 25
1.2800714 0.12389107 0.058345739 35 24
1.2446797 0.28576142 0.028839409 12 23
1.2366478 0.11954557 0 77 22
1.2228149 0.2804727 -0.028317168 8 21
1.20555 0.11617035 -0.054851983 77 20
1.1935704 0.27369869 -0.082354084 10 19
1.2046453 0.11566663 -0.10551065 80 18
1.1719159 0.26846579 -0.13362503 30 17
1.1710933 0.1121005 -0.15860409 89 16
1.1478442 0.26330274 -0.1992383 23 15
1.1067752 0.10435489 -0.30815008 94 13
1.1170369 0.25655952 -0.25450513 29 14
1.2852583 0.2913695 0.15662047 8 27
1.3034725 0.12130187 0.12179304 9 26
1.2672914 0.28680211 0.087974958 10 25
1.2879777 0.11988015 0.058695115 25 24
1.2456696 0.28141496 0.028839409 7 23
1.2370777 0.11501223 0 72 22
1.2238346 0.27598897 -0.028317168 7 21
1.2059481 0.11196148 -0.054851983 78 20
1.1921334 0.26876879 -0.082181431 7 19
1.2001014 0.11080185 -0.10506357 80 18
1.1655803 0.26272002 -0.13277212 8 17
1.1739625 0.10802975 -0.15894812 93 16
1.1367499 0.25655779 -0.19709133 31 15
1.1095269 0.10070329 -0.30883789 96 13
1.1250973 0.25408956 -0.25617948 30 14
1.2886885 0.28742605 0.15692341 8 27
1.2939717 0.11588011 0.12084153 8 26
1.2658515 0.2818301 0.087801442 6 25
1.2784374 0.11450946 0.058229282 13 24
1.2393281 0.2754243 0.02866533 6 23
1.2349811 0.11047499 0 72 22
1.2150347 0.26953101 -0.028085059 7 21
1.2113073 0.10818657 -0.055084899 76 20
1.1906307 0.26406091 -0.082008779 7 19
1.2029616 0.10682777 -0.10528712 78 18
1.1737616 0.26027778 -0.13362503 7 17
1.1718655 0.10371753 -0.15860409 93 16
1.1400417 0.25312719 -0.19752073 34 15
1.1050818 0.096421599 -0.30746222 99 13
1.1188442 0.24855971 -0.25450513 32 14
1.292107 0.28346223 0.15722635 8 27
1.3067479 0.11263622 0.12203092 8 26
1.2741332 0.27902403 0.088321999 6 25
1.2838062 0.11046585 0.058462199 10 24
1.2451633 0.27217337 0.028781384 6 23
1.2353592 0.10616343 0 71 22
1.2232441 0.26711428 -0.028259141 6 21
1.2091888 0.10374868 -0.054968439 76 20
1.1891094 0.25936684 -0.081836127 7 19
1.1958652 0.10221554 -0.10461649 79 18
1.1625347 0.253508 -0.13220349 7 17
1.1697353 0.099625431 -0.15826003 95 16
1.1361084 0.24808508 -0.19666195 39 15
1.1102028 0.092954934 -0.30883789 99 13
1.1291803 0.24695124 -0.25673762 31 14
1.2930399 0.27917588 0.15722635 8 27
1.3071331 0.10807414 0.12203092 9 26
1.2750515 0.27479732 0.088321999 6 25
1.2841655 0.10620799 0.058462199 10 24
1.2460589 0.26804277 0.028781384 6 23
1.2357045 0.10206626 0 71 22
1.224169 0.26284274 -0.028259141 6 21
1.2070371 0.099537589 -0.054851983 77 20
1.1850883 0.25436553 -0.08149083 7 19
1.2036607 0.098637059 -0.10528712 79 18
1.1657963 0.25017765 -0.1324878 7 17
1.170076 0.095541693 -0.15826003 95 16
1.1321112 0.24327113 -0.19580317 51 15
1.110505 0.089272872 -0.30883789 99 13
1.127654 0.24249066 -0.25617948 31 14
1.2892011 0.27339607 0.15662047 8 27
1.305039 0.10309073 0.12179304 9 26
1.2711722 0.26908001 0.087974958 6 25
1.2795664 0.10111566 0.058229282 9 24
1.247033 0.26347396 0.028781384 6 23
1.2360703 0.097536482 0 70 22
1.2275687 0.25887468 -0.028317168 6 21
1.2148635 0.095687672 -0.055201355 74 20
1.1982093 0.25261721 -0.082354084 7 19
1.2015314 0.094035022 -0.10506357 77 18
1.1691349 0.2464204 -0.13277212 7 17
1.167949 0.091064677 -0.15791598 96 16
1.1354038 0.2396338 -0.19623254 65 15
1.1084279 0.085023105 -0.30815008 99 13
1.126152 0.23784725 -0.25562137 32 14
1.2901475 0.26889428 0.15662047 8 27
1.302909 0.098351523 0.12155516 8 26
1.2672223 0.26361603 0.087627918 7 25
1.282402 0.096832283 0.058345739 9 24
1.2479452 0.25911939 0.028781384 7 23
1.2388965 0.093404733 0 71 22
1.221126 0.2530522 -0.028143087 7 21
1.210209 0.091080628 -0.054968439 76 20
1.1966426 0.24792224 -0.082181431 7 19
1.1968856 0.089478202 -0.10461649 79 18
1.1675568 0.24182907 -0.1324878 8 17
1.1731994 0.087345622 -0.15860409 93 16
1.1362333 0.23566905 -0.19623254 75 15
1.1063203 0.080982849 -0.30746222 100 13
1.1293603 0.2344152 -0.25617948 32 14
1.2959387 0.26539394 0.15722635 8 27
1.3057106 0.094205283 0.12179304 8 26
1.2705773 0.25969502 0.087801442 7 25
1.2802411 0.092180215 0.058229282 9 24
1.2512898 0.25526589 0.028839409 7 23
1.2342272 0.088729955 0 70 22
1.2293024 0.25051293 -0.028317168 7 21
1.215502 0.087204054 -0.055201355 73 20
1.1926149 0.24273898 -0.081836127 8 19
1.2021437 0.085854344 -0.10506357 76 18
1.1781253 0.2397532 -0.13362503 8 17
1.1734827 0.083454676 -0.15860409 93 16
1.1370491 0.2317014 -0.19623254 78 15
1.1113924 0.07744503 -0.30883789 99 13
1.1253583 0.22968382 -0.25506324 32 14
1.2992436 0.26158935 0.15752929 8 27
1.3035482 0.089480698 0.12155516 8 26
1.2714314 0.2554802 0.087801442 8 25
1.2830315 0.088101074 0.058345739 9 24
1.2472303 0.25012279 0.028723355 7 23
1.237009 0.084803179 0 69 22
1.232619 0.24671564 -0.028375195 7 21
1.2132927 0.083006896 -0.055084899 74 20
1.1983025 0.23977129 -0.082181431 8 19
1.2024361 0.081657559 -0.10506357 77 18
1.178914 0.23584509 -0.13362503 8 17
1.1737667 0.079357952 -0.15860409 95 16
1.1353974 0.22744067 -0.19580317 78 15
1.1044476 0.073296294 -0.30677441 99 13
1.1309298 0.22672254 -0.25617948 37 14
1.3001487 0.25705251 0.15752929 15 27
1.3113037 0.085402615 0.12226879 8 26
1.2674237 0.25006574 0.087454401 24 25
1.280839 0.08346381 0.058229282 9 24
1.2505902 0.24603695 0.028781384 8 23
1.2422875 0.080800384 0 56 22
1.2285697 0.24143802 -0.028259141 7 21
1.2285429 0.079500228 -0.055783652 74 20
1.1942395 0.23461555 -0.081836127 9 19
1.207684 0.07777074 -0.10551065 77 18
1.1846429 0.23248912 -0.13419364 23 17
1.1715651 0.075106502 -0.15826003 94 16
1.1362236 0.2232777 -0.19580317 78 15
1.1119061 0.069684222 -0.30883789 98 13
1.1317143 0.22277345 -0.25617948 35 14
1.2962115 0.25133169 0.15692341 23 27
1.3091238 0.080447413 0.12203092 8 26
1.2732271 0.24637558 0.087801442 47 25
1.2886149 0.079215668 0.058578655 9 24
1.2440822 0.24023426 0.028607301 24 23
1.2400799 0.076097928 0 21 22
1.2343529 0.23788895 -0.028375195 18 21
1.2238271 0.074915119 -0.055550735 48 20
1.1926434 0.22976013 -0.081663482 28 19
1.2029897 0.073051088 -0.10506357 78 18
1.1756954 0.22645342 -0.13305642 39 17
1.1718326 0.070811994 -0.15826003 94 16
1.1369959 0.21931018 -0.19580317 78 15
1.1241405 0.06648802 -0.31227708 97 13
1.1301315 0.21815698 -0.25562137 34 14
1.2970809 0.24680555 0.15692341 25 27
1.3093966 0.075877234 0.12203092 8 26
1.2716299 0.2414598 0.087627918 49 25
1.2913768 0.074857354 0.058695115 9 24
1.2449132 0.23589014 0.028607301 45 23
1.2478261 0.072188742 0 59 22
1.2253562 0.23170209 -0.028143087 40 21
1.2315613 0.071060918 -0.055900108 17 20
1.1885388 0.22465928 -0.081318185 51 19
1.2106957 0.069264509 -0.1057342 74 18
1.1764786 0.22234809 -0.13305642 64 17
1.174545 0.066857174 -0.15860409 94 16
1.1377546 0.21533999 -0.19580317 77 15
1.1308862 0.21421075 -0.25562137 34 14
1.2979344 0.24227639 0.15692341 25 27
1.3046705 0.071271591 0.12155516 8 26
1.2749161 0.23748083 0.087801442 43 25
1.2866426 0.070086017 0.058462199 9 24
1.2432725 0.23108165 0.028549276 35 23
1.2430774 0.067570031 0 67 22
1.2359436 0.22948153 -0.028375195 39 21
1.2243203 0.066369437 -0.055550735 58 20
1.1868645 0.22004947 -0.081145532 62 19
1.203459 0.06486097 -0.10506357 45 18
1.1699239 0.21686682 -0.13220349 72 17
1.1747603 0.062961869 -0.15860409 63 16
1.1360788 0.21091242 -0.19537376 70 15
1.1315902 0.2104594 -0.25562137 34 14
1.2987307 0.23797093 0.15692341 24 27
1.3098828 0.066962764 0.12203092 8 26
1.2707918 0.23234537 0.087454401 26 25
1.2843736 0.065695666 0.058345739 9 24
1.2539036 0.228552 0.028781384 14 23
1.2432946 0.063447461 0 65 22
1.236737 0.22516589 -0.028375195 17 21
1.219556 0.061851379 -0.055317819 74 20
1.1851349 0.21566099 -0.08097288 34 19
1.2111393 0.061022025 -0.1057342 78 18
1.1780024 0.21412939 -0.13305642 70 17
1.1799197 0.059099276 -0.15929218 35 16
1.1416521 0.20783803 -0.19623254 31 15
1.1299217 0.20606573 -0.25506324 34 14
1.2995943 0.23320927 0.15692341 24 27
1.3051471 0.061933823 0.12155516 9 26
1.2765429 0.22857454 0.087801442 9 25
1.2846059 0.060987763 0.058345739 9 24
1.2448556 0.22239642 0.028549276 7 23
1.2410214 0.058776297 0 62 22
1.2326347 0.21974459 -0.028259141 8 21
1.2172698 0.057480667 -0.055201355 74 20
1.1957351 0.21308583 -0.081663482 10 19
1.2063799 0.056359265 -0.10528712 80 18
1.1738538 0.20913468 -0.1324878 35 17
1.1776545 0.05466409 -0.15894812 91 16
1.1399471 0.20341384 -0.19580317 9 15
1.1306692 0.20192297 -0.25506324 36 14
1.3004005 0.2286714 0.15692341 20 27
1.3227605 0.05811321 0.1232203 9 26
1.2699661 0.22281024 0.087280877 6 25
1.287306 0.056608725 0.058462199 10 24
1.2456243 0.21804972 0.028549276 6 23
1.2512102 0.054864466 0 66 22
1.2407779 0.21674517 -0.028433222 7 21
1.2149681 0.053126685 -0.055084899 75 20
1.1891037 0.20760883 -0.081145532 8 19
1.2040813 0.052044898 -0.10506357 79 18
1.1794684 0.20590022 -0.13305642 9 17
1.1778382 0.050552975 -0.15894812 95 16
1.1455005 0.20029218 -0.19666195 8 15
1.1313673 0.19797496 -0.25506324 36 14
1.3060802 0.22498235 0.15752929 10 27
1.2756505 0.21923003 0.087627918 6 25
1.2850003 0.05201811 0.058345739 9 24
1.2463779 0.21370035 0.028549276 6 23
1.2538923 0.050593 0 43 22
1.2292134 0.21028139 -0.028143087 7 21
1.2151461 0.048885331 -0.055084899 74 20
1.1971935 0.20473289 -0.081663482 7 19
1.206744 0.04793584 -0.10528712 80 18
1.1777327 0.20135824 -0.13277212 8 17
1.170584 0.046162553 -0.15791598 96 16
1.1486193 0.19671331 -0.19709133 8 15
1.1368533 0.19485831 -0.25617948 36 14
1.2970345 0.21897924 0.15631753 8 27
1.2763704 0.2149986 0.087627918 6 25
1.2901572 0.047933534 0.058578655 9 24
1.2470796 0.20956603 0.028549276 6 23
1.2490561 0.046258416 0 29 22
1.234832 0.20704019 -0.028259141 7 21
1.217797 0.044943079 -0.055201355 75 20
1.195407 0.20034453 -0.08149083 7 19
1.2068962 0.043933868 -0.10528712 82 18
1.1783938 0.19745164 -0.13277212 7 17
1.1756802 0.042449888 -0.15860409 96 16
1.1492653 0.19290327 -0.19709133 8 15
1.1350909 0.19067837 -0.25562137 41 14
1.3026862 0.2152687 0.15692341 8 27
1.2795731 0.21095228 0.087801442 6 25
1.2928127 0.043509498 0.058695115 9 24
1.2577014 0.20663357 0.028781384 6 23
1.2542076 0.042056918 0 21 22
1.2306163 0.20190959 -0.028143087 7 21
1.2154576 0.040400889 -0.055084899 73 20
1.1936388 0.19576195 -0.081318185 7 19
1.2095308 0.039798088 -0.10551065 80 18
1.1815599 0.19353779 -0.13305642 8 17
1.1807714 0.038497839 -0.15929218 96 16
1.1523941 0.18909363 -0.19752073 8 15
1.1285384 0.18551342 -0.25394699 56 14
1.2985682 0.20969233 0.15631753 8 27
1.2778761 0.20585966 0.087627918 6 25
1.2904671 0.038700216 0.058578655 9 24
1.2559479 0.20184076 0.028723355 7 23
1.2618504 0.037670452 0 10 22
1.2436831 0.19940007 -0.028433222 7 21
1.2205838 0.036297359 -0.055317819 74 20
1.1943483 0.19138572 -0.081318185 7 19
1.2096686 0.035364665 -0.10551065 78 18
1.192035 0.19100405 -0.13419364 8 17
1.1809045 0.034169838 -0.15929218 96 16
1.1530471 0.18506987 -0.19752073 8 15
1.1292106 0.18137588 -0.25394699 64 14
1.3017427 0.20554984 0.15662047 8 27
1.2736613 0.20061234 0.087280877 7 25
1.2905943 0.034195404 0.058578655 9 24
1.266518 0.1990263 0.028955463 7 23
1.2619741 0.033265542 0 10 22
1.2344978 0.19349021 -0.028201113 7 21
1.2207031 0.032036506 -0.055317819 73 20
1.1900827 0.18643348 -0.08097288 7 19
1.2097847 0.03114192 -0.10551065 78 18
1.1877882 0.18606311 -0.13362503 8 17
1.1785411 0.029989164 -0.15894812 95 16
1.1512538 0.18065691 -0.19709133 8 15
1.1298369 0.1774331 -0.25394699 72 14
1.3000005 0.20062158 0.15631753 8 27
1.2842106 0.19770171 0.087974958 7 25
1.2932026 0.029743355 0.058695115 9 24
1.2622657 0.19383591 0.028839409 7 23
1.2545843 0.028701855 0 10 22
1.2450117 0.19093004 -0.028433222 7 21
1.2208074 0.027775262 -0.055317819 72 20
1.1956553 0.18304302 -0.081318185 7 19
1.207392 0.027078681 -0.10528712 78 18
1.1884307 0.18191582 -0.13362503 8 17
1.1761584 0.026030688 -0.15860409 95 16
1.1494439 0.17625871 -0.19666195 8 15
1.1280113 0.17331013 -0.25338888 80 14
1.2982056 0.19593461 0.15601459 8 27
1.2848592 0.19344203 0.087974958 8 25
1.2932942 0.025454774 0.058695115 9 24
1.2579598 0.18889724 0.028723355 7 23
1.2671705 0.024763864 0 10 22
1.2382574 0.18545787 -0.028259141 7 21
1.2208929 0.023726765 -0.055317819 75 20
1.1962558 0.17907707 -0.081318185 8 19
1.2074791 0.022863932 -0.10528712 78 18
1.1865717 0.17760114 -0.13334073 8 17
1.1811937 0.022007946 -0.15929218 96 16
1.150022 0.17244604 -0.19666195 8 15
1.1237912 0.16863772 -0.25227264 86 14
1.3062447 0.1925009 0.15692341 8 27
1.2731929 0.18711916 0.08710736 29 25
1.2933751 0.020940181 0.058695115 9 24
1.251227 0.18318483 0.028549276 7 23
1.2647495 0.020304684 0 10 22
1.2339526 0.18040161 -0.028143087 7 21
1.2284628 0.019356411 -0.055667192 70 20
1.1993406 0.17526588 -0.08149083 8 19
1.2075516 0.018648906 -0.10528712 77 18
1.1823007 0.17252356 -0.13277212 8 17
1.1787875 0.017851831 -0.15894812 96 16
1.1506464 0.16822983 -0.19666195 8 15
1.1219625 0.1643554 -0.2517145 89 14
1.3020301 0.18699725 0.15631753 8 27
1.2763381 0.1828097 0.087280877 50 25
1.2934432 0.016199583 0.058695115 9 24
1.2592793 0.17989071 0.028723355 15 23
1.2673153 0.015695622 0 10 22
1.2370791 0.17623506 -0.028201113 8 21
1.2360142 0.015146611 -0.056016568 16 20
1.1950381 0.17015573 -0.081145532 8 19
1.2101016 0.014247652 -0.10551065 75 18
1.1902704 0.16946085 -0.13362503 12 17
1.181321 0.013555009 -0.15929218 96 16
1.148789 0.16385932 -0.19623254 9 15
1.1201458 0.15989244 -0.25115639 89 14
1.3002181 0.1821024 0.15601459 8 27
1.2769684 0.17835334 0.087280877 49 25
1.2884973 0.011647913 0.058462199 9 24
1.2524753 0.17444521 0.028549276 32 23
1.2673624 0.011271771 0 12 22
1.2376567 0.17213181 -0.028201113 24 21
1.2335624 0.010814589 -0.055900108 8 20
1.1980945 0.16633122 -0.081318185 26 19
1.2151221 0.01026776 -0.10595773 77 18
1.1760978 0.1632258 -0.13191918 34 17
1.1813594 0.0096375328 -0.15929218 95 16
1.1493541 0.1598483 -0.19623254 9 15
1.1254954 0.15686038 -0.25227264 88 14
1.3057308 0.17847101 0.15662047 8 27
1.2800233 0.17445928 0.087454401 46 25
1.2960207 0.0074051116 0.058811571 9 24
1.2530469 0.1702909 0.028549276 22 23
1.2673928 0.0070689842 0 11 22
1.23825 0.16781051 -0.028201113 24 21
1.2360888 0.0067330422 -0.056016568 10 20
1.1936979 0.16167773 -0.08097288 40 19
1.2126606 0.006018308 -0.1057342 20 18
1.1840144 0.16033997 -0.13277212 59 17
1.1838622 0.0055206753 -0.15963621 94 16
1.1596371 0.15738155 -0.19795014 9 15
1.1212083 0.15226419 -0.25115639 89 14
1.3063458 0.17391205 0.15662047 8 27
1.2806246 0.16999009 0.087454401 49 25
1.2935416 0.0028798026 0.058695115 9 24
1.261094 0.16669394 0.028723355 8 23
1.2649097 0.0026440425 0 10 22
1.2363511 0.16315536 -0.028143087 9 21
1.2311106 0.0022025055 -0.055783652 53 20
1.1967268 0.1578411 -0.081145532 28 19
1.2151641 0.0017844262 -0.10595773 38 18
1.1845943 0.15599924 -0.13277212 70 17
1.1789218 0.0013916492 -0.15894812 92 16
1.1528832 0.15214792 -0.19666195 32 15
1.1265632 0.14899917 -0.25227264 85 14
1.3020537 0.16847682 0.15601459 8 27
1.2861847 0.16594282 0.087801442 38 25
1.2935433 -0.0018612833 0.058695115 9 24
1.2517551 0.16099638 0.028491249 6 23
1.2649109 -0.0019921018 0 10 22
1.2468544 0.15991388 -0.028375195 7 21
1.2261162 -0.0020774514 -0.055550735 71 20
1.1923511 0.15280965 -0.080800228 9 19
1.2151625 -0.0026693854 -0.10595773 78 18
1.1851315 0.15186329 -0.13277212 41 17
1.1863475 -0.0029617378 -0.15998025 94 16
1.150965 0.14780375 -0.19623254 30 15
1.129518 0.14518508 -0.25283074 71 14
1.3075569 0.16455966 0.15662047 8 27
1.2842821 0.16113701 0.087627918 27 25
1.296026 -0.006393143 0.058811571 9 24
1.2572683 0.1572559 0.028607301 6 23
1.2673961 -0.0064244699 0 10 22
1.2474051 0.15556057 -0.028375195 7 21
1.2236042 -0.0063399486 -0.055434272 72 20
1.2027743 0.14990042 -0.08149083 7 19
1.212656 -0.0068923915 -0.1057342 78 18
1.1807263 0.14710116 -0.13220349 11 17
1.1838539 -0.0070833974 -0.15963621 95 16
1.1490308 0.14347486 -0.19580317 11 15
1.1276004 0.1409339 -0.25227264 29 14
1.3056607 0.15968859 0.15631753 8 27
1.2897869 0.15726613 0.087974958 16 25
1.2910016 -0.010866521 0.058578655 9 24
1.255329 0.15255994 0.028549276 6 23
1.2648662 -0.010822725 0 10 22
1.2404723 0.1505055 -0.028201113 7 21
1.2235746 -0.010611086 -0.055434272 69 20
1.2032901 0.14570105 -0.08149083 7 19
1.2101365 -0.010886721 -0.10551065 78 18
1.188628 0.14388943 -0.13305642 8 17
