# .PCD v0.7 - Point Cloud Data file format
VERSION 0.7
FIELDS x y z intensity ring
SIZE 4 4 4 4 2
TYPE F F F F U
COUNT 1 1 1 1 1
WIDTH 1171
HEIGHT 1
VIEWPOINT 0 0 0 1 0 0 0
POINTS 1171
DATA ascii
-0.24881813 -0.38116875 0.11214621 96 31
-0.29047507 -0.34234369 0.095821008 86 30
-0.25150463 -0.3846392 0.081932023 97 29
-0.29416737 -0.34686744 0.065678626 88 28
-0.25569338 -0.390416 0.052711729 96 27
-0.2897684 -0.34171274 0.039487585 86 26
-0.25835347 -0.3942332 0.030366112 94 25
-0.30207664 -0.35607377 0.020147331 85 24
-0.25219724 -0.38444769 0.0098645873 94 23
-0.29268461 -0.3449868 0 86 22
-0.25505245 -0.38855281 -0.0099806404 93 21
-0.29407507 -0.3464877 -0.019565038 85 20
-0.25591916 -0.38987732 -0.029868463 93 19
-0.29993856 -0.35296544 -0.038448796 89 18
-0.25901487 -0.39463672 -0.050038312 94 17
-0.29851374 -0.35106719 -0.059175488 90 16
-0.2501877 -0.38129261 -0.07342618 96 15
-0.29081059 -0.3412002 -0.11830761 93 13
-0.25567535 -0.38987172 -0.098788179 97 14
-0.29735693 -0.34811488 -0.14628239 95 12
-0.25472173 -0.3901875 -0.17434256 96 11
-0.29764599 -0.3462905 -0.22395189 97 9
-0.25372714 -0.38946483 -0.20194507 97 10
-0.30226916 -0.35046452 -0.25864017 97 8
-0.25364563 -0.3928161 -0.29285836 96 7
-0.30047524 -0.34637195 -0.32261488 53 6
-0.25349715 -0.39566857 -0.36829069 61 5
-0.21751286 -0.2498347 -0.28331351 6 4
-0.18023333 -0.28226924 -0.31840059 4 3
-0.24814653 -0.28209558 -0.40260512 5 2
-0.18851683 -0.29843017 -0.41762355 4 1
-0.19443303 -0.22065735 -0.36476967 4 0
-0.25014713 -0.3802979 0.11214621 96 31
-0.29644281 -0.34685898 0.09751197 86 30
-0.2568641 -0.38993016 0.083352804 96 29
-0.29537636 -0.34583849 0.065678626 86 28
-0.25434276 -0.38536423 0.052105844 96 27
-0.29577544 -0.34640422 0.040201217 86 26
-0.26109144 -0.39541721 0.030539632 92 25
-0.30331776 -0.35501716 0.020147331 87 24
-0.25627184 -0.38774964 0.0099806404 93 23
-0.29225385 -0.34207028 0 86 22
-0.25907442 -0.39188907 -0.010096695 93 21
-0.30017808 -0.35113037 -0.019914413 85 20
-0.25727853 -0.38898158 -0.029868463 94 19
-0.30273509 -0.35385326 -0.038672339 90 18
-0.26310945 -0.3978878 -0.050606929 93 17
-0.30291495 -0.35382205 -0.059863579 88 16
-0.25151715 -0.38041699 -0.07342618 96 15
-0.29672375 -0.34563068 -0.12037113 93 13
-0.25696683 -0.38902175 -0.098788179 97 14
-0.2954708 -0.34350803 -0.14464796 94 12
-0.25475162 -0.38739717 -0.17340523 96 11
-0.30169967 -0.34862575 -0.22629693 97 9
-0.25754723 -0.39237401 -0.20407079 97 10
-0.30625221 -0.35267642 -0.26122656 97 8
-0.25837174 -0.39715451 -0.29706207 96 7
-0.30162218 -0.34537363 -0.32261488 51 6
-0.2517339 -0.38999689 -0.36344475 60 5
-0.21954229 -0.25046131 -0.28504103 6 4
-0.18482497 -0.28747207 -0.32567832 5 3
-0.24908063 -0.28127116 -0.40260512 5 2
-0.18710104 -0.29394656 -0.41165751 4 1
-0.18836071 -0.21249558 -0.35050493 4 0
-0.25008392 -0.37744534 0.11150169 95 31
-0.29759139 -0.34587401 0.09751197 87 30
-0.25546321 -0.38497099 0.082405612 97 29
-0.29490215 -0.34299213 0.065292276 86 28
-0.25425649 -0.38244483 0.051802903 96 27
-0.29861456 -0.3472487 0.040439095 86 26
-0.25966057 -0.39038172 0.030192589 95 25
-0.30285597 -0.35212377 0.020030871 87 24
-0.25893027 -0.38898546 0.010038668 94 23
-0.29666558 -0.34487393 0 87 22
-0.25906605 -0.38889503 -0.010038668 94 21
-0.30134082 -0.35013303 -0.019914413 90 20
-0.25856701 -0.38812631 -0.029868463 93 19
-0.30396843 -0.35279435 -0.038672339 88 18
-0.26032886 -0.39079022 -0.049754001 95 17
-0.2992706 -0.34715945 -0.058831446 88 16
-0.25277728 -0.3795808 -0.07342618 95 15
-0.29944891 -0.34645543 -0.12105896 93 13
-0.25966254 -0.39015824 -0.099346302 97 14
-0.29816395 -0.34430456 -0.14546517 92 12
-0.25737172 -0.38844466 -0.17434256 96 11
-0.2970776 -0.3409425 -0.22160684 97 9
-0.25760961 -0.38962325 -0.20300794 97 10
-0.31031513 -0.35481155 -0.26381296 98 8
-0.25293979 -0.38586545 -0.28865466 95 7
-0.30811316 -0.35026339 -0.32867336 45 6
-0.25515422 -0.39232787 -0.36667538 61 5
-0.22041523 -0.24969344 -0.28504103 6 4
-0.18123129 -0.27958858 -0.31658116 5 3
-0.25006095 -0.28039998 -0.40260512 5 2
-0.18893191 -0.2945745 -0.41364619 5 1
-0.19983284 -0.22360991 -0.37292096 4 0
-0.25672004 -0.38463539 0.11407976 98 31
-0.29398486 -0.33933443 0.095821008 86 30
-0.25951231 -0.38817275 0.083352804 97 29
-0.29609758 -0.34196067 0.065292276 88 28
-0.25695994 -0.38362408 0.052105844 96 27
-0.29818657 -0.34433088 0.040201217 86 26
-0.25826648 -0.38531503 0.029845547 94 25
-0.30408326 -0.35106444 0.020030871 86 24
-0.26035425 -0.38803381 0.010038668 95 23
-0.29622152 -0.34195465 0 86 22
-0.25903994 -0.38590586 -0.0099806404 95 21
-0.3075569 -0.35466319 -0.020263789 90 20
-0.25992024 -0.38722137 -0.029868463 94 19
-0.30355725 -0.34985819 -0.038448796 88 18
-0.2631332 -0.39190274 -0.050038312 93 17
-0.3037453 -0.34983671 -0.059519537 88 16
-0.2555283 -0.38070408 -0.073855579 96 15
-0.29912946 -0.34355074 -0.12037113 93 13
-0.25967643 -0.3872183 -0.098788179 97 14
-0.29629958 -0.33966437 -0.14383073 95 12
-0.25751722 -0.3855643 -0.17340523 97 11
-0.29973096 -0.34155536 -0.22277936 96 9
-0.25903592 -0.38867646 -0.20300794 97 10
-0.30876803 -0.35047591 -0.26122656 97 8
-0.25661424 -0.38840425 -0.29145712 96 7
-0.30674037 -0.34616911 -0.32564411 46 6
-0.25866273 -0.39459455 -0.36990598 57 5
-0.22496423 -0.25290576 -0.2902236 6 4
-0.18595281 -0.28469822 -0.32385889 5 3
-0.25321496 -0.2819126 -0.40642127 5 2
-0.19001031 -0.29388005 -0.41364619 4 1
-0.19673303 -0.2186092 -0.36476967 4 0
-0.25946546 -0.38570333 0.11472428 97 31
-0.29683733 -0.34008163 0.096384659 87 30
-0.25548956 -0.37904721 0.08145842 97 29
-0.2989817 -0.34272644 0.065678626 88 28
-0.25836426 -0.3826797 0.052105844 96 27
-0.30109173 -0.34510303 0.040439095 86 26
-0.2610622 -0.38643977 0.030019069 95 25
-0.30371708 -0.34807375 0.019914413 86 24
-0.26309606 -0.38920051 0.010096695 94 23
-0.29581991 -0.33899111 0 85 22
-0.26045263 -0.38495386 -0.0099806404 94 21
-0.30383858 -0.34796768 -0.019914413 84 20
-0.26133776 -0.38626611 -0.029868463 93 19
-0.30483752 -0.34874326 -0.038448796 87 18
-0.26588061 -0.39304632 -0.050322618 94 17
-0.30666468 -0.35057709 -0.059863579 89 16
-0.25685564 -0.3798098 -0.073855579 96 15
-0.2971397 -0.3389059 -0.11899546 93 13
-0.26244777 -0.38829014 -0.099346302 97 14
-0.29591513 -0.33686095 -0.14301351 91 12
-0.25886151 -0.38466308 -0.17340523 97 11
-0.3068653 -0.34704053 -0.22746944 97 9
-0.25914019 -0.38588428 -0.20194507 97 10
-0.30998951 -0.34939596 -0.26122656 97 8
-0.25228351 -0.37885484 -0.28445095 96 7
-0.30794686 -0.34509623 -0.32564411 43 6
-0.25691336 -0.3888934 -0.36506006 60 5
-0.2234128 -0.24944618 -0.28676856 6 4
-0.18601593 -0.28260669 -0.32203946 5 3
-0.24878281 -0.27503464 -0.39688087 5 2
-0.18858965 -0.28938398 -0.40768012 4 1
-0.19749492 -0.21792114 -0.36476967 4 0
-0.25543255 -0.37676823 0.11214621 96 31
-0.30125678 -0.34268615 0.09751197 86 30
-0.26228333 -0.38630578 0.083352804 96 29
-0.30509394 -0.34722352 0.066837661 87 28
-0.2610833 -0.38383478 0.052408788 96 27
-0.29728055 -0.33851701 0.039725464 86 26
-0.26101711 -0.38345706 0.029845547 94 25
-0.30824497 -0.35074759 0.020147331 85 24
-0.26305687 -0.38620675 0.010038668 95 23
-0.3019799 -0.34356576 0 87 22
-0.25753817 -0.37786976 -0.0098065604 93 21
-0.30670935 -0.34877247 -0.020030871 85 20
-0.26129055 -0.38328338 -0.029695811 95 19
-0.30599231 -0.34773046 -0.038448796 88 18
-0.26863915 -0.39417544 -0.050606929 94 17
-0.30782554 -0.34955823 -0.059863579 87 16
-0.25680411 -0.37686816 -0.07342618 96 15
-0.29832092 -0.33786666 -0.11899546 92 13
-0.26373395 -0.38741773 -0.099346302 97 14
-0.30181262 -0.34111068 -0.14546517 93 12
-0.26142532 -0.38572821 -0.17434256 97 11
-0.30506131 -0.34273776 -0.2251244 97 9
-0.26174304 -0.38685858 -0.20300794 98 10
-0.31544718 -0.35313082 -0.26510617 98 8
-0.25474745 -0.37969816 -0.28585219 95 7
-0.31042683 -0.34554541 -0.32715875 41 6
-0.2582016 -0.38803929 -0.36506006 53 5
-0.22668049 -0.25136864 -0.2902236 6 4
-0.19068933 -0.28773874 -0.32931718 5 3
-0.25408021 -0.278952 -0.40451318 5 2
-0.19036759 -0.29003128 -0.40966883 4 1
-0.1982165 -0.21726501 -0.36476967 4 0
-0.25668055 -0.3759191 0.11214621 98 31
-0.29914528 -0.33805329 0.096384659 88 30
-0.26356292 -0.38543388 0.083352804 96 29
-0.29966232 -0.3388412 0.065292276 87 28
-0.26235473 -0.38296688 0.052408788 96 27
-0.30343381 -0.34304553 0.040439095 87 26
-0.26508585 -0.38671824 0.030192589 94 25
-0.3094064 -0.34972346 0.020147331 87 24
-0.26433611 -0.38533229 0.010038668 95 23
-0.2981205 -0.33696967 0 86 22
-0.26166308 -0.3811042 -0.0099226134 93 21
-0.30620006 -0.34589148 -0.019914413 86 20
-0.2639609 -0.3844783 -0.029868463 95 19
-0.30886456 -0.34851593 -0.038672339 91 18
-0.26575974 -0.38711739 -0.049754001 94 17
-0.30408853 -0.34294716 -0.058831446 88 16
-0.25943494 -0.37805265 -0.073855579 96 15
-0.30104545 -0.33866388 -0.11968329 94 13
-0.26508468 -0.38649476 -0.099346302 98 14
-0.30452242 -0.34186432 -0.14628239 95 12
-0.26277018 -0.38481334 -0.17434256 96 11
-0.30625582 -0.34167081 -0.2251244 97 9
-0.26176077 -0.38411143 -0.20194507 97 10
-0.31379968 -0.34886107 -0.26251978 97 8
-0.25485644 -0.37712884 -0.28445095 95 7
-0.3102887 -0.34299216 -0.32564411 40 6
-0.25955454 -0.38713565 -0.36506006 54 5
-0.22633101 -0.24924776 -0.28849608 6 4
-0.19075321 -0.28563699 -0.32749775 5 3
-0.25395155 -0.27688125 -0.40260512 5 2
-0.19137883 -0.28936502 -0.40966883 4 1
-0.19996412 -0.21762833 -0.36680749 4 0
-0.26206535 -0.38101354 0.11407976 97 31
-0.30684125 -0.34424824 0.098639272 87 30
-0.26076105 -0.37842512 0.081932023 96 29
-0.302495 -0.33962956 0.065678626 88 28
-0.26508874 -0.38409856 0.052711729 96 27
-0.30296513 -0.34013402 0.040201217 87 26
-0.26362115 -0.38167152 0.029845547 95 25
-0.31062528 -0.34864131 0.020147331 87 24
-0.26574668 -0.38436085 0.010038668 94 23
-0.29762277 -0.33406854 0 86 22
-0.26299182 -0.38018849 -0.0099226134 95 21
-0.31080782 -0.34847862 -0.020147331 90 20
-0.2638934 -0.38149595 -0.029695811 94 19
-0.311746 -0.34928551 -0.038895879 90 18
-0.26577431 -0.38409084 -0.049469694 94 17
-0.30860022 -0.34556165 -0.059519537 88 16
-0.25803882 -0.37303302 -0.072996788 96 15
-0.30389702 -0.33934075 -0.12037113 91 13
-0.2650575 -0.38355494 -0.098788179 97 14
-0.30101317 -0.33549425 -0.14383073 94 12
-0.26287544 -0.38193122 -0.17340523 97 11
-0.30298263 -0.33570585 -0.22160684 96 9
-0.26316687 -0.38314947 -0.20194507 97 10
-0.31796604 -0.35086447 -0.26510617 97 8
-0.25508189 -0.37447396 -0.2830497 96 7
-0.31289157 -0.34331524 -0.32715875 37 6
-0.2588549 -0.38300645 -0.36182943 53 5
-0.22724304 -0.24841654 -0.28849608 6 4
-0.1899097 -0.28207415 -0.32385889 5 3
-0.25602144 -0.2771714 -0.40451318 5 2
-0.18995281 -0.28485644 -0.40370277 4 1
-0.1967832 -0.21268231 -0.35865623 4 0
-0.25663322 -0.37008756 0.11085717 96 31
-0.30482879 -0.33951268 0.09751197 87 30
-0.26492494 -0.38151431 0.082879208 97 29
-0.30871326 -0.34400964 0.066837661 88 28
-0.26508844 -0.38107973 0.052408788 96 27
-0.30588076 -0.34086546 0.040439095 86 26
-0.26643232 -0.3827571 0.030019069 94 25
-0.30854735 -0.34379926 0.019914413 86 24
-0.26708671 -0.38343087 0.010038668 95 23
-0.30220309 -0.33668005 0 88 22
-0.26438349 -0.37922204 -0.0099226134 92 21
-0.31202233 -0.34739158 -0.020147331 84 20
-0.26528987 -0.38052616 -0.029695811 95 19
-0.3130241 -0.34814051 -0.038895879 92 18
-0.2685231 -0.38520575 -0.049754001 94 17
-0.31319451 -0.34809414 -0.060207624 89 16
-0.2635307 -0.37821475 -0.074284971 96 15
-0.30184263 -0.33472416 -0.11899546 92 13
-0.26646152 -0.38258085 -0.098788179 97 14
-0.30855379 -0.34142148 -0.14709961 93 12
-0.26289696 -0.37909943 -0.1724679 97 11
-0.30570498 -0.33621895 -0.22277936 97 9
-0.26705691 -0.38596442 -0.20407079 96 10
-0.32063925 -0.35132533 -0.26639935 97 8
-0.26103166 -0.38043809 -0.28865466 96 7
-0.31408805 -0.34222096 -0.32715875 35 6
-0.25912631 -0.38051665 -0.36021414 49 5
-0.22810879 -0.2476218 -0.28849608 6 4
-0.18994361 -0.27998197 -0.32203946 5 3
-0.25592634 -0.27505696 -0.40260512 5 2
-0.19427742 -0.28925365 -0.41165751 4 1
-0.19652641 -0.21094464 -0.3566184 4 0
-0.25792351 -0.36918947 0.11085717 98 31
-0.30272737 -0.33484933 0.096384659 88 30
-0.26485869 -0.37856832 0.082405612 97 29
-0.30491757 -0.33745626 0.065678626 87 28
-0.26500362 -0.37811232 0.052105844 96 27
-0.30539128 -0.33795732 0.040201217 86 26
-0.26492435 -0.3777259 0.029672027 95 25
-0.30974555 -0.34272015 0.019914413 87 24
-0.26699856 -0.38044292 0.0099806404 95 23
-0.30000564 -0.33193025 0 87 22
-0.26427996 -0.37624407 -0.0098645873 95 21
-0.30818123 -0.34076789 -0.019797955 89 20
-0.26519388 -0.37754935 -0.02952316 94 19
-0.30919752 -0.34153214 -0.038225256 86 18
-0.27128288 -0.38630614 -0.050038312 95 17
-0.31440768 -0.34699881 -0.060207624 92 16
-0.26204097 -0.37324589 -0.07342618 96 15
-0.30138445 -0.33189726 -0.11830761 93 13
-0.27057344 -0.38565296 -0.099904425 97 14
-0.30494693 -0.33512408 -0.14464796 93 12
-0.26553538 -0.38008669 -0.17340523 97 11
-0.30987599 -0.33839095 -0.2251244 97 9
-0.26711893 -0.38316637 -0.20300794 98 10
-0.31458423 -0.34236488 -0.25993338 97 8
-0.26119104 -0.37781444 -0.28725341 96 7
-0.31799674 -0.34402895 -0.33018804 34 6
-0.26580033 -0.38751078 -0.36829069 43 5
-0.2277322 -0.2455091 -0.28676856 6 4
-0.19091977 -0.2793172 -0.32203946 5 3
-0.25465828 -0.27182123 -0.39878896 5 2
-0.19528592 -0.28857371 -0.41165751 4 1
-0.19325502 -0.20607352 -0.34846711 4 0
-0.26196915 -0.37225294 0.11214621 98 31
-0.30884022 -0.33916914 0.098075621 89 30
-0.26898536 -0.38166946 0.083352804 97 29
-0.30609366 -0.33638984 0.065678626 87 28
-0.26632184 -0.37718502 0.052105844 97 27
-0.30656913 -0.33688924 0.040201217 86 26
-0.26766959 -0.37884328 0.029845547 95 25
-0.3126297 -0.34347567 0.020030871 86 24
-0.26975703 -0.38155696 0.010038668 95 23
-0.30454621 -0.33456209 0 87 22
-0.26559168 -0.37531924 -0.0098645873 95 21
-0.31443995 -0.34520483 -0.020147331 90 20
-0.26936978 -0.38070837 -0.029868463 95 19
-0.31207418 -0.34228277 -0.038448796 88 18
-0.27120575 -0.38332173 -0.049754001 95 17
-0.31561702 -0.34589919 -0.060207624 90 16
-0.261931 -0.37031049 -0.072996788 97 15
-0.30580294 -0.33437428 -0.11968329 90 13
-0.27052194 -0.3827087 -0.099346302 97 14
-0.31092981 -0.33925906 -0.14709961 90 12
-0.26553714 -0.37725484 -0.1724679 97 11
-0.30955005 -0.33569187 -0.22395189 97 9
-0.26845482 -0.38223162 -0.20300794 97 10
-0.32162279 -0.34751558 -0.26510617 97 8
-0.26250827 -0.37690043 -0.28725341 96 7
-0.31510651 -0.33857143 -0.32564411 31 6
-0.26500139 -0.38342768 -0.36506006 43 5
-0.22734362 -0.24340206 -0.28504103 6 4
-0.19477212 -0.28291184 -0.32749775 5 3
-0.25448814 -0.26976421 -0.39688087 5 2
-0.19545037 -0.28663063 -0.40966883 4 1
-0.19698901 -0.20852506 -0.35458058 3 0
-0.26597378 -0.375339 0.11343525 97 31
-0.30334502 -0.33099362 0.095821008 88 30
-0.26460919 -0.37273806 0.08145842 98 29
-0.31056195 -0.33899927 0.066451311 87 28
-0.26899847 -0.37832984 0.052408788 96 27
-0.3076846 -0.33587077 0.040201217 87 26
-0.26892442 -0.37795359 0.029845547 95 25
-0.31376696 -0.34243706 0.020030871 86 24
-0.26958191 -0.37861672 0.0099806404 95 23
-0.30565399 -0.33355033 0 87 22
-0.26539519 -0.37239343 -0.0098065604 94 21
-0.31388652 -0.34232754 -0.020030871 84 20
-0.27063078 -0.37981299 -0.029868463 95 19
-0.3165924 -0.34489879 -0.038895879 93 18
-0.27247542 -0.38242027 -0.049754001 95 17
-0.31676236 -0.34485063 -0.060207624 89 16
-0.26599336 -0.37346733 -0.073855579 96 15
-0.30854684 -0.33511847 -0.12037113 93 13
-0.27038693 -0.37981674 -0.098788179 97 14
-0.30722094 -0.3330406 -0.14464796 95 12
-0.26545703 -0.37447396 -0.17153057 97 11
-0.31217214 -0.33627388 -0.2251244 97 9
-0.26712829 -0.37762985 -0.2008822 97 10
-0.32130688 -0.34488925 -0.26381296 97 8
-0.2602208 -0.37092137 -0.2830497 96 7
-0.3162275 -0.33752465 -0.32564411 28 6
-0.27059224 -0.38883832 -0.37152129 39 5
-0.23064651 -0.24525978 -0.28849608 6 4
-0.19667342 -0.28368211 -0.32931718 5 3
-0.25201747 -0.26543063 -0.39115664 5 2
-0.19555396 -0.28472406 -0.40768012 5 1
-0.19767943 -0.20787069 -0.35458058 4 0
-0.26588961 -0.37243471 0.11279073 97 31
-0.30449858 -0.32993272 0.095821008 88 30
-0.26732579 -0.37381655 0.081932023 97 29
-0.31342703 -0.33972046 0.066837661 88 28
-0.26888308 -0.37536347 0.052105844 97 27
-0.30885515 -0.3347947 0.040201217 85 26
-0.27024207 -0.37701255 0.029845547 95 25
-0.31496039 -0.34133974 0.020030871 87 24
-0.275307 -0.38374099 0.010154722 95 23
-0.30681643 -0.33248138 0 87 22
-0.2666935 -0.37146476 -0.0098065604 96 21
-0.31684226 -0.34300122 -0.020147331 88 20
-0.26906759 -0.37479857 -0.02952316 95 19
-0.31439677 -0.34015062 -0.038448796 91 18
-0.27243713 -0.37939397 -0.049469694 94 17
-0.31289402 -0.3383134 -0.059175488 89 16
-0.26736042 -0.3724899 -0.073855579 96 15
-0.30977306 -0.3339853 -0.12037113 92 13
-0.27171111 -0.37887058 -0.098788179 97 14
-0.31005663 -0.33363491 -0.14546517 93 12
-0.26682776 -0.37349847 -0.17153057 97 11
-0.31637651 -0.33839223 -0.22746944 97 9
-0.26981366 -0.37849823 -0.20194507 97 10
-0.31962439 -0.34060434 -0.26122656 97 8
-0.26157853 -0.36996517 -0.2830497 95 7
-0.32295498 -0.34211901 -0.33170265 26 6
-0.27092963 -0.38627505 -0.36990598 38 5
-0.23029062 -0.24311088 -0.28676856 6 4
-0.20158945 -0.28861612 -0.33659488 5 3
-0.25406781 -0.26570809 -0.39306471 5 2
-0.19914752 -0.28776667 -0.41364619 4 1
-0.20147759 -0.21025099 -0.36069405 4 0
-0.26725286 -0.3714577 0.11279073 98 31
-0.31070772 -0.33414096 0.09751197 86 30
-0.2701185 -0.37483343 0.082405612 97 29
-0.31128967 -0.33496717 0.066064969 86 28
-0.27314061 -0.37841505 0.052711729 97 27
-0.3134861 -0.33728993 0.04067697 85 26
-0.27307177 -0.37804893 0.030019069 95 25
-0.31791827 -0.34200409 0.020147331 86 24
-0.27373785 -0.37871119 0.010038668 95 23
-0.30632192 -0.32953188 0 86 22
-0.27096155 -0.37455016 -0.0099226134 94 21
-0.31461856 -0.33825222 -0.019914413 89 20
-0.27043945 -0.37380987 -0.02952316 96 19
-0.31734687 -0.34081027 -0.038672339 90 18
-0.27520496 -0.38046071 -0.049754001 95 17
-0.31752524 -0.34077153 -0.059863579 89 16
-0.26722676 -0.36955082 -0.07342618 96 15
-0.3092877 -0.33115363 -0.11968329 94 13
-0.2730979 -0.3778722 -0.098788179 98 14
-0.3112193 -0.33255062 -0.14546517 94 12
-0.26947311 -0.37445349 -0.1724679 97 11
-0.31761467 -0.33723041 -0.22746944 97 9
-0.27113321 -0.37755409 -0.20194507 97 10
-0.32081139 -0.33948657 -0.26122656 96 8
-0.26882225 -0.37751824 -0.29005587 95 7
-0.31725651 -0.33381903 -0.32412949 25 6
-0.26681918 -0.37750143 -0.36182943 36 5
-0.23365347 -0.24490055 -0.2902236 6 4
-0.19869837 -0.28226751 -0.32931718 5 3
-0.25165126 -0.26131105 -0.38734049 5 2
-0.19673154 -0.28206667 -0.40569144 4 1
-0.20119412 -0.20851453 -0.35865623 4 0
-0.26854786 -0.37052253 0.11279073 97 31
-0.31019866 -0.33128467 0.096948311 88 30
-0.27142528 -0.37388825 0.082405612 97 29
-0.31245703 -0.33387852 0.066064969 86 28
-0.27445984 -0.37745929 0.052711729 96 27
-0.31289387 -0.33443943 0.040439095 86 26
-0.27584648 -0.37911773 0.030192589 94 25
-0.31739488 -0.3390772 0.020030871 86 24
-0.27359751 -0.37572521 0.0099806404 95 23
-0.30747035 -0.32846063 0 86 22
-0.2736631 -0.37567747 -0.0099806404 93 21
-0.31751323 -0.3389664 -0.020030871 88 20
-0.27174264 -0.37286359 -0.02952316 94 19
-0.31676382 -0.33794743 -0.038448796 87 18
-0.27798355 -0.38151276 -0.050038312 95 17
-0.31695092 -0.33791876 -0.059519537 90 16
-0.26995435 -0.37061429 -0.073855579 96 15
-0.30713096 -0.32658681 -0.11830761 91 13
-0.27719632 -0.38092044 -0.099904425 97 14
-0.31400725 -0.33317348 -0.14628239 92 12
-0.27206287 -0.37544209 -0.17340523 97 11
-0.31414902 -0.33139199 -0.22395189 97 9
-0.27113351 -0.3747645 -0.2008822 98 10
-0.32193539 -0.33842084 -0.26122656 97 8
-0.26774505 -0.37319851 -0.28725341 96 7
-0.31836176 -0.33276513 -0.32412949 24 6
-0.26806954 -0.37661457 -0.36182943 37 5
-0.2344643 -0.2441244 -0.2902236 6 4
-0.20452833 -0.28864482 -0.33841434 5 3
-0.25478318 -0.26277697 -0.39115664 5 2
-0.19938377 -0.28390861 -0.40966883 4 1
-0.20494315 -0.21093167 -0.36476967 4 0
-0.26694852 -0.36571223 0.11150169 96 31
-0.31297487 -0.33201832 0.09751197 87 30
-0.26978767 -0.36900723 0.08145842 97 29
-0.31526491 -0.33463013 0.066451311 86 28
-0.27425456 -0.37453714 0.052408788 97 27
-0.31062883 -0.32973894 0.039963342 89 26
-0.27856562 -0.38022035 0.030366112 94 25
-0.31679633 -0.33621347 0.019914413 86 24
-0.27630928 -0.37683916 0.010038668 95 23
-0.30855787 -0.32743919 0 86 22
-0.27350476 -0.37269711 -0.0099226134 94 21
-0.31519181 -0.33429411 -0.019797955 85 20
-0.27151272 -0.36994189 -0.02935051 95 19
-0.31622374 -0.33503708 -0.038225256 87 18
-0.27778828 -0.37857863 -0.049754001 94 17
-0.32154635 -0.34039435 -0.060207624 89 16
-0.26973599 -0.36772332 -0.07342618 97 15
-0.31319577 -0.33077779 -0.12037113 94 13
-0.27852425 -0.37995052 -0.099904425 98 14
-0.3134757 -0.33042452 -0.14546517 93 12
-0.27472776 -0.37636963 -0.17434256 98 11
-0.31836978 -0.33347157 -0.22629693 97 9
-0.2750189 -0.37753624 -0.20300794 97 10
-0.32609099 -0.34036952 -0.26381296 97 8
-0.27018341 -0.37399414 -0.28865466 96 7
-0.3153578 -0.32737777 -0.31958562 25 6
-0.27268872 -0.38034946 -0.36667538 35 5
-0.2378483 -0.24588233 -0.29367864 6 4
-0.20159899 -0.28231263 -0.33113661 5 3
-0.2522867 -0.25844511 -0.38543239 5 2
-0.19864696 -0.28072101 -0.40569144 4 1
-0.20670131 -0.2112399 -0.36680749 4 0
-0.26538318 -0.3608703 0.11021265 96 31
-0.31581745 -0.33268204 0.098075621 88 30
-0.27396396 -0.37203208 0.082405612 97 29
-0.31301379 -0.32996035 0.065678626 87 28
-0.27702272 -0.37558237 0.052711729 96 27
-0.31177792 -0.32865265 0.039963342 86 26
-0.27842066 -0.3772313 0.030192589 95 25
-0.32142311 -0.3387123 0.020147331 88 24
-0.27916333 -0.3778418 0.010096695 95 23
-0.30623949 -0.32275015 0 87 22
-0.27332902 -0.36972255 -0.0098645873 95 21
-0.31641495 -0.33313662 -0.019797955 85 20
-0.27574626 -0.37301865 -0.029695811 94 19
-0.32083946 -0.33752438 -0.038672339 89 18
-0.27770776 -0.37555313 -0.049469694 95 17
-0.32273254 -0.33926985 -0.060207624 89 16
-0.27544153 -0.37269756 -0.074714363 96 15
-0.30940345 -0.3244347 -0.11830761 93 13
-0.27841166 -0.37700799 -0.099346302 98 14
-0.31632558 -0.33097318 -0.14628239 93 12
-0.27474248 -0.37348565 -0.17340523 98 11
-0.3179934 -0.33077452 -0.2251244 96 9
-0.27374324 -0.37286255 -0.2008822 97 10
-0.32733631 -0.33917204 -0.26381296 97 8
-0.27155235 -0.37300134 -0.28865466 95 7
-0.31794867 -0.32763934 -0.32110026 23 6
-0.27297318 -0.37779385 -0.36506006 31 5
-0.23620521 -0.24244034 -0.2902236 6 4
-0.20065424 -0.2787708 -0.32749775 6 3
-0.2554701 -0.25984886 -0.38924855 4 2
-0.19880664 -0.27874932 -0.40370277 5 1
-0.21158172 -0.2145656 -0.37495875 3 0
-0.26955861 -0.36379263 0.11150169 96 31
-0.31703469 -0.33152226 0.098075621 87 30
-0.26951689 -0.36310905 0.080511227 97 29
-0.31765136 -0.3323656 0.066451311 88 28
-0.27692765 -0.37256506 0.052408788 96 27
-0.31643668 -0.33108932 0.040439095 86 26
-0.2798014 -0.37620834 0.030192589 95 25
-0.32439652 -0.33932897 0.020263789 87 24
-0.27899876 -0.3748523 0.010038668 95 23
-0.31262937 -0.32702148 0 87 22
-0.27468225 -0.36871827 -0.0098645873 95 21
-0.3210454 -0.33562288 -0.020030871 89 20
-0.27563226 -0.3699975 -0.02952316 95 19
-0.32553563 -0.33992666 -0.039119419 91 18
-0.27754372 -0.37258181 -0.049185388 95 17
-0.32397389 -0.33808473 -0.060207624 89 16
-0.27090031 -0.36380038 -0.072996788 97 15
-0.31555471 -0.32852817 -0.12037113 91 13
-0.28123599 -0.37794772 -0.099904425 98 14
-0.31418523 -0.32647878 -0.14464796 93 12
-0.27604452 -0.37252432 -0.17340523 97 11
-0.31765929 -0.32802865 -0.22395189 97 9
-0.2750431 -0.3719047 -0.2008822 95 10
-0.32851824 -0.33802733 -0.26381296 97 8
-0.27285272 -0.37205115 -0.28865466 96 7
-0.31909043 -0.32652748 -0.32110026 21 6
-0.27540344 -0.3783884 -0.36667538 34 5
-0.23705004 -0.24161437 -0.2902236 6 4
-0.20460793 -0.28225982 -0.33295602 5 3
-0.25642079 -0.25891078 -0.38924855 4 2
-0.20413943 -0.28424722 -0.41364619 4 1
-0.21232942 -0.21382572 -0.37495875 3 0
-0.27226093 -0.36479318 0.11214621 96 31
-0.31649196 -0.32866746 0.09751197 85 30
-0.27516004 -0.36808813 0.081932023 97 29
-0.31536686 -0.32771203 0.065678626 87 28
-0.27379605 -0.36561319 0.051499963 97 27
-0.31238735 -0.3246285 0.039725464 86 26
-0.28111291 -0.37522936 0.030192589 94 25
-0.32557902 -0.33819452 0.020263789 87 24
-0.28030556 -0.37387612 0.010038668 95 23
-0.31202641 -0.32413563 0 89 22
-0.27596763 -0.36775717 -0.0098645873 94 21
-0.32221499 -0.33450019 -0.020030871 85 20
-0.27692214 -0.36903313 -0.02952316 95 19
-0.32324648 -0.33521986 -0.038672339 88 18
-0.27588218 -0.3676216 -0.048616767 96 17
-0.32342416 -0.33517805 -0.059863579 93 16
-0.27656966 -0.36878726 -0.074284971 96 15
-0.31334046 -0.32398608 -0.11899546 94 13
-0.27965111 -0.37304839 -0.098788179 97 14
-0.31697574 -0.32706842 -0.14546517 92 12
-0.27871916 -0.37342346 -0.17434256 98 11
-0.31880242 -0.32691783 -0.22395189 97 9
-0.27768117 -0.37276462 -0.20194507 97 10
-0.33120057 -0.33839986 -0.26510617 96 8
-0.27292958 -0.36942384 -0.28725341 96 7
nan nan nan 0 6
-0.27560404 -0.37587893 -0.36506006 31 5
-0.24045256 -0.24333619 -0.29367864 6 4
-0.20559196 -0.28154391 -0.33295602 5 3
-0.25617343 -0.25687933 -0.38734049 5 2
-0.20250084 -0.2798259 -0.40768012 4 1
-0.21307451 -0.21308328 -0.37495875 4 0
-0.27065089 -0.35996318 0.11085717 98 31
-0.31763729 -0.32756069 0.09751197 87 30
-0.27351126 -0.36318755 0.080984823 97 29
-0.31650889 -0.32660919 0.065678626 88 28
-0.27655435 -0.36664438 0.051802903 97 27
-0.31868297 -0.32892776 0.040439095 87 26
-0.27645355 -0.3662515 0.029498506 96 25
-0.3285042 -0.33884081 0.020380249 87 24
-0.28160894 -0.37289539 0.010038668 95 23
-0.31315595 -0.32304448 0 86 22
-0.27718568 -0.36683998 -0.0098645873 95 21
-0.31988615 -0.32980493 -0.019797955 86 20
-0.27671534 -0.36606663 -0.02935051 95 19
-0.32087076 -0.33058926 -0.038225256 88 18
-0.28013808 -0.37063509 -0.049185388 94 17
-0.32453388 -0.3341037 -0.059863579 90 16
-0.27785528 -0.36781961 -0.074284971 96 15
-0.31615502 -0.32460377 -0.11968329 91 13
-0.28380206 -0.37602466 -0.099904425 98 14
-0.31977412 -0.32764253 -0.14628239 95 12
-0.27719161 -0.36877632 -0.1724679 97 11
-0.31988472 -0.32585886 -0.22395189 97 9
-0.28032851 -0.37361062 -0.20300794 96 10
-0.33383039 -0.33881602 -0.26639935 97 8
-0.27421746 -0.36846885 -0.28725341 96 7
nan nan nan 0 6
-0.27572525 -0.37342083 -0.36344475 30 5
-0.24511164 -0.24635082 -0.29886121 6 4
-0.21053818 -0.28642163 -0.34023377 5 3
-0.26163709 -0.26055232 -0.3949728 4 2
-0.20342767 -0.27915287 -0.40768012 4 1
-0.21792933 -0.21641767 -0.38311005 4 0
-0.2732904 -0.36099765 0.11150169 98 31
-0.31701183 -0.32477105 0.096948311 87 30
-0.27913162 -0.36817068 0.082405612 96 29
-0.3193236 -0.32731739 0.066064969 88 28
-0.279259 -0.36770946 0.052105844 97 27
-0.3198292 -0.32781333 0.040439095 86 26
-0.28066349 -0.36931998 0.029845547 96 25
-0.32086328 -0.32885435 0.019797955 89 24
-0.28290886 -0.37191013 0.010038668 95 23
-0.31598023 -0.32378492 0 87 22
-0.27996758 -0.36786705 -0.0099226134 94 21
-0.32629585 -0.33402073 -0.020147331 88 20
-0.27942765 -0.36713964 -0.02952316 95 19
-0.32726973 -0.33478418 -0.038895879 90 18
-0.28292421 -0.37163913 -0.049469694 95 17
-0.32743803 -0.33473074 -0.060207624 92 16
-0.27321428 -0.35897565 -0.072567396 96 15
-0.31897765 -0.32520574 -0.12037113 93 13
-0.28511292 -0.37503174 -0.099904425 98 14
-0.31925133 -0.32484758 -0.14546517 93 12
-0.27715242 -0.36590257 -0.17153057 97 11
-0.3241412 -0.32786444 -0.22629693 96 9
-0.28027675 -0.37081698 -0.20194507 97 10
-0.32900998 -0.33154708 -0.26122656 94 8
-0.27550197 -0.36750942 -0.28725341 95 7
-0.31966671 -0.32036811 -0.31807101 14 6
-0.2782214 -0.37394571 -0.36506006 29 5
-0.24214549 -0.24165159 -0.29367864 6 4
-0.2095695 -0.28287488 -0.33659488 5 3
-0.25675875 -0.25400275 -0.38543239 5 2
-0.20621969 -0.28086442 -0.41165751 4 1
-0.2208032 -0.21763094 -0.38718569 4 0
-0.27461168 -0.35999355 0.11150169 98 31
-0.32163253 -0.32706347 0.098075621 87 30
-0.27456039 -0.3593106 0.080511227 97 29
-0.31878132 -0.3243916 0.065678626 87 28
-0.27910727 -0.36470473 0.051802903 97 27
-0.32278156 -0.32840535 0.04067697 85 26
-0.28201526 -0.36828879 0.029845547 95 25
-0.32558453 -0.33122134 0.020030871 86 24
-0.28420535 -0.37092036 0.010038668 95 23
-0.31364229 -0.31907618 0 87 22
-0.2798036 -0.36484712 -0.0098645873 95 21
-0.32921949 -0.33465171 -0.020263789 89 20
-0.27926421 -0.36412591 -0.02935051 96 19
-0.33200547 -0.33711424 -0.039342958 90 18
-0.28271875 -0.36867034 -0.049185388 95 17
-0.32691634 -0.33177286 -0.059863579 88 16
-0.27595332 -0.35998255 -0.072996788 96 15
-0.31841344 -0.32238871 -0.11968329 91 13
-0.28354225 -0.37009951 -0.098788179 97 14
-0.32038334 -0.32373121 -0.14546517 93 12
-0.27982342 -0.36678338 -0.1724679 96 11
-0.32377452 -0.32511786 -0.2251244 96 9
-0.28020892 -0.36802825 -0.2008822 97 10
-0.33320582 -0.33340758 -0.26381296 96 8
-0.2780208 -0.36820531 -0.28865466 94 7
-0.31653011 -0.31506515 -0.31352714 13 6
-0.28179443 -0.37604031 -0.36829069 25 5
-0.24686819 -0.24459055 -0.29886121 6 4
-0.21562238 -0.28905684 -0.34569207 5 3
-0.26001072 -0.25530535 -0.38924855 5 2
-0.20808825 -0.28136927 -0.41364619 4 1
-0.22051695 -0.21585578 -0.38514787 3 0
-0.27732769 -0.36095625 0.11214621 98 31
-0.32104999 -0.32421649 0.09751197 85 30
-0.27729946 -0.36030346 0.080984823 97 29
-0.32165763 -0.32502404 0.066064969 88 28
-0.28037864 -0.36372826 0.051802903 97 27
-0.31864852 -0.32199562 0.039963342 86 26
-0.28481179 -0.36928499 0.030019069 94 25
-0.33203444 -0.33538225 0.020380249 87 24
-0.28549835 -0.36992601 0.010038668 95 23
-0.31652161 -0.31974751 0 87 22
-0.27955812 -0.36188218 -0.0098065604 95 21
-0.32508808 -0.32820287 -0.019914413 86 20
-0.28053352 -0.3631489 -0.02935051 95 19
-0.32965699 -0.33243373 -0.038895879 89 18
-0.28701973 -0.37162858 -0.049754001 95 17
-0.3245675 -0.32713082 -0.059175488 89 16
-0.28019726 -0.36293224 -0.073855579 96 15
-0.32124028 -0.32297096 -0.12037113 93 13
-0.28631085 -0.37104473 -0.099346302 98 14
-0.32486379 -0.32594109 -0.14709961 95 12
-0.2825039 -0.36764994 -0.17340523 97 11
-0.32490742 -0.32398573 -0.2251244 97 9
-0.28012502 -0.3652446 -0.19981933 97 10
-0.32368904 -0.32174131 -0.25476056 96 8
-0.27681756 -0.3639217 -0.28585219 95 7
-0.32331797 -0.31951874 -0.31958562 13 6
-0.27626503 -0.36587405 -0.35859883 25 5
-0.24512456 -0.24121258 -0.29540616 6 4
-0.21255738 -0.28278443 -0.33841434 5 3
-0.26556146 -0.25887072 -0.39688087 5 2
-0.20817544 -0.2794179 -0.41165751 4 1
-0.22336519 -0.21708359 -0.38922352 3 0
-0.28152153 -0.36382279 0.11343525 98 31
-0.32217979 -0.32309386 0.09751197 90 30
-0.28004879 -0.36128157 0.08145842 97 29
-0.32454222 -0.32564032 0.066451311 87 28
-0.28618073 -0.36865205 0.052711729 97 27
-0.32330111 -0.32438976 0.040439095 86 26
-0.28457952 -0.36631101 0.029845547 95 25
-0.33320311 -0.33422118 0.020380249 87 24
-0.28526431 -0.36694592 0.0099806404 95 23
-0.3176358 -0.31864068 0 86 22
-0.28386813 -0.36486557 -0.0099226134 95 21
-0.3315478 -0.33234516 -0.020263789 88 20
-0.28332049 -0.36414397 -0.02952316 95 19
-0.32904765 -0.32952738 -0.038672339 89 18
-0.28983 -0.37259284 -0.050038312 95 17
-0.33098313 -0.33122578 -0.060207624 89 16
-0.28146243 -0.36195195 -0.073855579 96 15
-0.32065636 -0.32015792 -0.11968329 94 13
-0.28908944 -0.37197506 -0.099904425 97 14
-0.32095358 -0.31982738 -0.14464796 91 12
-0.27956054 -0.3611396 -0.17059325 97 11
-0.32288232 -0.3197588 -0.22277936 96 9
-0.28414446 -0.36786166 -0.20194507 97 10
-0.33399457 -0.32957843 -0.26251978 93 8
-0.27808619 -0.36295319 -0.28585219 95 7
-0.32585871 -0.31977335 -0.32110026 9 6
-0.28097665 -0.36948568 -0.36344475 22 5
-0.24856974 -0.24286114 -0.29886121 6 4
-0.21661213 -0.28616858 -0.34387264 5 3
-0.26529428 -0.25682759 -0.3949728 5 2
-0.2082516 -0.27746934 -0.40966883 4 1
-0.22307009 -0.21530682 -0.38718569 3 0
-0.27984089 -0.35901138 0.11214621 98 31
-0.32330561 -0.32196727 0.09751197 87 30
-0.2813082 -0.36030179 0.08145842 97 29
-0.32567695 -0.32450545 0.066451311 88 28
-0.28594753 -0.36568791 0.052408788 97 27
-0.32620284 -0.32500726 0.04067697 87 26
-0.28585646 -0.36531538 0.029845547 95 25
-0.33081272 -0.32954785 0.020147331 87 24
-0.28654349 -0.36594793 0.0099806404 96 23
-0.32052591 -0.31928566 0 89 22
-0.28360885 -0.36189708 -0.0098645873 95 21
-0.32914957 -0.32767883 -0.020030871 84 20
-0.28458986 -0.36315277 -0.02952316 95 19
-0.3301959 -0.3283768 -0.038672339 91 18
-0.28808552 -0.36765268 -0.049469694 96 17
-0.33037266 -0.32833123 -0.059863579 89 16
-0.28121603 -0.35902017 -0.07342618 96 15
-0.32691753 -0.32408792 -0.12174679 94 13
-0.29038614 -0.37096372 -0.099904425 98 14
-0.3237558 -0.32035846 -0.14546517 91 12
-0.28506368 -0.36566874 -0.17340523 96 11
-0.32716134 -0.32170954 -0.2251244 96 9
-0.28404745 -0.3650738 -0.2008822 98 10
-0.32439139 -0.31798425 -0.25346735 94 8
-0.27935144 -0.36198029 -0.28585219 95 7
-0.32983726 -0.32139418 -0.32412949 7 6
-0.28456607 -0.37154678 -0.36667538 23 5
-0.25202939 -0.24448855 -0.30231625 6 4
-0.21452641 -0.28129363 -0.33841434 5 3
-0.26853529 -0.25812095 -0.39878896 5 2
-0.21282765 -0.28160882 -0.41762355 4 1
-0.22804026 -0.21849522 -0.39533696 4 0
-0.28109235 -0.35803238 0.11214621 96 31
-0.32442752 -0.32083678 0.09751197 86 30
-0.28557795 -0.36319324 0.082405612 97 29
-0.32680768 -0.32336664 0.066451311 88 28
-0.28874737 -0.36664516 0.052711729 97 27
-0.32378039 -0.32038295 0.040201217 88 26
-0.29019666 -0.36824912 0.030192589 95 25
-0.33731192 -0.33363473 0.020496707 91 24
-0.2862817 -0.36297488 0.0099226134 95 23
-0.32163846 -0.31816486 0 87 22
-0.28640842 -0.3628749 -0.0099226134 94 21
-0.33207563 -0.32827517 -0.020147331 87 20
-0.28432095 -0.36019126 -0.02935051 95 19
-0.33490002 -0.33070463 -0.039119419 91 18
-0.29242411 -0.37056035 -0.050038312 95 17
-0.32797536 -0.32371408 -0.059175488 90 16
-0.28095257 -0.35609454 -0.072996788 97 15
-0.32632577 -0.32126701 -0.12105896 94 13
-0.29018062 -0.3680262 -0.099346302 98 14
-0.32487211 -0.31922641 -0.14546517 94 12
-0.28775951 -0.36650229 -0.17434256 96 11
-0.33145779 -0.32363427 -0.22746944 97 9
-0.28809133 -0.36765793 -0.20300794 97 10
-0.33166391 -0.32278639 -0.25864017 94 8
-0.28187394 -0.3626453 -0.28725341 95 7
nan nan nan 0 6
-0.28470528 -0.36903316 -0.36506006 21 5
-0.25157022 -0.2423636 -0.30058873 6 4
-0.21550699 -0.28054306 -0.33841434 5 3
-0.26825774 -0.25607562 -0.39688087 4 2
-0.21380936 -0.28086421 -0.41762355 4 1
-0.2256262 -0.21473265 -0.38922352 4 0
-0.28531596 -0.3608548 0.11343525 97 31
-0.32379931 -0.31800431 0.096948311 85 30
-0.28230307 -0.35639665 0.080984823 97 29
-0.32970464 -0.32394651 0.066837661 88 28
-0.28542972 -0.35977808 0.051802903 97 27
-0.32127458 -0.31583562 0.039725464 88 26
-0.28531936 -0.35938781 0.029498506 96 25
-0.33131558 -0.32548866 0.020030871 86 24
-0.2906355 -0.36590376 0.010038668 96 23
-0.3245391 -0.31878343 0 86 22
-0.28606561 -0.35995826 -0.0098645873 94 21
-0.32784849 -0.32189095 -0.019797955 90 20
-0.28865981 -0.36311764 -0.029695811 95 19
-0.33778054 -0.33132756 -0.039342958 89 18
-0.29064518 -0.36563253 -0.049469694 96 17
-0.33259988 -0.3260749 -0.059863579 92 16
-0.28371558 -0.35704818 -0.07342618 96 15
-0.3291721 -0.32179773 -0.12174679 93 13
-0.29139945 -0.36706188 -0.099346302 98 14
-0.32768369 -0.31973195 -0.14628239 92 12
-0.28611889 -0.36189386 -0.1724679 96 11
-0.33093634 -0.32100424 -0.22629693 96 9
-0.28519729 -0.36129779 -0.19981933 95 10
-0.32964039 -0.31872678 -0.25605375 90 8
-0.28187174 -0.36002126 -0.28585219 95 7
nan nan nan 0 6
-0.28708851 -0.36960119 -0.36667538 21 5
-0.25500289 -0.24400677 -0.30404377 6 4
-0.21436194 -0.27709624 -0.33477545 5 3
-0.27146664 -0.25738958 -0.40069702 4 2
-0.21473956 -0.28015363 -0.41762355 4 1
-0.22633703 -0.21398328 -0.38922352 4 0
-0.28352287 -0.35611075 0.11214621 98 31
-0.32835561 -0.32031327 0.098075621 88 30
-0.28652346 -0.35931349 0.081932023 97 29
-0.32900119 -0.32113466 0.066451311 87 28
-0.28815958 -0.36077678 0.052105844 97 27
-0.33132151 -0.32336074 0.040914848 87 26
-0.28960302 -0.36235246 0.029845547 95 25
-0.33418858 -0.32612389 0.020147331 85 24
-0.28874579 -0.36101782 0.0099226134 95 23
-0.32199892 -0.31423092 0 87 22
-0.28576896 -0.356998 -0.0098065604 95 21
-0.33430243 -0.32600725 -0.020147331 90 20
-0.28831425 -0.360203 -0.02952316 95 19
-0.33176804 -0.32323018 -0.038448796 88 18
-0.29493964 -0.36856133 -0.050038312 94 17
-0.33195364 -0.32319304 -0.059519537 89 16
-0.28795427 -0.3599683 -0.074284971 96 15
-0.32677257 -0.31737241 -0.12037113 92 13
-0.29267895 -0.36604249 -0.099346302 98 14
-0.32703745 -0.31700769 -0.14546517 92 12
-0.29168111 -0.36635616 -0.17527989 96 11
-0.33525118 -0.3228941 -0.22864197 96 9
-0.28918946 -0.36390901 -0.20194507 97 10
-0.33540457 -0.32199496 -0.25993338 97 8
-0.27797678 -0.35254967 -0.28024724 95 7
nan nan nan 0 6
-0.28721058 -0.36708668 -0.36506006 21 5
-0.24925561 -0.23694134 -0.29540616 6 4
-0.21532787 -0.2763463 -0.33477545 5 3
-0.27236342 -0.2564404 -0.40069702 4 2
-0.21297212 -0.27577934 -0.41165751 4 1
-0.22708258 -0.2131919 -0.38922352 4 0
-0.2862649 -0.35701165 0.11279073 97 31
-0.32771406 -0.31747907 0.09751197 87 30
-0.28624919 -0.35638896 0.08145842 98 29
-0.32477468 -0.31485277 0.065292276 89 28
-0.29096234 -0.36171061 0.052408788 97 27
-0.32526699 -0.31530845 0.039963342 87 26
-0.29086611 -0.36133939 0.029845547 95 25
-0.33532494 -0.3249554 0.020147331 88 24
-0.29318288 -0.36386585 0.010038668 95 23
-0.32670143 -0.316567 0 89 22
-0.29012987 -0.35990644 -0.0099226134 93 21
-0.33008772 -0.31959432 -0.019797955 88 20
-0.28801489 -0.35724446 -0.02935051 95 19
-0.33289427 -0.32207015 -0.038448796 88 18
-0.29164177 -0.36165285 -0.049185388 95 17
-0.33665663 -0.32545763 -0.060207624 90 16
-0.28927165 -0.3589105 -0.074284971 96 15
-0.33141065 -0.31949183 -0.12174679 94 13
-0.29395491 -0.36501864 -0.099346302 98 14
-0.32819715 -0.31580687 -0.14546517 92 12
-0.28870121 -0.3598372 -0.1724679 96 11
-0.33156586 -0.31716821 -0.2251244 96 9
-0.28771269 -0.35929799 -0.19981933 96 10
-0.33035612 -0.31489193 -0.25476056 89 8
-0.28437826 -0.35804465 -0.28585219 96 7
nan nan nan 0 6
-0.28972596 -0.36753738 -0.36667538 20 5
-0.25012237 -0.23602618 -0.29540616 6 4
-0.21529247 -0.27419734 -0.33295602 5 3
-0.27325693 -0.25548813 -0.40069702 4 2
-0.21673879 -0.27860984 -0.41762355 4 1
-0.22358747 -0.20844908 -0.38107225 4 0
-0.28455624 -0.35218558 0.11150169 98 31
-0.32534787 -0.31291646 0.096384659 87 30
-0.2890873 -0.357254 0.081932023 98 29
-0.33129075 -0.31877217 0.066451311 88 28
-0.29383841 -0.36257789 0.052711729 96 27
-0.3282221 -0.31583104 0.040201217 86 26
-0.29218853 -0.36027089 0.029845547 95 25
-0.33470583 -0.32200134 0.020030871 88 24
-0.2928865 -0.36089128 0.0099806404 95 23
-0.32966965 -0.31709179 0 86 22
-0.29144704 -0.35884067 -0.0099226134 95 21
-0.33843517 -0.32532889 -0.020263789 89 20
-0.28932229 -0.35618642 -0.02935051 95 19
-0.33226842 -0.31913167 -0.038225256 88 18
-0.29445809 -0.36256891 -0.049469694 96 17
-0.33784723 -0.32422152 -0.060207624 89 16
-0.29206464 -0.35981899 -0.074714363 98 15
-0.32554662 -0.31171885 -0.11899546 91 13
-0.29986674 -0.36964029 -0.10102068 98 14
-0.32929751 -0.31465936 -0.14546517 92 12
-0.28995553 -0.35882723 -0.1724679 97 11
-0.33755314 -0.32048684 -0.22864197 97 9
-0.29178607 -0.36183032 -0.20194507 97 10
-0.3377001 -0.3195866 -0.25993338 96 8
-0.28562632 -0.35704982 -0.28585219 94 7
nan nan nan 0 6
-0.29100713 -0.3665238 -0.36667538 16 5
-0.25227302 -0.23637694 -0.29713365 6 4
-0.22150612 -0.2802152 -0.3420532 5 3
-0.2741915 -0.25448486 -0.40069702 4 2
-0.21863329 -0.27905267 -0.41961223 4 1
-0.2275302 -0.21058795 -0.38718569 3 0
-0.28729805 -0.35307211 0.11214621 98 31
-0.33351681 -0.31847286 0.098639272 90 30
-0.2887921 -0.35433149 0.08145842 98 29
-0.33240145 -0.31761384 0.066451311 89 28
-0.29354322 -0.35961926 0.052408788 97 27
-0.33113015 -0.31639397 0.040439095 86 26
-0.29187685 -0.35730892 0.029672027 96 25
-0.33764169 -0.32254755 0.020147331 85 24
-0.29571599 -0.36181021 0.010038668 95 23
-0.32714221 -0.31250304 0 86 22
-0.29112566 -0.35587823 -0.0098645873 95 21
-0.33593976 -0.32071379 -0.020030871 89 20
-0.29370162 -0.35905188 -0.029695811 95 19
-0.34062058 -0.32480946 -0.039119419 90 18
-0.29572189 -0.36153883 -0.049469694 95 17
-0.33897689 -0.32304025 -0.060207624 89 16
-0.28712448 -0.35113701 -0.072996788 97 15
-0.33538312 -0.31881782 -0.12243462 94 13
-0.29349551 -0.35911545 -0.098230049 97 14
-0.33211589 -0.31512561 -0.14628239 91 12
-0.29411203 -0.36142436 -0.17434256 96 11
-0.33382693 -0.31478742 -0.2251244 96 9
-0.29163069 -0.35904509 -0.2008822 97 10
-0.33097962 -0.31112096 -0.25346735 92 8
-0.28687096 -0.35605061 -0.28585219 93 7
nan nan nan 0 6
nan nan nan 0 5
-0.25442916 -0.23671556 -0.29886121 6 4
-0.22248289 -0.27944031 -0.3420532 5 3
-0.27507812 -0.25352621 -0.40069702 4 2
-0.2158961 -0.27349636 -0.41165751 4 1
-0.22181061 -0.20397373 -0.37495875 4 0
-0.29004952 -0.35394374 0.11279073 98 31
-0.33285096 -0.31563941 0.098075621 87 30
-0.28848007 -0.35141549 0.080984823 98 29
-0.3335081 -0.31645158 0.066451311 87 28
-0.29479674 -0.35859242 0.052408788 97 27
-0.33580405 -0.31870326 0.040914848 88 26
-0.29469657 -0.35822225 0.029845547 96 25
-0.3387655 -0.321367 0.020147331 86 24
-0.29697713 -0.36077577 0.010038668 95 23
-0.32823104 -0.3113592 0 86 22
-0.29388279 -0.35684857 -0.0099226134 95 21
-0.33523679 -0.31782967 -0.019914413 85 20
-0.29180187 -0.35415792 -0.02935051 95 19
-0.3380644 -0.32027039 -0.038672339 92 18
-0.29541296 -0.35857904 -0.049185388 96 17
-0.3436588 -0.32530203 -0.060895711 90 16
-0.28990373 -0.35204232 -0.07342618 97 15
-0.32947069 -0.31107983 -0.11968329 91 13
-0.29468474 -0.3581402 -0.098230049 98 14
-0.33666918 -0.31718764 -0.14791682 94 12
-0.28801471 -0.35144264 -0.16965592 97 11
-0.334869 -0.31367868 -0.2251244 96 9
-0.29145941 -0.3562654 -0.19981933 95 10
-0.338296 -0.3158288 -0.25864017 92 8
-0.2842277 -0.35020033 -0.28164849 95 7
nan nan nan 0 6
nan nan nan 0 5
-0.25788596 -0.23830295 -0.30231625 6 4
-0.22022603 -0.2746599 -0.33659488 5 3
-0.27351803 -0.25044924 -0.39688087 4 2
-0.21680185 -0.27277893 -0.41165751 4 1
-0.22464329 -0.20516947 -0.37903443 4 0
-0.29122165 -0.35297996 0.11279073 98 31
-0.33389583 -0.31453392 0.098075621 89 30
-0.29119721 -0.35235757 0.08145842 98 29
-0.33094457 -0.31197298 0.065678626 86 28
-0.29441214 -0.35569274 0.052105844 97 27
-0.33145687 -0.31243452 0.040201217 88 26
-0.29746348 -0.35917217 0.030019069 95 25
-0.34165484 -0.32194594 0.020263789 88 24
-0.29658714 -0.35785624 0.0099806404 95 23
-0.33108953 -0.31197464 0 86 22
-0.29354125 -0.35388842 -0.0098645873 95 21
-0.33446279 -0.31501278 -0.019797955 85 20
-0.29297471 -0.35318831 -0.02935051 96 19
-0.34100196 -0.32078588 -0.038895879 92 18
-0.29502487 -0.35567728 -0.048901074 96 17
-0.3411679 -0.32072547 -0.060207624 88 16
-0.29106954 -0.35107902 -0.07342618 96 15
-0.33402294 -0.31325656 -0.12105896 94 13
-0.2974779 -0.3589941 -0.098788179 98 14
-0.32905424 -0.30804002 -0.14383073 91 12
-0.29510018 -0.35761824 -0.17340523 97 11
-0.3375864 -0.31400323 -0.22629693 96 9
-0.29549649 -0.35880655 -0.20194507 97 10
-0.33624303 -0.31175342 -0.25605375 89 8
-0.28668758 -0.35086715 -0.2830497 95 7
nan nan nan 0 6
nan nan nan 0 5
-0.25737536 -0.23618977 -0.30058873 6 4
-0.22544527 -0.27926275 -0.34387264 5 3
-0.28161114 -0.25595796 -0.40832934 4 2
-0.21962394 -0.27440351 -0.41563487 4 1
-0.22102961 -0.20053428 -0.37088314 4 0
-0.28785145 -0.34636247 0.11085717 98 31
-0.33677852 -0.31502163 0.098639272 88 30
-0.29398552 -0.35323417 0.081932023 97 29
-0.33746582 -0.3158533 0.066837661 88 28
-0.29723075 -0.35657752 0.052408788 96 27
-0.33437058 -0.31296745 0.040439095 85 26
-0.29871544 -0.35813162 0.030019069 96 25
-0.34094512 -0.31905365 0.020147331 86 24
-0.2978968 -0.35676682 0.0099806404 96 23
-0.33401027 -0.3125163 0 86 22
-0.29159054 -0.34900841 -0.0097485334 96 21
-0.34294444 -0.32057187 -0.020263789 90 20
-0.29420578 -0.35216349 -0.02935051 95 19
-0.34211963 -0.31959361 -0.038895879 87 18
-0.29949164 -0.35842228 -0.049469694 95 17
-0.34046733 -0.31785142 -0.059863579 88 16
-0.29235438 -0.3500098 -0.07342618 97 15
-0.33693609 -0.31365925 -0.12174679 92 13
-0.29872921 -0.35795349 -0.098788179 98 14
-0.33365875 -0.310031 -0.14546517 91 12
-0.29788065 -0.35832465 -0.17434256 97 11
-0.33868042 -0.31282291 -0.22629693 96 9
-0.29824466 -0.35947061 -0.20300794 96 10
-0.33896536 -0.31195948 -0.25734696 92 8
-0.2905837 -0.35302705 -0.28585219 95 7
nan nan nan 0 6
nan nan nan 0 5
-0.26092988 -0.23765808 -0.30404377 6 4
-0.22753769 -0.27977395 -0.34569207 5 3
-0.27525982 -0.24853364 -0.39688087 4 2
-0.21874827 -0.27122056 -0.41165751 4 1
-0.22719136 -0.2045152 -0.38107225 4 0
-0.29065937 -0.34716573 0.11150169 97 31
-0.33793089 -0.31378517 0.098639272 90 30
-0.29371116 -0.35026482 0.08145842 97 29
-0.33316851 -0.30959684 0.065678626 88 28
-0.29694983 -0.35357693 0.052105844 97 27
-0.33368412 -0.31005469 0.040201217 86 26
-0.30002603 -0.35703436 0.030019069 95 25
-0.34578753 -0.32118392 0.020380249 86 24
-0.30073881 -0.35764611 0.010038668 95 23
-0.3369934 -0.3129825 0 87 22
-0.2976653 -0.35369956 -0.0099226134 94 21
-0.34222317 -0.31768245 -0.020147331 90 20
-0.29868615 -0.35491621 -0.029695811 95 19
-0.34328869 -0.31833756 -0.038895879 90 18
-0.29915172 -0.35546589 -0.049185388 96 17
-0.34345421 -0.31827593 -0.060207624 90 16
-0.29829985 -0.35466701 -0.074714363 98 15
-0.33271015 -0.30761266 -0.11968329 92 13
-0.30315566 -0.36060339 -0.099904425 98 14
-0.33648336 -0.31045783 -0.14628239 92 12
-0.29617375 -0.35371214 -0.1724679 98 11
-0.343095 -0.31454691 -0.22864197 96 9
-0.29517418 -0.35319376 -0.19981933 95 10
-0.34322622 -0.31364426 -0.25993338 92 8
-0.28787932 -0.34720474 -0.28164849 93 7
-0.21361847 -0.19536598 -0.19387186 3 6
nan nan nan 0 5
-0.25770944 -0.2331401 -0.29886121 6 4
-0.22636282 -0.27630669 -0.3420532 5 3
-0.2785911 -0.24966082 -0.40069702 4 2
-0.2206378 -0.27164012 -0.41364619 4 1
-0.22572587 -0.20181152 -0.37699658 4 0
-0.29341626 -0.34800428 0.11214621 98 31
-0.33542696 -0.30931896 0.09751197 85 30
-0.29493207 -0.34923744 0.08145842 98 29
-0.33971736 -0.3134304 0.066837661 87 28
-0.29658979 -0.35063502 0.051802903 97 27
-0.34027588 -0.31392428 0.040914848 86 26
-0.30127048 -0.35598493 0.030019069 95 25
-0.34690657 -0.3199749 0.020380249 87 24
-0.29877499 -0.35276267 0.0099226134 95 23
-0.336238 -0.31011817 0 86 22
-0.29568639 -0.34882808 -0.0098065604 94 21
-0.34517413 -0.31816989 -0.020263789 89 20
-0.29351333 -0.34622705 -0.029005211 96 19
-0.34623742 -0.31881532 -0.039119419 89 18
-0.30198658 -0.35632271 -0.049469694 95 17
-0.34273309 -0.31540698 -0.059863579 89 16
-0.2963725 -0.34984803 -0.073855579 96 15
-0.33911762 -0.31129938 -0.12174679 94 13
-0.30284777 -0.35767484 -0.099346302 98 14
-0.33581504 -0.30769405 -0.14546517 93 12
-0.2944383 -0.34911603 -0.17059325 97 11
-0.34255058 -0.31186938 -0.22746944 96 9
-0.29206353 -0.34694278 -0.19663072 95 10
-0.337951 -0.3067266 -0.25476056 87 8
-0.29172397 -0.34939247 -0.28445095 94 7
-0.20687863 -0.1879984 -0.18629874 3 6
nan nan nan 0 5
-0.25852168 -0.23223908 -0.29886121 6 4
-0.23164472 -0.28084242 -0.34933093 5 3
-0.27946088 -0.24868681 -0.40069702 4 2
-0.22158463 -0.2708683 -0.41364619 4 1
-0.2329828 -0.20672759 -0.38922352 4 0
-0.29618251 -0.34882775 0.11279073 98 31
-0.33830896 -0.30978227 0.098075621 88 30
-0.29456916 -0.3463273 0.080984823 98 29
-0.34080938 -0.31224266 0.066837661 87 28
-0.29941103 -0.35149524 0.052105844 97 27
-0.33947229 -0.31112146 0.04067697 88 26
-0.29768801 -0.34921136 0.029498506 96 25
-0.34617198 -0.3170839 0.020263789 88 24
-0.29678079 -0.34789744 0.0098065604 95 23
-0.33546677 -0.30726299 0 86 22
-0.29845375 -0.34975544 -0.0098645873 96 21
-0.34258264 -0.31360805 -0.020030871 86 20
-0.29954746 -0.3509168 -0.02952316 96 19
-0.34544757 -0.31599349 -0.038895879 89 18
-0.30643353 -0.35906172 -0.050038312 95 17
-0.34928375 -0.31925482 -0.060895711 90 16
-0.29600355 -0.34692916 -0.07342618 96 15
-0.3366338 -0.30689287 -0.12037113 92 13
-0.30560318 -0.35853153 -0.099904425 98 14
