# .PCD v0.7 - Point Cloud Data file format
VERSION 0.7
FIELDS x y z intensity ring
SIZE 4 4 4 4 2
TYPE F F F F U
COUNT 1 1 1 1 1
WIDTH 1351
HEIGHT 1
VIEWPOINT 0 0 0 1 0 0 0
POINTS 1351
DATA ascii
-1.0781779 0.43664086 -0.76367372 5 7
-0.90216345 0.53184986 -0.77094352 4 6
-1.1092815 0.44436255 -0.98210847 3 5
nan nan nan 0 4
-1.1038237 0.43657148 -1.2226583 4 3
-0.96699494 0.58161974 -1.2917709 1 2
nan nan nan 0 1
nan nan nan 0 0
-1.0383395 0.43110877 0.29067779 87 31
-0.94699514 0.54857367 0.24518906 98 30
-1.0384492 0.43218958 0.2102764 88 29
-0.9430089 0.5458346 0.16496925 98 28
-1.0445086 0.43573815 0.13389991 85 27
-0.95214981 0.55094254 0.10181136 98 26
-1.0402046 0.43437302 0.076002039 83 25
-0.95740217 0.55422616 0.049960721 98 24
-1.0352978 0.43275395 0.025241738 79 23
-0.94534642 0.54743576 0 98 22
-1.0398381 0.43485323 -0.025357792 82 21
-0.94210029 0.54576707 -0.049145512 97 20
-1.0330172 0.43223634 -0.075102776 80 19
-0.95000845 0.55080616 -0.095451377 98 18
-1.0472444 0.43815935 -0.1259487 95 17
-0.95329535 0.55315894 -0.14828277 97 16
-1.0342767 0.43236274 -0.18936226 96 15
-0.94821984 0.55214584 -0.30402309 97 13
-1.0463588 0.43697333 -0.2517145 93 14
-0.94430542 0.55114692 -0.36611459 96 12
nan nan nan 0 11
nan nan nan 0 9
-0.95831543 0.39704266 -0.47085086 4 10
nan nan nan 0 8
-1.0670565 0.43650544 -0.75666755 5 7
-0.90722495 0.53891832 -0.7770021 4 6
-1.097178 0.44377217 -0.97241664 3 5
nan nan nan 0 4
-1.1103395 0.44338813 -1.2317554 4 3
-0.95678484 0.57977951 -1.2803224 1 2
nan nan nan 0 1
nan nan nan 0 0
-1.0413638 0.436407 0.29196683 86 31
-0.94937277 0.55417526 0.24631636 97 30
-1.0392755 0.43657649 0.21074998 89 29
-0.94119358 0.54895884 0.16496925 97 28
-1.031612 0.4344092 0.13238519 74 27
-0.94377935 0.55048817 0.10109774 97 26
-1.0387586 0.43782008 0.076002039 83 25
-0.9512499 0.55487287 0.049727805 97 24
-1.0384668 0.4381178 0.025357792 77 23
-0.94136912 0.54930329 0 97 22
-1.0383137 0.43848026 -0.025357792 81 21
-0.94674778 0.55267817 -0.049494889 97 20
-1.0315781 0.43565956 -0.075102776 80 19
-0.94808 0.55411893 -0.095451377 97 18
-1.0412052 0.4397071 -0.12538008 93 17
-0.95349354 0.55773771 -0.1486268 98 16
-1.0351086 0.43674257 -0.18979166 96 15
-0.95259511 0.55894899 -0.30608657 96 13
-1.0358373 0.43685529 -0.24948199 95 14
-0.94247258 0.55427533 -0.36611459 97 12
nan nan nan 0 11
nan nan nan 0 9
-0.95699358 0.40021834 -0.47085086 4 10
nan nan nan 0 8
-1.0732654 0.44318405 -0.76227248 5 7
-0.90022635 0.53900421 -0.7724582 4 6
-1.0885497 0.44473037 -0.96595538 4 5
nan nan nan 0 4
-1.1024181 0.44471207 -1.2244776 4 3
-0.96438998 0.58903378 -1.293679 1 2
nan nan nan 0 1
nan nan nan 0 0
-1.035381 0.4381665 0.29067779 87 31
-0.94533592 0.5562464 0.24575272 97 30
-1.0309595 0.43734074 0.2093292 89 29
-0.93501836 0.54972839 0.16419657 98 28
-1.0369469 0.44090566 0.13329403 88 27
-0.93970931 0.55251342 0.10085986 99 26
-1.0349269 0.44047165 0.075828515 83 25
-0.95360756 0.5607301 0.049960721 98 24
-1.0322514 0.43997109 0.025241738 78 23
-0.93944591 0.5525859 0 97 22
-1.0367769 0.44210199 -0.025357792 83 21
-0.93396813 0.54978842 -0.048912596 97 20
-1.030051 0.43925783 -0.075102776 80 19
-0.94828272 0.55869323 -0.09567491 97 18
-1.0395865 0.4435204 -0.12538008 95 17
-0.94727981 0.55853862 -0.14793873 98 16
-1.0289654 0.43861201 -0.18893288 95 15
-0.942276 0.55752403 -0.30333522 97 13
-1.0343062 0.44046837 -0.24948199 95 14
-0.94246429 0.55893534 -0.3669318 97 12
nan nan nan 0 11
nan nan nan 0 9
-0.94717383 0.40022156 -0.46659938 4 10
nan nan nan 0 8
-1.069721 0.44632208 -0.76087123 5 7
-0.90844595 0.54849273 -0.78154594 4 6
-1.0886778 0.44944075 -0.96757066 3 5
nan nan nan 0 4
-1.1007807 0.44874966 -1.2244776 4 3
-0.95408738 0.58729511 -1.2822305 1 2
nan nan nan 0 1
nan nan nan 0 0
-1.0359913 0.44290304 0.29132232 87 31
-0.94119865 0.55846035 0.24518906 98 30
-1.0293496 0.44111645 0.2093292 91 29
-0.93087518 0.55188775 0.16381021 98 28
-1.0307593 0.44275445 0.13268815 85 27
-0.94195408 0.55850106 0.10133561 98 26
-1.0355991 0.44524202 0.076002039 85 25
-0.94940042 0.56294352 0.049844261 97 24
-1.0284113 0.44258866 0.025183709 81 23
-0.93741429 0.55602539 0 97 22
-1.0305543 0.4439314 -0.025241738 84 21
-0.93204331 0.55304521 -0.048912596 97 20
-1.0261414 0.44204846 -0.074930124 85 19
-0.94622862 0.56216514 -0.09567491 97 18
-1.0403154 0.44812423 -0.1256644 95 17
-0.94522625 0.56200683 -0.14793873 97 16
-1.0274279 0.44220111 -0.18893288 96 15
-0.94032419 0.56080979 -0.30333522 97 13
-1.0282034 0.4423402 -0.24836574 95 14
-0.93848217 0.56100529 -0.36611459 97 12
nan nan nan 0 11
nan nan nan 0 9
-0.96869004 0.41323504 -0.47829095 4 10
nan nan nan 0 8
-1.0700667 0.45085275 -0.76227248 5 7
-0.90822244 0.55269849 -0.78306055 4 6
-1.0835764 0.45177847 -0.96434003 3 5
nan nan nan 0 4
-1.0960336 0.4512921 -1.2208388 4 3
-0.94644713 0.587367 -1.2745982 1 2
nan nan nan 0 1
nan nan nan 0 0
-1.0299993 0.44461197 0.29003328 89 31
-0.93715566 0.56048775 0.24462539 98 30
-1.0255486 0.44373712 0.2088556 90 29
-0.93317825 0.55767649 0.16458291 98 28
-1.0292076 0.4463498 0.13268815 89 27
-0.9378652 0.56050473 0.10109774 98 26
-1.0294588 0.44687808 0.075654998 84 25
-0.9452886 0.56496876 0.049727805 97 24
-1.0222712 0.44419375 0.025067655 79 23
-0.92903835 0.55543262 0 97 22
-1.0312927 0.44851786 -0.025299765 84 21
-0.9343884 0.55886763 -0.049145512 97 20
-1.0291708 0.4476071 -0.075275436 79 19
-0.94426054 0.56546468 -0.09567491 97 18
-1.0364648 0.45076719 -0.12538008 95 17
-0.94325876 0.56530285 -0.14793873 97 16
-1.0258782 0.44578481 -0.18893288 95 15
-0.94247562 0.56657386 -0.30471089 96 13
-1.0311277 0.44785833 -0.24948199 95 14
-0.93247586 0.56183064 -0.36448014 97 12
nan nan nan 0 11
nan nan nan 0 9
-0.97972429 0.42195368 -0.48466814 4 10
nan nan nan 0 8
-1.0589509 0.45055535 -0.75526631 4 7
-0.90967351 0.55795336 -0.78608984 4 6
-1.0855136 0.45703015 -0.96757066 4 5
nan nan nan 0 4
-1.0944515 0.4551152 -1.2208388 3 3
-0.94165653 0.58894712 -1.270782 1 2
nan nan nan 0 1
nan nan nan 0 0
-1.0306574 0.44916466 0.29067779 87 31
-0.93727696 0.56501746 0.24518906 98 30
-1.0217417 0.44633663 0.20838203 91 29
-0.9312259 0.56093049 0.16458291 98 28
-1.0299186 0.45092994 0.13299108 88 27
-0.93387192 0.56232357 0.10085986 98 26
-1.0301789 0.45146486 0.075828515 82 25
-0.9433108 0.56826496 0.049727805 97 24
-1.0252964 0.44975749 0.025183709 83 23
-0.93350971 0.56255627 0 97 22
-1.0297997 0.45193526 -0.025299765 83 21
-0.93456799 0.56341952 -0.049261972 98 20
-1.0253161 0.45019913 -0.075102776 83 19
-0.94025087 0.56730223 -0.095451377 98 18
-1.0371616 0.45537597 -0.1256644 95 17
-0.94349617 0.56971198 -0.14828277 97 16
-1.0243158 0.44936305 -0.18893288 95 15
-0.93843913 0.56861043 -0.30402309 96 13
-1.0274029 0.45030198 -0.24892388 95 14
-0.93655956 0.56877404 -0.3669318 97 12
nan nan nan 0 11
nan nan nan 0 9
nan nan nan 0 10
nan nan nan 0 8
-1.0649886 0.4574995 -0.76087123 4 7
-0.90274984 0.55781817 -0.78154594 4 6
-1.0804762 0.45914364 -0.96434003 3 5
nan nan nan 0 4
-1.0881882 0.45676363 -1.2153805 3 3
-0.93151158 0.58687901 -1.2593336 1 2
nan nan nan 0 1
nan nan nan 0 0
-1.0313756 0.45354745 0.29132232 88 31
-0.93331885 0.56685376 0.24462539 98 30
-1.0247527 0.45169255 0.2093292 90 29
-0.92514282 0.56144392 0.16381021 98 28
-1.0261455 0.453345 0.13268815 86 27
-0.93190336 0.56558001 0.10085986 99 26
-1.0218269 0.45186764 0.07530795 86 25
-0.93928885 0.57008994 0.049611345 97 24
-1.0214329 0.45232674 0.025125684 79 23
-0.92737037 0.5630452 0 98 22
-1.0190665 0.45149752 -0.025067655 84 21
-0.92620081 0.56277496 -0.048912596 97 20
-1.0169702 0.45058092 -0.074584827 82 19
-0.93613994 0.56928277 -0.09522783 97 18
-1.0287468 0.455989 -0.12481146 95 17
-0.93727642 0.57041872 -0.14759469 98 16
-1.0159786 0.44995895 -0.18764469 95 15
-0.9343999 0.5706259 -0.30333522 97 13
-1.0258248 0.45388553 -0.24892388 95 14
-0.92853081 0.56832683 -0.36448014 97 12
nan nan nan 0 11
nan nan nan 0 9
nan nan nan 0 10
nan nan nan 0 8
-1.0576811 0.45875645 -0.75666755 4 7
-0.8990137 0.56006742 -0.78003132 4 6
-1.0735204 0.46085578 -0.95949417 4 5
nan nan nan 0 4
-1.0833462 0.45941851 -1.2117417 4 3
-0.9362644 0.59447366 -1.2688739 1 2
nan nan nan 0 1
nan nan nan 0 0
-1.0274967 0.45634899 0.29067779 87 31
-0.93330961 0.57154709 0.24518906 98 30
-1.0208455 0.45445207 0.2088556 91 29
-0.92518312 0.5661245 0.16419657 98 28
-1.0222086 0.45609674 0.13238519 90 27
-0.93194431 0.5702951 0.10109774 97 26
-1.0224432 0.45662177 0.075481474 84 25
-0.93932062 0.57483661 0.049727805 97 24
-1.0129958 0.4528445 0.024951601 81 23
-0.92530048 0.5664404 0 98 22
-1.0196885 0.45624539 -0.025125684 86 21
-0.92210382 0.56469613 -0.04879614 98 20
-1.0175908 0.45531893 -0.074757479 80 19
-0.92980695 0.57009846 -0.094780758 96 18
-1.027149 0.4595772 -0.12481146 95 17
-0.9309637 0.57125151 -0.1469066 97 16
-1.0166526 0.45450285 -0.1880741 95 15
-0.93444663 0.57514811 -0.30402309 96 13
-1.0174731 0.4546746 -0.2472495 96 14
-0.92654133 0.5715645 -0.36448014 97 12
nan nan nan 0 11
nan nan nan 0 9
-0.88826936 0.39389858 -0.44002765 4 10
nan nan nan 0 8
-1.0541747 0.46161973 -0.75526631 5 7
-0.89705324 0.5632022 -0.78003132 4 6
-1.077163 0.46686354 -0.96434003 4 5
nan nan nan 0 4
-1.0801581 0.46252656 -1.2099222 3 3
-0.92592984 0.59265536 -1.2574254 1 2
nan nan nan 0 1
nan nan nan 0 0
-1.0170722 0.45599991 0.28809974 90 31
-0.9250986 0.57095093 0.24349807 99 30
-1.0147705 0.4560104 0.20790841 88 29
-0.92110157 0.56804967 0.16381021 98 28
-1.0228752 0.46067628 0.13268815 89 27
-0.92783225 0.57223397 0.10085986 99 26
-1.020843 0.460188 0.075481474 87 25
-0.93730825 0.57811195 0.049727805 97 24
-1.0159696 0.45842358 0.025067655 80 23
-0.92756754 0.57230085 0 98 22
-1.0226498 0.46184942 -0.025241738 83 21
-0.92437178 0.57054329 -0.049029056 97 20
-1.0159951 0.45886821 -0.074757479 79 19
-0.93415785 0.57728034 -0.095451377 98 18
-1.0278044 0.46417719 -0.12509578 95 17
-0.935274 0.57841772 -0.14793873 97 16
-1.0150598 0.45804885 -0.1880741 95 15
-0.92835361 0.57586408 -0.30264741 96 13
-1.0158798 0.45822349 -0.2472495 96 14
-0.92654443 0.57604694 -0.36529735 96 12
nan nan nan 0 11
nan nan nan 0 9
-0.94065237 0.42088887 -0.46766227 4 10
nan nan nan 0 8
-1.0468699 0.4627991 -0.75106257 4 7
-0.88836884 0.56206006 -0.77397275 4 6
-1.070277 0.46833909 -0.95949417 4 5
nan nan nan 0 4
-1.0816882 0.46764672 -1.2135611 3 3
-0.92656577 0.59764194 -1.2612416 1 2
nan nan nan 0 1
nan nan nan 0 0
-1.0176772 0.46053833 0.28874427 89 31
-0.92723101 0.57675803 0.24462539 98 30
-1.0131725 0.45954984 0.20790841 88 29
-0.92120832 0.57256967 0.16419657 97 28
-1.021261 0.46424395 0.13268815 89 27
-0.92592961 0.57530767 0.10085986 99 26
-1.0146859 0.46169278 0.075134434 87 25
-0.93528461 0.58138025 0.049727805 97 24
-1.0098096 0.45990548 0.024951601 82 23
-0.91708279 0.57023758 0 97 22
-1.0142826 0.46214426 -0.025067655 84 21
-0.92025679 0.57244313 -0.048912596 97 20
-1.0143872 0.46241188 -0.074757479 82 19
-0.93012726 0.57905465 -0.09522783 97 18
-1.0216532 0.46571153 -0.12452716 96 17
-0.92705375 0.57757515 -0.1469066 97 16
-1.011211 0.46057341 -0.18764469 95 15
-0.92633784 0.57910115 -0.30264741 96 13
-1.0143546 0.46158972 -0.2472495 96 14
-0.92052913 0.57676035 -0.3636629 97 12
nan nan nan 0 11
nan nan nan 0 9
-0.92472517 0.41768679 -0.46022215 4 10
nan nan nan 0 8
-1.0471408 0.46728969 -0.75246382 5 7
-0.88984948 0.5671491 -0.7770021 4 6
-1.0599808 0.46805397 -0.95141757 4 5
nan nan nan 0 4
-1.0754117 0.46918669 -1.2081028 4 3
-0.91646534 0.59540999 -1.2497932 1 2
nan nan nan 0 1
nan nan nan 0 0
-1.0205435 0.46590704 0.29003328 87 31
-0.92325222 0.57853216 0.24406174 98 30
-1.0094086 0.4618907 0.20743483 89 29
-0.91721374 0.57430625 0.16381021 97 28
-1.012942 0.46453956 0.13177931 88 27
-0.9239158 0.57853627 0.10085986 99 26
-1.0154182 0.46609047 0.07530795 86 25
-0.93123764 0.58314896 0.049611345 97 24
-1.0082791 0.46325156 0.024951601 84 23
-0.9215346 0.57726991 0 97 22
-1.0103903 0.46464273 -0.02500963 85 21
-0.9204669 0.57682204 -0.049029056 97 20
-1.0128481 0.46577317 -0.074757479 80 19
-0.92599374 0.58097023 -0.095004298 97 18
-1.0201032 0.4690969 -0.12452716 96 17
-0.93131518 0.58477044 -0.14793873 97 16
-1.0119185 0.46494749 -0.1880741 95 15
-0.92644352 0.58345479 -0.30333522 96 13
-1.0127372 0.46512768 -0.2472495 96 14
-0.92260194 0.58234036 -0.36529735 96 12
nan nan nan 0 11
nan nan nan 0 9
-0.91921198 0.41888505 -0.45809641 4 10
nan nan nan 0 8
-1.0493653 0.47245041 -0.75526631 5 7
-0.8811807 0.56593615 -0.77094352 4 6
-1.0513617 0.46866143 -0.94495636 4 5
-0.86785036 0.56252652 -0.95531929 3 4
-1.0800508 0.4756856 -1.2153805 3 3
-0.92247629 0.60393494 -1.2612416 1 2
nan nan nan 0 1
nan nan nan 0 0
-1.0167148 0.46846059 0.28938878 88 31
-0.92122716 0.58175135 0.24406174 98 30
-1.012252 0.46745983 0.20838203 92 29
-0.91937566 0.58014917 0.16458291 98 28
-1.0135685 0.46910992 0.13208227 87 27
-0.9197889 0.5804255 0.10062198 98 26
-1.0160503 0.47067547 0.075481474 80 25
-0.92919642 0.58639598 0.049611345 97 24
-1.0043048 0.46589723 0.024893576 85 23
-0.91318005 0.57646668 0 97 22
-1.0087622 0.46816686 -0.02500963 85 21
-0.91202098 0.57617754 -0.048679676 97 20
-1.0044223 0.466171 -0.074239522 82 19
-0.92396015 0.58419907 -0.095004298 97 18
-1.0183771 0.47283262 -0.12452716 96 17
-0.9271785 0.58668953 -0.14759469 98 16
-1.007971 0.46762171 -0.18764469 95 15
-0.92227238 0.58555406 -0.30264741 96 13
-1.0088942 0.4676401 -0.24669139 95 14
-0.91648012 0.5831728 -0.3636629 96 12
nan nan nan 0 11
nan nan nan 0 9
-0.88474119 0.40720287 -0.44109055 4 10
nan nan nan 0 8
-1.0400795 0.47288403 -0.74966139 5 7
-0.8791005 0.56916201 -0.77094352 4 6
-1.0513786 0.4732905 -0.94657159 4 5
-0.86125213 0.56272638 -0.95013678 3 4
-1.0704583 0.47617739 -1.2062833 3 3
-0.9230547 0.60893726 -1.2650578 1 2
nan nan nan 0 1
nan nan nan 0 0
-1.0106062 0.47015601 0.28809974 90 31
-0.91908872 0.58512396 0.24406174 97 30
-1.0060775 0.469102 0.20743483 89 29
-0.91099936 0.57952493 0.16342388 98 28
-1.0095918 0.47177607 0.13177931 88 27
-0.91765535 0.58379281 0.10062198 98 26
-1.0143182 0.47439635 0.075481474 86 25
-0.92493653 0.58845299 0.049494889 97 24
-1.0026724 0.46940008 0.024893576 83 23
-0.91316748 0.58115637 0 98 22
-1.0070397 0.47186098 -0.02500963 86 21
-0.91421187 0.58204848 -0.048912596 97 20
-1.0094893 0.47300899 -0.074757479 86 19
-0.92181277 0.58758163 -0.095004298 98 18
-1.0122176 0.47428679 -0.12395855 95 17
-0.9271068 0.59141988 -0.14793873 97 16
-1.0040998 0.47009808 -0.18721531 96 15
-0.91820079 0.58747023 -0.30195954 96 13
-1.0049639 0.47030675 -0.24613325 95 14
-0.9184112 0.58892733 -0.36529735 95 12
nan nan nan 0 11
nan nan nan 0 9
-0.86482126 0.40175936 -0.43152472 4 10
nan nan nan 0 8
-1.0346547 0.47479385 -0.74685889 5 7
-0.87211907 0.56895477 -0.76639968 4 6
-1.047981 0.47617275 -0.94495636 4 5
-0.86380279 0.56872231 -0.95531929 3 4
-1.0719213 0.48130742 -1.2099222 3 3
-0.93290156 0.62039739 -1.2822305 1 2
nan nan nan 0 1
nan nan nan 0 0
-1.0067701 0.4726592 0.28745523 91 31
-0.91499329 0.58700919 0.24349807 98 30
-1.004434 0.47261101 0.20743483 89 29
-0.91312414 0.58537591 0.16419657 98 28
-1.0101857 0.47635078 0.13208227 88 27
-0.91571438 0.58683264 0.10062198 98 26
-1.0126562 0.47793409 0.075481474 85 25
-0.92497647 0.59303004 0.049611345 97 24
-1.0055522 0.47502238 0.02500963 81 23
-0.91323489 0.58569419 0 98 22
-1.0032072 0.47413486 -0.024951601 85 21
-0.91217452 0.58523613 -0.048912596 97 20
-1.0010608 0.47334647 -0.074239522 84 19
-0.91985917 0.5906353 -0.095004298 98 18
-1.0128036 0.47887391 -0.12424285 94 17
-0.92097956 0.59180528 -0.14725064 98 16
-1.0046818 0.47464719 -0.18764469 95 15
-0.92017931 0.59328496 -0.30333522 96 13
-1.0011928 0.47260156 -0.24557514 95 14
-0.91436821 0.5908432 -0.36448014 96 12
-0.21955147 0.10527228 -0.084359303 4 11
nan nan nan 0 9
-0.86341357 0.40477571 -0.43152472 4 10
nan nan nan 0 8
-1.0311103 0.4775371 -0.74545759 4 7
-0.87852502 0.57732528 -0.77397275 4 6
-1.0481327 0.48043597 -0.94657159 3 5
nan nan nan 0 4
-1.064065 0.48204592 -1.2026445 3 3
-0.92949939 0.62258524 -1.2803224 1 2
nan nan nan 0 1
nan nan nan 0 0
-1.0095681 0.47805291 0.28874427 89 31
-0.91712749 0.59269255 0.24462539 98 30
-0.99620116 0.47279674 0.20601404 92 29
-0.90703356 0.58571243 0.16342388 98 28
-1.0063572 0.47863716 0.13177931 88 27
-0.91157246 0.58867115 0.1003841 98 26
-0.99979472 0.4759545 0.074613869 84 25
-0.9209097 0.59473515 0.049494889 97 24
-0.99945414 0.47621408 0.024893576 83 23
-0.90709335 0.58599764 0 97 22
-1.0038044 0.47870469 -0.02500963 85 21
-0.9060396 0.58553833 -0.048679676 98 20
-1.0017391 0.47773215 -0.074412182 81 19
-0.91152847 0.58977193 -0.094333678 97 18
-1.0089658 0.48116568 -0.12395855 95 17
-0.92098397 0.59636658 -0.14759469 98 16
-0.99865109 0.47586736 -0.18678591 96 15
-0.91216791 0.5923934 -0.30127174 96 13
-0.99953705 0.47609347 -0.24557514 95 14
-0.90844905 0.59128618 -0.36284572 94 12
-0.20031071 0.09715353 -0.075923376 4 11
nan nan nan 0 9
-0.85182506 0.40282831 -0.42621034 4 10
nan nan nan 0 8
-1.0238872 0.47833866 -0.74125397 4 7
-0.86657035 0.57377577 -0.76488501 4 6
-1.0377804 0.48010814 -0.9384951 4 5
nan nan nan 0 4
-1.0592535 0.48433959 -1.1990056 4 3
-0.93935007 0.63398904 -1.2974951 1 2
nan nan nan 0 1
nan nan nan 0 0
-1.0057114 0.48053759 0.28809974 89 31
-0.91301477 0.59455699 0.24406174 98 30
-0.99454474 0.47627124 0.20601404 92 29
-0.90705103 0.59022641 0.16381021 98 28
-1.0024406 0.4810783 0.13147637 89 27
-0.91159523 0.59321123 0.10062198 98 26
-1.0026281 0.48159131 0.07496091 81 25
-0.91882807 0.59794611 0.049494889 97 24
-0.99102086 0.47646606 0.024719493 83 23
-0.90922707 0.59189683 0 98 22
-1.0043818 0.48328441 -0.025067655 89 21
-0.91025978 0.59279853 -0.049029056 97 20
-1.0000656 0.48122597 -0.074412182 82 19
-0.91363031 0.59567845 -0.094780758 97 18
-1.0072801 0.48468471 -0.12395855 95 17
-0.91682559 0.59822047 -0.14725064 98 16
-0.99920583 0.4804126 -0.18721531 96 15
-0.91210288 0.59689403 -0.30195954 94 13
-0.9956702 0.47852895 -0.24501701 96 14
-0.90440661 0.59315366 -0.36202848 91 12
-0.20834404 0.10183007 -0.079672672 5 11
nan nan nan 0 9
nan nan nan 0 10
nan nan nan 0 8
-1.0222112 0.48190975 -0.74125397 4 7
-0.86291045 0.5756892 -0.76337045 4 6
-1.0412911 0.48613605 -0.94334102 4 5
nan nan nan 0 4
-1.0544391 0.48660558 -1.1953667 4 3
-0.92779714 0.63088244 -1.2841387 1 2
nan nan nan 0 1
nan nan nan 0 0
-1.0018497 0.48300111 0.28745523 88 31
-0.91093385 0.59774041 0.24406174 97 30
-0.9973014 0.48186588 0.20696121 90 29
-0.90704799 0.59474754 0.16419657 98 28
-1.0007552 0.48457453 0.13147637 89 27
-0.90951896 0.59638959 0.10062198 99 26
-0.99644756 0.48292273 0.074613869 87 25
-0.91673523 0.60114974 0.049494889 97 24
-0.9871006 0.47883669 0.024661468 81 23
-0.90715551 0.59506702 0 98 22
-1.000438 0.48570088 -0.02500963 88 21
-0.90609992 0.594598 -0.048912596 97 20
-0.99388778 0.48254535 -0.074066877 83 19
-0.91154546 0.59886402 -0.094780758 97 18
-1.0078188 0.48927763 -0.12424285 96 17
-0.91059917 0.59868801 -0.14656255 98 16
-0.99530458 0.4828276 -0.18678591 96 15
-0.90400237 0.59609234 -0.29989606 92 13
-0.9917987 0.48094326 -0.24445888 96 14
-0.90823567 0.60022736 -0.36448014 86 12
nan nan nan 0 11
nan nan nan 0 9
nan nan nan 0 10
nan nan nan 0 8
-1.018651 0.48459017 -0.73985267 4 7
-0.86089569 0.57869792 -0.76337045 4 6
-1.0344034 0.48734146 -0.9384951 4 5
nan nan nan 0 4
-1.0496217 0.48884389 -1.1917279 3 3
-0.91760772 0.62861937 -1.2726902 1 2
nan nan nan 0 1
nan nan nan 0 0
-0.99580848 0.48439196 0.28616619 92 31
-0.90681285 0.59956896 0.24349807 98 30
-0.99340451 0.48427355 0.20648764 91 29
-0.89879239 0.5938127 0.16303752 98 28
-1.0012898 0.48914927 0.13177931 88 27
-0.90950513 0.60093683 0.10085986 99 26
-0.99924165 0.48857915 0.07496091 86 25
-0.91255045 0.60296518 0.049378429 97 24
-0.98758602 0.48354542 0.024719493 82 23
-0.89465892 0.59131616 0 98 22
-0.99424255 0.48700115 -0.024893576 87 21
-0.89975446 0.59515113 -0.048679676 97 20
-0.99219733 0.48601174 -0.074066877 83 19
-0.91152304 0.60342097 -0.095004298 98 18
-1.0015532 0.49079213 -0.12367423 95 17
-0.91468835 0.60597825 -0.14759469 98 16
-0.99352825 0.48647234 -0.18678591 96 15
-0.90780818 0.60340559 -0.30195954 85 13
-0.99230516 0.4854683 -0.24501701 96 14
-0.90210259 0.60092419 -0.36284572 82 12
nan nan nan 0 11
nan nan nan 0 9
nan nan nan 0 10
nan nan nan 0 8
-1.0187366 0.48921213 -0.74125397 4 7
-0.85548115 0.57960999 -0.76034123 4 6
-1.030885 0.49031436 -0.93687975 4 5
nan nan nan 0 4
-1.047823 0.49268767 -1.1917279 3 3
-0.91408086 0.63089764 -1.270782 1 2
nan nan nan 0 1
nan nan nan 0 0
-0.99619704 0.48909813 0.2868107 91 31
-0.90056127 0.60017878 0.24237077 98 30
-0.98721272 0.48575366 0.20554042 93 29
-0.8966099 0.597103 0.16303752 98 28
-0.997262 0.4917233 0.13147637 89 27
-0.90315944 0.60149896 0.1003841 98 26
-0.98848855 0.48784322 0.074266829 85 25
-0.91656148 0.61047137 0.049727805 97 24
-0.9814055 0.48478594 0.024603439 83 23
-0.89871866 0.59876239 0 98 22
-0.99245089 0.49064195 -0.024893576 83 21
-0.89767146 0.59828818 -0.048679676 98 20
-0.99040931 0.48964506 -0.074066877 82 19
-0.90516841 0.60398525 -0.094557218 98 18
-0.99983388 0.4942852 -0.12367423 95 17
-0.91246122 0.60932666 -0.14759469 98 16
-0.99182403 0.48993745 -0.18678591 96 15
-0.89971375 0.60254592 -0.29989606 79 13
-0.99270678 0.49017608 -0.24557514 95 14
-0.89999944 0.60406947 -0.36284572 79 12
nan nan nan 0 11
nan nan nan 0 9
nan nan nan 0 10
nan nan nan 0 8
-1.0151573 0.49186701 -0.73985267 4 7
-0.84197325 0.57471484 -0.74973881 4 6
-1.0308896 0.49473095 -0.9384951 3 5
nan nan nan 0 4
-1.0476478 0.49707308 -1.1935474 3 3
-0.91176236 0.63424367 -1.270782 1 2
nan nan nan 0 1
nan nan nan 0 0
-0.99881762 0.49470702 0.28809974 87 31
-0.90249914 0.60604262 0.24349807 98 30
-0.9877125 0.49028328 0.20601404 92 29
-0.89656836 0.60160959 0.16342388 99 28
-0.99553955 0.49520141 0.13147637 89 27
-0.90115988 0.60449064 0.1003841 98 26
-0.99571985 0.49571699 0.07496091 86 25
-0.90821236 0.60947973 0.049378429 97 24
-0.99090463 0.49375743 0.024893576 82 23
-0.89869601 0.60329354 0 98 22
-0.99081844 0.49393037 -0.024893576 90 21
-0.89557761 0.60141802 -0.048679676 98 20
-0.98645979 0.49199107 -0.073894225 85 19
-0.90522432 0.60837668 -0.094780758 98 18
-0.99810243 0.49777228 -0.12367423 95 17
-0.90838373 0.61096305 -0.14725064 98 16
-0.99010783 0.49339655 -0.18678591 96 15
-0.8956154 0.60433435 -0.29920822 65 13
-0.99325955 0.49454647 -0.24613325 95 14
-0.89593095 0.60587972 -0.36202848 71 12
-0.97209775 0.48141804 -0.42460847 7 11
nan nan nan 0 9
-0.21294416 0.107519 -0.095658183 4 10
nan nan nan 0 8
-1.005985 0.49178886 -0.73424774 4 7
-0.83024567 0.57071871 -0.74065107 4 6
-1.0258042 0.4964931 -0.93526447 3 5
-0.83789587 0.58123732 -0.94149911 3 4
-1.0382508 0.49686459 -1.1844501 3 3
-0.91229528 0.6391241 -1.2745982 1 2
nan nan nan 0 1
nan nan nan 0 0
-0.99500823 0.49694204 0.28745523 88 31
-0.90048456 0.60903203 0.24349807 98 30
-0.9838835 0.4924621 0.20554042 93 29
-0.89048129 0.60180491 0.1626512 98 28
-0.98945057 0.49628469 0.13087049 91 27
-0.89698529 0.60623485 0.10014623 98 26
-0.99407053 0.4990162 0.07496091 86 25
-0.90618634 0.61248815 0.049378429 98 24
-0.98255455 0.49368921 0.024719493 84 23
-0.89669043 0.60627037 0 98 22
-0.98461747 0.49515009 -0.024777522 89 21
-0.89357829 0.60438454 -0.048679676 98 20
-0.98259223 0.49414402 -0.07372158 83 19
-0.90515411 0.6129331 -0.095004298 97 18
-0.99422473 0.49996832 -0.12338991 95 17
-0.90624559 0.61413014 -0.14725064 98 16
-0.98846626 0.49667719 -0.18678591 96 15
-0.89757657 0.61001128 -0.30058387 37 13
-0.98498696 0.49474406 -0.24445888 96 14
-0.89781678 0.6115157 -0.3636629 68 12
-0.97041136 0.48480833 -0.42460847 8 11
nan nan nan 0 9
-0.20042026 0.10219843 -0.08928097 4 10
nan nan nan 0 8
-1.0043488 0.49512213 -0.73424774 4 7
-0.82171953 0.56906718 -0.73459256 5 6
-1.0189146 0.49757221 -0.93041855 3 5
-0.83734041 0.58519769 -0.9432267 3 4
-1.0365102 0.50048578 -1.1844501 3 3
-0.90083736 0.63576108 -1.2612416 1 2
nan nan nan 0 1
nan nan nan 0 0
-0.99326748 0.50041223 0.28745523 91 31
-0.8983531 0.61217165 0.24349807 98 30
-0.97996479 0.49479213 0.20506684 94 29
-0.8924526 0.60769838 0.16342388 99 28
-0.9877122 0.49973547 0.13087049 90 27
-0.89691776 0.61076713 0.1003841 98 26
-0.99009526 0.50136143 0.074787393 88 25
-0.9081654 0.61846727 0.049611345 97 24
-0.9807384 0.49728712 0.024719493 86 23
-0.89250541 0.60798502 0 98 22
-0.98511457 0.49970976 -0.024835547 84 21
-0.89135712 0.60765558 -0.048679676 98 20
-0.98308808 0.49869424 -0.073894225 86 19
-0.89684695 0.61186647 -0.094333678 98 18
-0.99238557 0.503609 -0.12338991 95 17
-0.90001196 0.61448896 -0.14656255 97 16
-0.98443991 0.49918777 -0.1863565 96 15
-0.90325516 0.61874658 -0.30333522 7 13
-0.98107773 0.49708283 -0.24390075 95 14
-0.89362437 0.61346102 -0.36284572 62 12
-0.97277194 0.49043873 -0.42648312 8 11
nan nan nan 0 9
-0.21218838 0.109003 -0.095658183 4 10
nan nan nan 0 8
-0.99324769 0.49421167 -0.72724158 4 7
-0.81962824 0.57207507 -0.73459256 5 6
-1.0205114 0.50298166 -0.93364912 4 5
-0.83666456 0.58930731 -0.94495416 3 4
-1.0269526 0.50054622 -1.1753531 3 3
-0.90912527 0.6464169 -1.2765063 1 2
nan nan nan 0 1
nan nan nan 0 0
-0.98711544 0.50186974 0.28616619 89 31
-0.89409858 0.61407709 0.24293444 98 30
-0.97595495 0.49727109 0.20459324 95 29
-0.88615203 0.60816163 0.1626512 98 28
-0.98366135 0.5022288 0.13056755 90 27
-0.8926242 0.612638 0.10014623 98 26
-0.98825097 0.50498694 0.074787393 86 25
-0.89972419 0.61753964 0.049261972 97 24
-0.97676897 0.49957442 0.024661468 84 23
-0.89438719 0.61409062 0 98 22
-0.97882175 0.50104922 -0.024719493 85 21
-0.89128619 0.61218143 -0.04879614 98 20
-0.97903109 0.50116259 -0.07372158 86 19
-0.89869601 0.61797953 -0.094780758 97 18
-0.99062157 0.50707 -0.12338991 95 17
-0.89775372 0.61778355 -0.14656255 97 16
-0.98488683 0.50373769 -0.18678591 96 15
nan nan nan 0 13
-0.98142147 0.50177974 -0.24445888 96 14
-0.89729846 0.62062067 -0.36529735 46 12
-0.9772591 0.49696845 -0.42929512 9 11
nan nan nan 0 9
-0.20978612 0.10872418 -0.094595321 4 10
nan nan nan 0 8
-0.99522197 0.49952403 -0.73004407 4 7
-0.80463392 0.56574708 -0.72247559 5 6
-1.0170388 0.50569576 -0.9320339 3 5
nan nan nan 0 4
-1.0267397 0.50488037 -1.1771724 3 3
-0.90019679 0.64502358 -1.2669659 1 2
nan nan nan 0 1
nan nan nan 0 0
-0.98535758 0.50531232 0.28616619 92 31
-0.89394957 0.61858439 0.24349807 98 30
-0.97858477 0.50290889 0.20554042 93 29
-0.88402379 0.61125118 0.1626512 98 28
-0.98190224 0.50565934 0.13056755 91 27
-0.89263201 0.61701387 0.1003841 98 26
-0.97982401 0.50502038 0.074266829 85 25
-0.90166533 0.6235255 0.049494889 97 24
-0.97946662 0.50526273 0.024777522 86 23
-0.88607889 0.61292964 0 98 22
-0.9793784 0.50543362 -0.024777522 87 21
-0.88504255 0.61243832 -0.048563223 98 20
-0.97949433 0.5057162 -0.073894225 87 19
-0.89459771 0.61953449 -0.094557218 98 18
-0.99105513 0.51165944 -0.12367423 95 17
-0.8957001 0.62075722 -0.14656255 98 16
-0.98093104 0.50604826 -0.1863565 95 15
nan nan nan 0 13
-0.97758353 0.50391984 -0.24390075 95 14
-0.88738424 0.61832976 -0.36202848 12 12
-0.97147596 0.49810132 -0.42742047 10 11
nan nan nan 0 9
-0.21343912 0.11150758 -0.096721053 4 10
nan nan nan 0 8
-0.98977321 0.50113374 -0.72724158 4 7
-0.7962724 0.56379789 -0.71641713 4 6
-1.0102324 0.50651324 -0.92718792 3 5
nan nan nan 0 4
-1.0219835 0.50676733 -1.1735336 3 3
-0.90851271 0.65559357 -1.2822305 1 2
nan nan nan 0 1
nan nan nan 0 0
-0.98152822 0.50747263 0.28552166 90 31
-0.889898 0.62014884 0.24293444 98 30
-0.97254759 0.50390261 0.20459324 95 29
-0.88199192 0.61417937 0.1626512 98 28
-0.98242491 0.51005119 0.13087049 89 27
-0.89047271 0.62012595 0.1003841 98 26
-0.97814387 0.50826687 0.074266829 86 25
-0.89549994 0.6236496 0.049261972 98 24
-0.97334588 0.50621146 0.024661468 85 23
-0.88404143 0.61586457 0 98 22
-0.97538853 0.5077002 -0.024719493 88 21
-0.88096076 0.61393785 -0.04844676 97 20
-0.97781187 0.50896156 -0.073894225 85 19
-0.88835132 0.61979562 -0.094110139 97 18
-0.98494148 0.51265931 -0.12310562 96 17
-0.89150047 0.6224584 -0.14621851 98 16
-0.97706008 0.50816691 -0.18592712 95 15
nan nan nan 0 13
-0.97365397 0.50621003 -0.24334264 95 14
nan nan nan 0 12
-0.97591478 0.50466859 -0.43023241 14 11
nan nan nan 0 9
-0.21105468 0.11118218 -0.095658183 4 10
nan nan nan 0 8
-0.98810595 0.50441325 -0.72724158 4 7
-0.79106712 0.56425554 -0.71338785 5 6
-1.0135731 0.51260674 -0.9320339 4 5
nan nan nan 0 4
-1.0217439 0.51109451 -1.1753531 4 3
-0.89578539 0.65113604 -1.2669659 1 2
nan nan nan 0 1
nan nan nan 0 0
-0.98189521 0.51200771 0.28616619 89 31
-0.88772786 0.62325138 0.24293444 98 30
-0.97296089 0.50842631 0.20506684 93 29
-0.8798427 0.61725432 0.1626512 98 28
-0.9784376 0.51233119 0.13056755 90 27
-0.88626844 0.62179708 0.10014623 99 26
-0.97415233 0.51052541 0.074093312 91 25
-0.89535886 0.62821001 0.049378429 98 24
-0.97148401 0.50977558 0.024661468 84 23
-0.88188624 0.61894667 0 98 22
-0.97582597 0.51225859 -0.024777522 84 21
-0.88482666 0.62148118 -0.04879614 98 20
-0.97160769 0.51006299 -0.073548928 86 19
-0.88618237 0.6228928 -0.094110139 98 18
-0.98305589 0.51626587 -0.12310562 96 17
-0.89134467 0.62699521 -0.14656255 97 16
-0.975191 0.51174462 -0.18592712 95 15
nan nan nan 0 13
-0.96755922 0.50735205 -0.24222636 96 14
nan nan nan 0 12
-0.97405851 0.50824213 -0.43023241 17 11
nan nan nan 0 9
-0.19858766 0.10571533 -0.08928097 4 10
nan nan nan 0 8
-0.97703588 0.50331402 -0.72023541 4 7
-0.80511314 0.57880259 -0.7285341 4 6
-1.0116874 0.51631826 -0.9320339 4 5
nan nan nan 0 4
-1.0167985 0.51329893 -1.1717142 3 3
-0.88179964 0.64564013 -1.2497932 1 2
nan nan nan 0 1
nan nan nan 0 0
-0.97573161 0.51336342 0.28487715 91 31
-0.88345212 0.62508982 0.24237077 97 30
-0.96891683 0.51084906 0.20459324 94 29
-0.87958825 0.62190509 0.16303752 99 28
-0.97435641 0.51475954 0.13026461 92 27
-0.88601255 0.62648213 0.1003841 99 26
-0.9788965 0.51757497 0.074613869 90 25
-0.89101434 0.6300416 0.049261972 98 24
-0.96969861 0.51316357 0.024661468 84 23
-0.88164985 0.62362266 0 98 22
-0.97173065 0.51466686 -0.024719493 88 21
-0.87858069 0.62167275 -0.048563223 98 20
-0.97193837 0.51478314 -0.07372158 88 19
-0.88592231 0.62758011 -0.094333678 98 18
-0.98124778 0.51969421 -0.12310562 96 17
-0.88500625 0.62738562 -0.14587446 96 16
-0.97339869 0.51514554 -0.18592712 95 15
nan nan nan 0 13
-0.97216326 0.51429898 -0.24390075 95 14
nan nan nan 0 12
-0.96406442 0.50734127 -0.42648312 22 11
nan nan nan 0 9
-0.21225972 0.11373655 -0.096721053 3 10
nan nan nan 0 8
-0.98079205 0.50957119 -0.72443914 5 7
-0.81434298 0.58980465 -0.73913646 4 6
-1.0081801 0.51897758 -0.93041855 4 5
nan nan nan 0 4
-1.0150006 0.51684511 -1.1717142 3 3
-0.88461655 0.65271741 -1.2574254 1 2
nan nan nan 0 1
nan nan nan 0 0
-0.9739337 0.51676625 0.28487715 90 31
-0.88324529 0.62958777 0.24293444 98 30
-0.96712774 0.51422811 0.20459324 95 29
-0.87540323 0.6235345 0.1626512 98 28
-0.97255367 0.51815754 0.13026461 91 27
-0.88179624 0.6281231 0.10014623 98 26
-0.97708386 0.52098882 0.074613869 87 25
-0.88880962 0.63314795 0.049261972 98 24
-0.96790147 0.5165453 0.024661468 88 23
-0.87743461 0.62524146 0 98 22
-0.97213537 0.51922828 -0.024777522 91 21
-0.8764053 0.62473577 -0.048563223 98 20
-0.96573043 0.51583254 -0.073376283 87 19
-0.88372624 0.6306687 -0.094333678 98 18
-0.9794277 0.52311623 -0.12310562 96 17
-0.88482308 0.63191432 -0.14621851 19 16
-0.96941924 0.51738542 -0.18549772 95 15
nan nan nan 0 13
-0.9660567 0.51540494 -0.2427845 96 14
nan nan nan 0 12
-0.97253639 0.51611155 -0.43116975 24 11
nan nan nan 0 9
-0.20184955 0.10920705 -0.09140671 3 10
nan nan nan 0 8
-0.97717094 0.51203537 -0.72303784 5 7
-0.81067544 0.59146732 -0.73762184 4 6
-1.0097538 0.52424335 -0.93364912 4 5
nan nan nan 0 4
-1.0101358 0.5188266 -1.1680753 3 3
-0.87327522 0.64903277 -1.244069 1 2
nan nan nan 0 1
nan nan nan 0 0
-0.97425622 0.52129751 0.28552166 91 31
-0.87906677 0.63124228 0.24237077 97 30
-0.96316099 0.51644582 0.20411965 95 29
-0.87322134 0.62658644 0.1626512 98 28
-0.9663617 0.51920998 0.12965873 91 27
-0.87970853 0.63104373 0.10014623 99 26
-0.96646273 0.51969141 0.073919788 91 25
-0.89064604 0.63916677 0.049494889 97 24
-0.96829593 0.52110022 0.024719493 86 23
-0.87727469 0.62976247 0 98 22
-0.96820486 0.52126926 -0.024719493 90 21
-0.87624466 0.62925202 -0.048679676 98 20
-0.96612233 0.52037811 -0.073548928 85 19
-0.88162994 0.63359582 -0.094333678 98 18
-0.97540629 0.52535892 -0.1228213 96 17
-0.88874465 0.63919461 -0.14725064 3 16
-0.96543598 0.51960391 -0.18506834 96 15
nan nan nan 0 13
-0.96649122 0.51975501 -0.24334264 95 14
nan nan nan 0 12
-0.96263492 0.51498008 -0.42742047 31 11
nan nan nan 0 9
-0.20546448 0.11203283 -0.09353245 3 10
nan nan nan 0 8
-0.97904354 0.51736861 -0.72584033 5 7
-0.79431075 0.58351719 -0.7239902 4 6
-1.0046242 0.525828 -0.93041855 4 5
nan nan nan 0 4
-1.0068851 0.52138925 -1.1662558 3 3
-0.88789749 0.6645509 -1.2688739 1 2
nan nan nan 0 1
nan nan nan 0 0
-0.968265 0.52224171 0.28423262 91 31
-0.87893939 0.63558519 0.24293444 98 30
-0.96360517 0.5207991 0.20459324 92 29
-0.86913967 0.62802786 0.16226484 99 28
-0.96900409 0.52476549 0.13026461 91 27
-0.87750036 0.63411069 0.10014623 98 26
-0.96912444 0.52526045 0.074266829 91 25
-0.8844794 0.63918316 0.049261972 98 24
-0.96216339 0.52193469 0.024603439 91 23
-0.87113535 0.6297307 0 98 22
-0.96857858 0.52583331 -0.024777522 88 21
-0.8741532 0.63215429 -0.048679676 98 20
-0.96439135 0.52357906 -0.073548928 89 19
-0.87739909 0.63520509 -0.094110139 98 18
-0.97584426 0.52977079 -0.12310562 96 17
-0.88250351 0.63937926 -0.14656255 3 16
-0.96587503 0.52397203 -0.18549772 95 15
-0.87020665 0.6322366 -0.29783255 87 13
-0.96252608 0.52196866 -0.2427845 96 14
nan nan nan 0 12
-0.96491617 0.52052826 -0.42929512 30 11
nan nan nan 0 9
-0.19112575 0.1052407 -0.086092368 4 10
nan nan nan 0 8
-0.97549284 0.51964366 -0.72443914 4 7
-0.79546052 0.58866084 -0.72701943 4 6
-0.99602389 0.52578616 -0.92395729 3 5
nan nan nan 0 4
-1.0081027 0.52647984 -1.1698947 3 3
-0.88171053 0.66471905 -1.2631497 1 2
nan nan nan 0 1
nan nan nan 0 0
-0.96856081 0.52676767 0.28487715 90 31
-0.87671542 0.6386494 0.24293444 98 30
-0.96178132 0.52415961 0.20459324 95 29
-0.87092996 0.63397342 0.16303752 98 28
-0.96498585 0.52696031 0.12996167 91 27
-0.87528157 0.6371699 0.10014623 98 26
-0.96728504 0.52864009 0.074266829 89 25
-0.88425875 0.64374053 0.049378429 98 24
-0.96243918 0.52665263 0.024661468 85 23
-0.87498564 0.63719511 0 98 22
-0.96673721 0.5292111 -0.024777522 85 21
-0.87384558 0.6368289 -0.04879614 98 20
-0.95817721 0.52455676 -0.073203623 89 19
-0.87517649 0.63826394 -0.094110139 97 18
-0.97607714 0.53453207 -0.12338991 95 17
-0.8782692 0.64099205 -0.14621851 4 16
-0.96394807 0.52750862 -0.18549772 95 15
-0.85626566 0.6268782 -0.29370555 104 13
-0.96497989 0.52765393 -0.24390075 95 14
-0.80924845 0.5935694 -0.33506021 27 12
-0.96300185 0.52406138 -0.42929512 33 11
nan nan nan 0 9
-0.20467734 0.1134645 -0.09353245 4 10
nan nan nan 0 8
-0.97540784 0.52419102 -0.72584033 4 7
-0.78534091 0.58560699 -0.71944636 4 6
-0.99577653 0.53032577 -0.92557263 3 5
nan nan nan 0 4
-1.0031283 0.5285809 -1.1662558 3 3
-0.87810081 0.66681248 -1.2612416 1 2
nan nan nan 0 1
nan nan nan 0 0
-0.9666236 0.53031415 0.28487715 89 31
-0.87240827 0.64041311 0.24237077 97 30
-0.95770001 0.52650356 0.20411965 94 29
-0.86462337 0.63423115 0.16226484 99 28
-0.96087158 0.52930105 0.12965873 86 27
-0.87294042 0.64037359 0.10014623 98 26
-0.96315438 0.53098267 0.074093312 92 25
-0.87988293 0.64549589 0.049261972 98 24
-0.96059501 0.53000897 0.024661468 87 23
-0.86459446 0.63446504 0 98 22
-0.95821923 0.52914095 -0.024603439 90 21
-0.86759716 0.63691145 -0.048563223 98 20
-0.96062011 0.53046668 -0.073548928 89 19
-0.87683797 0.64442468 -0.094557218 98 18
-0.96985137 0.53554434 -0.1228213 95 17
-0.87392205 0.64273548 -0.14587446 6 16
-0.96425998 0.5320552 -0.18592712 95 15
-0.85793489 0.6327247 -0.2950812 116 13
-0.9587664 0.52884293 -0.2427845 96 14
-0.86408246 0.63864094 -0.35957682 70 12
-0.95506322 0.52408922 -0.42648312 35 11
nan nan nan 0 9
nan nan nan 0 10
nan nan nan 0 8
-0.96081275 0.52071953 -0.71603167 4 7
-0.77694315 0.58355016 -0.71338785 4 6
-0.99055266 0.53200155 -0.922342 4 5
nan nan nan 0 4
-1.0012771 0.53207928 -1.1662558 3 3
-0.87181008 0.66707176 -1.2555174 1 2
-1.058246 0.55574781 -1.5233316 1 1
nan nan nan 0 0
-0.96265018 0.53252059 0.28423262 90 31
-0.87212288 0.64490664 0.24293444 98 30
-0.96015561 0.53221369 0.20506684 92 29
-0.86637115 0.64018935 0.16303752 98 28
-0.96119034 0.53385204 0.12996167 91 27
-0.87269813 0.64489996 0.1003841 98 26
-0.95911241 0.5331347 0.073919788 85 25
-0.87762427 0.64856339 0.049261972 98 24
-0.95655215 0.5321486 0.024603439 84 23
-0.86839634 0.64194983 0 98 22
-0.95855284 0.53369349 -0.024661468 90 21
-0.86737353 0.64142501 -0.048679676 98 20
-0.95658082 0.53260827 -0.073376283 88 19
-0.87058675 0.64451027 -0.094110139 97 18
-0.97232163 0.54133332 -0.12338991 95 17
-0.86769986 0.6428259 -0.14518638 16 16
-0.96024191 0.53422529 -0.18549772 95 15
-0.85186845 0.63284075 -0.29370555 125 13
-0.96117938 0.5345456 -0.24390075 95 14
-0.84481895 0.62891859 -0.35222185 70 12
-0.95525861 0.52853709 -0.42742047 37 11
nan nan nan 0 9
nan nan nan 0 10
nan nan nan 0 8
-0.96990526 0.52999961 -0.72443914 4 7
-0.77490145 0.58625871 -0.71338785 4 6
-0.98532927 0.53364742 -0.91911143 4 5
nan nan nan 0 4
-0.9933598 0.53234822 -1.1589781 3 3
-0.87075311 0.6711002 -1.2574254 1 2
-1.0469146 0.55450064 -1.5094109 1 1
nan nan nan 0 0
-0.96078551 0.53587765 0.28423262 92 31
-0.86986649 0.64794701 0.24293444 98 30
-0.95185548 0.53198385 0.20364605 91 29
-0.86215293 0.64173079 0.1626512 98 28
-0.9549852 0.53478867 0.12935579 93 27
-0.86656767 0.64481091 0.099908352 99 26
-0.95942396 0.5376938 0.074093312 89 25
-0.87335485 0.65012765 0.049145512 98 24
-0.94814116 0.53183103 0.02442936 87 23
-0.86214602 0.64198267 0 98 22
-0.95677781 0.53686923 -0.024661468 90 21
-0.86312956 0.6429528 -0.048563223 97 20
-0.95471585 0.5359441 -0.073376283 87 19
-0.86844468 0.64739364 -0.094110139 98 18
-0.97042608 0.54472399 -0.12338991 95 17
-0.87150872 0.65015399 -0.14621851 34 16
-0.95622057 0.53637391 -0.18506834 96 15
-0.85733932 0.6415869 -0.29645687 133 13
-0.95088756 0.53298354 -0.24166825 96 14
-0.85205418 0.63897157 -0.35630795 110 12
-0.95350069 0.53170192 -0.42742047 39 11
nan nan nan 0 9
nan nan nan 0 10
nan nan nan 0 8
-0.95896989 0.52840912 -0.71743292 4 7
-0.75874203 0.57794034 -0.69975621 4 6
-0.9869085 0.53873169 -0.922342 3 5
nan nan nan 0 4
-0.99612135 0.53807163 -1.1644363 3 3
-0.86979645 0.67497766 -1.2593336 3 2
nan nan nan 0 1
nan nan nan 0 0
-0.95689487 0.53788203 0.28358811 90 31
-0.86576748 0.64936256 0.24237077 97 30
-0.95008606 0.53513741 0.20364605 95 29
-0.8600201 0.64458632 0.1626512 98 28
-0.95969808 0.54159701 0.13026461 91 27
-0.86629993 0.64932859 0.10014623 99 26
-0.95763564 0.54087234 0.074093312 90 25
-0.87119412 0.65302026 0.049145512 98 24
-0.94637227 0.53497225 0.02442936 86 23
-0.86400664 0.6478458 0 98 22
-0.95271969 0.53897989 -0.024603439 87 21
-0.85700333 0.64280647 -0.048330303 98 20
-0.95293337 0.53910708 -0.073376283 91 19
-0.86816758 0.65192026 -0.094333678 98 18
-0.96428537 0.54550278 -0.1228213 96 17
-0.86528081 0.65020895 -0.14553043 81 16
-0.95014322 0.53712761 -0.18420956 95 15
-0.8494575 0.64007497 -0.29439336 132 13
-0.95114553 0.53749347 -0.24222636 96 14
-0.85181296 0.64322126 -0.35712516 118 12
-0.95973051 0.53955114 -0.43116975 49 11
nan nan nan 0 9
nan nan nan 0 10
nan nan nan 0 8
-0.95539981 0.53058565 -0.71603167 4 7
-0.75042105 0.57572562 -0.69369775 4 6
-0.97999996 0.53942615 -0.91749609 4 5
nan nan nan 0 4
-0.99272925 0.54072946 -1.162617 3 3
-0.8674351 0.67800975 -1.2593336 1 2
nan nan nan 0 1
nan nan nan 0 0
-0.95501155 0.54121888 0.28358811 92 31
-0.86155534 0.65090841 0.24180713 98 30
-0.95034975 0.53965795 0.20411965 93 29
-0.85579664 0.64609206 0.16226484 99 28
-0.95348245 0.54249895 0.12965873 91 27
-0.86204499 0.65084493 0.099908352 100 26
-0.9535718 0.54298264 0.073919788 88 25
-0.87288928 0.6590749 0.049378429 98 24
-0.94440514 0.53843725 0.02442936 87 23
-0.85974813 0.64934707 0 97 22
-0.95300639 0.54353565 -0.024661468 89 21
-0.8625983 0.65198261 -0.04879614 98 20
-0.94670731 0.53996861 -0.073030978 87 19
-0.86390394 0.65344065 -0.094110139 98 18
-0.96011943 0.54780734 -0.122537 96 17
-0.86694854 0.65622234 -0.14621851 100 16
-0.95031041 0.54182148 -0.18463893 96 15
-0.8471058 0.64318407 -0.29439336 117 13
-0.94926351 0.54081029 -0.24222636 96 14
-0.84757262 0.64490432 -0.35630795 122 12
-0.95370901 0.54078829 -0.42929512 51 11
nan nan nan 0 9
nan nan nan 0 10
nan nan nan 0 8
-0.9371689 0.52501881 -0.70342058 4 7
-0.74987614 0.5796929 -0.6952123 4 6
-0.97467506 0.54117078 -0.91426545 4 5
nan nan nan 0 4
-0.98321605 0.54025674 -1.1535197 3 3
-0.85999668 0.67702371 -1.2517012 1 2
nan nan nan 0 1
nan nan nan 0 0
-0.94882178 0.54232788 0.28229907 93 31
-0.86109871 0.65554118 0.24237077 97 30
-0.94623244 0.54192233 0.20364605 95 29
-0.8573482 0.65222341 0.16303752 98 28
-0.94933265 0.54475975 0.12935579 94 27
-0.86163133 0.65551102 0.10014623 99 26
-0.95157522 0.54647398 0.073919788 92 25
-0.86649901 0.65923762 0.049145512 98 24
-0.94468963 0.54297113 0.024487386 84 23
-0.8593486 0.65401185 0 98 22
-0.94666928 0.54454219 -0.024545414 92 21
-0.85833329 0.65347284 -0.048679676 98 20
-0.9490512 0.54591233 -0.073376283 89 19
-0.85952574 0.65508926 -0.093886599 98 18
-0.95820141 0.55115545 -0.122537 95 17
-0.8625716 0.65788972 -0.14587446 100 16
-0.94841325 0.54513538 -0.18463893 95 15
-0.84866774 0.64906549 -0.29576904 74 13
-0.94727498 0.54428589 -0.24222636 96 14
-0.84531629 0.64785898 -0.35630795 124 12
-0.95181555 0.54411405 -0.42929512 59 11
nan nan nan 0 9
nan nan nan 0 10
nan nan nan 0 8
-0.92630368 0.52321929 -0.69641435 4 7
-0.74628204 0.58108073 -0.69369775 4 6
-0.97611487 0.54642498 -0.91749609 4 5
nan nan nan 0 4
-0.98432821 0.54533905 -1.1571586 3 3
-0.86003524 0.68218535 -1.2555174 1 2
nan nan nan 0 1
nan nan nan 0 0
-0.94901848 0.54683769 0.28294358 91 31
-0.85494566 0.65557075 0.24124347 98 30
-0.94007778 0.54277694 0.20269886 95 29
-0.85310888 0.65370578 0.1626512 98 28
-0.94742531 0.54807025 0.12935579 92 27
-0.85550773 0.65532988 0.099670477 99 26
-0.94750077 0.54854757 0.073746271 88 25
-0.86617172 0.66378129 0.049261972 98 24
-0.94062322 0.5450173 0.02442936 92 23
-0.85309851 0.65395755 0 98 22
-0.94702339 0.54892701 -0.024603439 90 21
-0.8540684 0.65494132 -0.048563223 98 20
-0.94281924 0.54672927 -0.073030978 87 19
-0.8612932 0.66097581 -0.094333678 98 18
-0.95627171 0.55449682 -0.122537 95 17
-0.86430693 0.66377091 -0.14656255 99 16
-0.94437099 0.54721278 -0.18420956 95 15
-0.84259492 0.64908224 -0.29439336 17 13
-0.9433533 0.54620802 -0.24166825 96 14
-0.84491682 0.65225345 -0.35712516 125 12
-0.95201689 0.54841948 -0.43023241 60 11
nan nan nan 0 9
-0.94241279 0.54187268 -0.494234 7 10
nan nan nan 0 8
-0.91005719 0.51829094 -0.68520451 4 7
-0.74903691 0.58724636 -0.69824165 4 6
-0.95931882 0.54126012 -0.90295827 4 5
nan nan nan 0 4
-0.97501808 0.54444146 -1.1480615 3 3
-0.8577683 0.68503362 -1.2555174 1 2
nan nan nan 0 1
nan nan nan 0 0
-0.94719988 0.54998177 0.28294358 91 31
-0.85854143 0.66287971 0.24293444 98 30
-0.94039732 0.54712099 0.20317246 96 29
-0.84703159 0.6535055 0.1618785 99 28
-0.9456026 0.55120903 0.12935579 92 27
-0.85911667 0.66288495 0.1003841 99 26
-0.94783354 0.55293846 0.073919788 92 25
-0.8600176 0.66359073 0.049029056 98 24
-0.93881065 0.54813349 0.02442936 84 23
-0.84894931 0.65525138 0 98 22
-0.94294083 0.55097336 -0.024545414 91 21
-0.85189188 0.65776992 -0.048563223 98 20
-0.941001 0.54985273 -0.073030978 89 19
-0.86094773 0.66550511 -0.094557218 98 18
-0.95228022 0.55641657 -0.12225268 95 17
-0.86002922 0.66526484 -0.14621851 99 16
-0.94681042 0.55281532 -0.18506834 95 15
-0.84233403 0.65335 -0.2950812 36 13
-0.93722606 0.54705036 -0.24055201 95 14
-0.83902466 0.6521439 -0.35549071 124 12
-0.95411062 0.55405772 -0.43210709 69 11
nan nan nan 0 9
-0.94649249 0.54838395 -0.49742255 8 10
nan nan nan 0 8
-0.90293831 0.51822847 -0.68100077 4 7
-0.74542481 0.5886206 -0.69672698 4 6
-0.96406764 0.54836154 -0.90941948 3 5
nan nan nan 0 4
-0.97610444 0.54951555 -1.1517004 3 3
-0.85160375 0.68497652 -1.2497932 1 2
nan nan nan 0 1
nan nan nan 0 0
-0.94318694 0.55206943 0.28229907 92 31
-0.85046357 0.66137499 0.24124347 98 30
-0.93636143 0.54916322 0.20269886 95 29
-0.84669238 0.65797788 0.16226484 99 28
-0.93938804 0.5520016 0.12874991 94 27
-0.85091186 0.66128641 0.099670477 100 26
-0.94374502 0.55498421 0.073746271 91 25
-0.85966468 0.66812521 0.049145512 98 24
-0.94110852 0.55409724 0.024545414 92 23
-0.84468627 0.6566723 0 98 22
-0.94101185 0.55426145 -0.024545414 92 21
-0.85144323 0.66242534 -0.048679676 98 20
-0.93692404 0.55187315 -0.072858326 86 19
-0.85077304 0.66237158 -0.093663067 99 18
-0.95237732 0.56115925 -0.122537 96 17
-0.85380131 0.66521114 -0.14553043 99 16
-0.94265276 0.55503702 -0.18463893 95 15
-0.83804297 0.65494883 -0.29439336 107 13
-0.93951708 0.55278051 -0.24166825 96 14
-0.84405655 0.66105771 -0.35875958 112 12
-0.95007074 0.55638438 -0.43116975 73 11
nan nan nan 0 9
-0.93273729 0.54502803 -0.49104536 9 10
nan nan nan 0 8
-0.90821141 0.52566403 -0.68660575 4 7
-0.74636859 0.59383374 -0.69975621 4 6
-0.96039373 0.55094624 -0.90780419 4 5
-0.77269942 0.6202482 -0.91385883 3 4
-0.97408378 0.5530895 -1.1517004 3 3
-0.852965 0.69100517 -1.2555174 1 2
-1.0198233 0.57253414 -1.489524 1 1
nan nan nan 0 0
-0.94324011 0.55674559 0.28294358 91 31
-0.85186195 0.66750002 0.24237077 97 30
-0.93434238 0.5525915 0.20269886 95 29
-0.84815818 0.66413027 0.16303752 98 28
-0.93949616 0.55670112 0.12905285 92 27
-0.85043865 0.66593897 0.099908352 100 26
-0.94385248 0.55970681 0.073919788 93 25
-0.85721016 0.67127156 0.049145512 98 24
-0.93486434 0.55483741 0.02442936 89 23
-0.85013342 0.66594654 0 98 22
-0.93897402 0.55770665 -0.024545414 92 21
-0.84520066 0.66230464 -0.04844676 97 20
-0.93489504 0.55530339 -0.072858326 88 19
-0.85420746 0.6701079 -0.094333678 98 18
-0.94827425 0.56321663 -0.12225268 95 17
-0.853302 0.66986889 -0.14587446 99 16
-0.93858892 0.55707198 -0.18420956 95 15
-0.83763719 0.65936083 -0.2950812 122 13
-0.93748474 0.55622035 -0.24166825 96 14
-0.84544766 0.66693449 -0.36039403 27 12
-0.94212711 0.55617678 -0.42835775 76 11
-0.45511055 0.35999089 -0.28961319 9 9
-0.94254416 0.55514276 -0.49742255 9 10
nan nan nan 0 8
-0.906371 0.52883106 -0.68660575 4 7
-0.73654741 0.59019595 -0.69218308 4 6
-0.96011901 0.55524611 -0.90941948 4 5
-0.79857385 0.64574051 -0.9484092 3 4
-0.96767604 0.55394322 -1.146242 3 3
-0.84543169 0.69002825 -1.2478851 3 2
-1.0270623 0.5812884 -1.5034448 1 1
nan nan nan 0 0
-0.93921232 0.55880451 0.28229907 91 31
-0.85143554 0.67198241 0.24293444 97 30
-0.9324078 0.55584955 0.20269886 95 29
-0.84389859 0.66555333 0.1626512 98 28
-0.93968064 0.5612449 0.12935579 90 27
-0.85017681 0.67030036 0.10014623 98 26
-0.93974948 0.56172323 0.073746271 92 25
-0.85290408 0.67270917 0.049029056 98 24
-0.93721735 0.56065387 0.024545414 89 23
-0.84584421 0.66735756 0 98 22
-0.93926686 0.562096 -0.024603439 90 21
-0.84288365 0.6652509 -0.04844676 97 20
-0.93295097 0.55856347 -0.072858326 88 19
-0.85002977 0.67138958 -0.094110139 98 18
-0.95057034 0.56906545 -0.1228213 96 17
-0.85495496 0.6757738 -0.14656255 98 16
-0.93663865 0.56034487 -0.18420956 95 15
-0.83533055 0.66228068 -0.2950812 125 13
-0.92935157 0.5555892 -0.23999387 96 14
-0.83572751 0.66398674 -0.35712516 59 12
-0.93828291 0.55811787 -0.42742047 81 11
-0.4573572 0.36426339 -0.29195821 14 9
-0.94254911 0.55957997 -0.49848545 10 10
nan nan nan 0 8
-0.90988165 0.53512627 -0.69080943 4 7
-0.74539846 0.60140634 -0.70278549 4 6
-0.95827246 0.55842698 -0.90941948 4 5
-0.79223281 0.64495146 -0.9432267 3 4
-0.971784 0.56055951 -1.1535197 3 3
-0.84313881 0.69282806 -1.2478851 1 2
-1.025129 0.58469105 -1.5034448 1 1
