# .PCD v0.7 - Point Cloud Data file format
VERSION 0.7
FIELDS x y z intensity ring
SIZE 4 4 4 4 2
TYPE F F F F U
COUNT 1 1 1 1 1
WIDTH 1260
HEIGHT 1
VIEWPOINT 0 0 0 1 0 0 0
POINTS 1260
DATA ascii
1.2327261 -0.066628546 -0.083044685 20 19
1.2203603 -0.06599091 -0.1358995 26 17
1.2774529 -0.073423356 -0.028897438 16 21
1.2275057 -0.070654452 -0.082699381 19 19
1.2176425 -0.070112579 -0.1356152 27 17
1.2722125 -0.077365302 -0.028781384 13 21
1.232231 -0.075232901 -0.083044685 18 19
1.2223494 -0.074655399 -0.13618381 25 17
1.2769235 -0.082116932 -0.028897438 10 21
1.2294854 -0.07916341 -0.082872026 18 19
1.2220951 -0.07870844 -0.13618381 25 17
1.2791231 -0.086738057 -0.028955463 10 21
1.2341789 -0.083782606 -0.08321733 19 19
1.2217985 -0.083187118 -0.13618381 24 17
1.2763033 -0.091252215 -0.028897438 10 21
1.2388396 -0.088651754 -0.083562627 20 19
1.2190228 -0.087279081 -0.1358995 25 17
1.2784864 -0.095665842 -0.028955463 10 21
1.2260857 -0.092066623 -0.082699381 27 19
1.2211878 -0.091714785 -0.13618381 27 17
1.2781447 -0.100128 -0.028955463 10 21
1.2307471 -0.096512035 -0.083044685 30 19
1.2728046 -0.10419067 -0.028839409 11 21
1.2279166 -0.10060883 -0.082872026 30 19
1.2773954 -0.10927158 -0.028955463 10 21
1.2300249 -0.10531653 -0.083044685 27 19
1.2819859 -0.11416377 -0.029071517 10 21
1.2346191 -0.11004249 -0.083389983 21 19
1.2791113 -0.11818914 -0.029013492 10 21
1.241679 -0.11502695 -0.083907925 20 19
1.2811792 -0.12288725 -0.029071517 10 21
1.2338415 -0.11844365 -0.083389983 21 19
1.2832299 -0.12760125 -0.029129546 12 21
1.2359028 -0.12299191 -0.083562627 21 19
1.2852402 -0.13255538 -0.029187571 13 21
1.2379251 -0.12777208 -0.08373528 22 19
1.2374716 -0.13209248 -0.08373528 23 19
1.2370267 -0.13619535 -0.08373528 21 19
1.2390223 -0.14078924 -0.083907925 20 19
1.1658823 0.51589966 -0.11132269 11 18
1.170742 0.51388812 -0.057996366 15 20
1.1676761 0.51182681 -0.11132269 14 18
1.1587775 0.50384766 -0.057297613 39 20
1.1716523 0.50893998 -0.11154622 11 18
1.1697104 0.50373483 -0.057763446 39 20
1.15511 0.49700612 -0.10975791 9 18
1.1668642 0.49769714 -0.05753053 28 20
1.1569239 0.49276909 -0.10975791 9 18
1.1731987 0.49555647 -0.057763446 9 20
1.1540451 0.48680025 -0.10931083 9 18
1.1795323 0.4933776 -0.057996366 9 20
1.1510547 0.48105845 -0.10886375 9 18
1.1765445 0.48755935 -0.057763446 9 20
1.1481221 0.47514147 -0.10841667 9 18
1.1806358 0.48418739 -0.057879902 9 20
1.1589966 0.47489098 -0.10931083 9 18
1.173057 0.47632122 -0.05741407 9 20
1.1538018 0.46784514 -0.1086402 9 18
1.1793499 0.47407848 -0.057646986 9 20
1.1599715 0.46586427 -0.10908729 8 18
1.1832373 0.47108471 -0.057763446 9 20
1.1569597 0.45998067 -0.1086402 8 18
1.1709249 0.46148199 -0.057064697 9 20
1.1608768 0.45684707 -0.10886375 8 18
1.1795931 0.45989639 -0.05741407 9 20
1.1695093 0.45528686 -0.10953437 8 18
1.1835227 0.456671 -0.05753053 9 20
1.157141 0.44585505 -0.10819312 7 18
1.1734369 0.44810289 -0.056948237 9 20
1.1656748 0.44446215 -0.10886375 8 18
1.3424871 0.51099122 -0.19472864 33 16
1.1773317 0.44488284 -0.057064697 9 20
1.1601491 0.43796837 -0.10819312 8 18
1.1788005 0.44097623 -0.057064697 9 20
1.1686732 0.43651742 -0.10886375 9 18
1.1369982 0.42430475 -0.16376473 12 16
1.2073094 0.44702905 0 7 22
1.1850961 0.43837732 -0.057297613 10 20
1.1631782 0.42985839 -0.10819312 9 18
1.1314988 0.41777313 -0.1627326 14 16
1.2018924 0.44003469 0 8 22
1.1842724 0.43338379 -0.057181153 10 20
1.1717668 0.42814347 -0.10886375 10 18
1.1330225 0.41362315 -0.1627326 13 16
1.2057731 0.4366838 0 8 22
1.1810787 0.42755538 -0.056948237 10 20
1.1709108 0.42320839 -0.1086402 10 18
1.1367899 0.41050237 -0.16307664 13 16
1.2120001 0.43415034 0 8 22
1.1872691 0.42510548 -0.057181153 24 20
1.1699619 0.41848874 -0.10841667 10 18
1.1404783 0.40755945 -0.16342069 13 16
1.2063599 0.42763513 0 8 22
1.1769682 0.41681105 -0.056598857 39 20
1.1737645 0.41522849 -0.1086402 10 18
1.1348853 0.4011133 -0.16238855 13 16
1.2079191 0.42321074 0 8 22
1.1878496 0.41598526 -0.057064697 64 20
1.1682227 0.40847072 -0.10796959 10 18
1.1386871 0.39776337 -0.1627326 14 16
1.209389 0.41899174 0 8 22
1.1822107 0.40939724 -0.056715317 65 20
1.1719961 0.40519977 -0.10819312 10 18
1.1330426 0.39137378 -0.16170047 11 16
1.1990118 0.41073722 0 9 22
1.1765403 0.40285364 -0.056365941 67 20
1.1733334 0.40131107 -0.10819312 10 18
1.1343342 0.38761434 -0.16170047 10 16
1.2027364 0.40755716 0 9 22
1.1755031 0.39815298 -0.056249484 66 20
1.1770873 0.39800635 -0.10841667 10 18
1.1356803 0.38365242 -0.16170047 10 16
1.2017797 0.40256631 0 9 22
1.1722153 0.39226529 -0.056016568 68 20
1.1713805 0.39153969 -0.10774604 10 18
1.1417128 0.38124573 -0.16238855 10 16
1.2032472 0.39815888 0 9 22
1.1783222 0.38973111 -0.056249484 64 20
1.1822711 0.39034963 -0.1086402 12 18
1.1407496 0.37628728 -0.16204453 9 16
1.2117623 0.39627522 0 19 22
1.1796755 0.38561565 -0.056249484 51 20
1.1740855 0.38335243 -0.10774604 13 18
1.1349244 0.37021166 -0.16101238 12 16
1.2083097 0.39072457 0 30 22
1.1809477 0.38170156 -0.056249484 10 20
1.1825297 0.38153285 -0.10841667 13 18
1.148001 0.37002441 -0.1627326 18 16
1.2096661 0.38650441 0 47 22
1.1894799 0.3796359 -0.056598857 8 20
1.1814805 0.37665063 -0.10819312 13 18
1.1445639 0.36452073 -0.16204453 17 16
1.2502353 0.3945877 0.05951032 6 24
1.2015327 0.37907609 0 63 22
1.1836487 0.37324119 -0.056249484 7 20
1.1804767 0.3715744 -0.10796959 10 18
1.141165 0.35884637 -0.16135643 18 16
1.2420639 0.38726401 0.059044488 8 24
1.2028487 0.37487966 0 63 22
1.1944869 0.37206107 -0.056715317 8 20
1.1770085 0.3659814 -0.10752251 20 18
1.1447769 0.35559097 -0.16170047 17 16
1.245796 0.38365701 0.059160948 8 24
1.2017592 0.36994728 0 65 22
1.1862255 0.36496869 -0.056249484 39 20
1.15279 0.52557778 -0.085289136 10 19
1.1734529 0.36062196 -0.10707543 28 18
1.1530553 0.35395974 -0.1627326 18 16
1.2494515 0.38024673 0.059277404 9 24
1.2029793 0.36596009 0 64 22
1.1826482 0.35958859 -0.056016568 69 20
1.1613387 0.52484649 -0.085807078 11 19
1.1723205 0.35580474 -0.10685189 42 18
1.1519127 0.34921861 -0.16238855 19 16
1.2435927 0.37373888 0.058928031 9 24
1.2042495 0.36175868 0 66 22
1.1838962 0.3554582 -0.056016568 70 20
1.1563407 0.51771885 -0.085289136 10 19
1.1663959 0.34957886 -0.10618128 76 18
1.1531247 0.34519553 -0.16238855 20 16
1.254536 0.37200209 0.059393868 8 24
1.2055672 0.35734245 0 66 22
1.178004 0.34900135 -0.055667192 72 20
1.1536744 0.51144677 -0.084943838 9 19
1.1676694 0.34530148 -0.10618128 76 18
1.1520061 0.34026977 -0.16204453 20 16
1.2438375 0.36413285 0.058811571 8 24
1.2068073 0.35313207 0 67 22
1.1792152 0.34488723 -0.055667192 70 20
1.1486079 0.50439483 -0.084425882 9 19
1.1640847 0.33983654 -0.1057342 75 18
1.1508085 0.33555767 -0.16170047 18 16
1.2499017 0.36116722 0.059044488 9 24
1.2056297 0.34822786 0 66 22
1.1780112 0.34008056 -0.055550735 72 20
1.1526465 0.50138164 -0.084598534 8 19
1.1652051 0.33597445 -0.1057342 76 18
1.1495341 0.33105874 -0.16135643 17 16
1.2462872 0.35565799 0.058811571 9 24
1.2043724 0.34354636 0 67 22
1.1791325 0.33617225 -0.055550735 73 20
1.1497262 0.49557316 -0.084253237 8 19
1.168767 0.33258221 -0.10595773 78 18
1.1530658 0.32771665 -0.16170047 17 16
1.252331 0.35265112 0.059044488 9 24
1.207972 0.34001341 0 67 22
1.1803567 0.33184826 -0.055550735 75 20
1.1560327 0.49352428 -0.084598534 8 19
1.1699208 0.32850042 -0.10595773 76 18
1.1542027 0.3236897 -0.16170047 17 16
1.2560227 0.34872273 0.059160948 9 24
1.20921 0.33558369 0 67 22
1.1815078 0.32772604 -0.055550735 73 20
1.1624247 0.49123448 -0.084943838 8 19
1.1735179 0.32487023 -0.10618128 74 18
1.1529934 0.3188017 -0.16135643 22 16
1.2572322 0.34433627 0.059160948 15 24
1.2103742 0.33136067 0 66 22
1.1874646 0.32490933 -0.055783652 67 20
1.1595347 0.4852393 -0.084598534 8 19
1.1769919 0.3216289 -0.10640481 23 18
1.1588244 0.3162716 -0.16204453 21 16
1.2535434 0.33887002 0.058928031 28 24
1.2138809 0.32799301 0 28 22
1.1957717 0.32291007 -0.056133024 28 20
1.1542314 0.47851256 -0.084080584 8 19
1.1805128 0.31816211 -0.10662835 8 18
1.1503522 0.30966774 -0.16066834 19 16
1.2547187 0.33449227 0.058928031 43 24
1.2222689 0.32567215 0 8 22
1.1968917 0.31873408 -0.056133024 8 20
1.1582 0.47543222 -0.084253237 8 19
1.1719857 0.31149858 -0.1057342 8 18
1.1604658 0.47636098 -0.13959551 2 17
1.1586096 0.30754298 -0.16170047 20 16
1.2558786 0.33011046 0.058928031 62 24
1.2233983 0.32140365 0 7 22
1.1956351 0.31371561 -0.056016568 8 20
1.1598525 0.47138646 -0.084253237 8 19
1.1778857 0.30865929 -0.10618128 8 18
1.1461086 0.4655295 -0.13760534 7 17
1.1524861 0.3016293 -0.16066834 22 16
1.274542 0.33000144 0.12250668 7 26
1.2498243 0.32363954 0.058578655 63 24
1.2148826 0.31442893 0 8 22
1.1987212 0.48216295 -0.029187571 5 21
1.1967229 0.30954015 -0.056016568 15 20
1.1569482 0.46526206 -0.083907925 8 19
1.1717727 0.30248612 -0.10551065 8 18
1.140819 0.45873228 -0.13675243 9 17
1.1535838 0.29740319 -0.16066834 31 16
1.2708613 0.3243278 0.12203092 8 26
1.2485256 0.31866142 0.058462199 62 24
1.2159728 0.3101863 0 42 22
1.1957563 0.4761177 -0.029071517 8 21
1.1929542 0.30413574 -0.055783652 69 20
1.1493038 0.45751265 -0.08321733 9 19
1.1752356 0.29900357 -0.1057342 34 18
1.1447189 0.45567045 -0.13703673 9 17
1.1522138 0.29276928 -0.16032429 38 16
1.2815875 0.32252499 0.12298243 8 26
1.2495754 0.31451944 0.058462199 61 24
1.2121437 0.30494094 0 68 22
1.2042986 0.47491366 -0.0292456 8 21
1.186687 0.29836434 -0.055434272 74 20
1.1531332 0.45461825 -0.083389983 9 19
1.1713883 0.29390165 -0.10528712 69 18
1.1508415 0.45370302 -0.13760534 9 17
1.1507754 0.28834942 -0.15998025 43 16
1.2754558 0.31626478 0.12226879 8 26
1.2530906 0.31075263 0.058578655 61 24
1.2107731 0.30011076 0 70 22
1.2036225 0.4697938 -0.029187571 8 21
1.1901979 0.29460862 -0.055550735 74 20
1.1593562 0.45241275 -0.08373528 9 19
1.1748253 0.29040402 -0.10551065 76 18
1.1432477 0.44585359 -0.13646811 9 17
1.1469644 0.28315273 -0.15929218 78 16
1.2741879 0.31100184 0.12203092 8 26
1.2542212 0.30615774 0.058578655 63 24
1.2118649 0.29567102 0 70 22
1.2030066 0.46447456 -0.029129546 14 21
1.1887918 0.28986502 -0.055434272 75 20
1.1540318 0.4454523 -0.08321733 9 19
1.1758819 0.28609613 -0.10551065 74 18
1.1471126 0.44275922 -0.13675243 9 17
1.14318 0.27778667 -0.15860409 90 16
1.3923846 0.53853196 -0.25420061 28 15
1.2776864 0.30712977 0.12226879 8 26
1.2479949 0.30003905 0.058229282 63 24
1.2128897 0.291439 0 72 22
1.1976215 0.45758298 -0.028955463 23 21
1.1873671 0.28513491 -0.055317819 76 20
1.1579078 0.44231588 -0.083389983 9 19
1.1792959 0.28256559 -0.1057342 77 18
1.1486511 0.43875235 -0.13675243 9 17
1.1441427 0.27379453 -0.15860409 95 16
1.3712695 0.52482617 -0.24990666 18 15
1.2762752 0.30232158 0.12203092 8 26
1.2538967 0.29682311 0.058462199 65 24
1.2114657 0.28663215 0 71 22
1.1991323 0.45360902 -0.028955463 23 21
1.1859238 0.28041819 -0.055201355 76 20
1.1664382 0.44093069 -0.083907925 9 19
1.177802 0.27808556 -0.10551065 75 18
1.1408893 0.43120885 -0.1356152 9 17
1.1474555 0.27056268 -0.15894812 95 16
1.3615844 0.51565546 -0.2477597 19 15
1.282172 0.29898691 0.12250668 8 26
1.2500082 0.29153731 0.058229282 65 24
1.2148453 0.28317645 0 69 22
1.2077256 0.45206228 -0.029129546 18 21
1.1892804 0.2770462 -0.055317819 74 20
1.1632257 0.43530276 -0.083562627 9 19
1.1763391 0.27341333 -0.10528712 77 18
1.1469619 0.42917341 -0.13618381 9 17
1.148393 0.26655567 -0.15894812 95 16
1.3540686 0.50766331 -0.24604213 21 15
1.2783546 0.29340419 0.12203092 8 26
1.2534533 0.28772676 0.058345739 63 24
1.210951 0.27782467 0 72 22
1.1975856 0.44348165 -0.028839409 10 21
1.1878525 0.2721321 -0.055201355 75 20
1.1670753 0.43211031 -0.08373528 10 19
1.1772864 0.2693055 -0.10528712 77 18
1.1508548 0.42583323 -0.13646811 9 17
1.1469014 0.26199847 -0.15860409 93 16
1.3489969 0.50011665 -0.24475394 22 15
1.28185 0.28926054 0.12226879 9 26
1.2544993 0.28313065 0.058345739 65 24
1.2144008 0.27393025 0 70 22
1.2062389 0.44168082 -0.029013492 8 21
1.1887952 0.26798409 -0.055201355 76 20
1.1686512 0.42782986 -0.08373528 9 19
1.1806958 0.26553059 -0.10551065 77 18
1.1453422 0.41923809 -0.1356152 9 17
1.152688 0.25886923 -0.15929218 90 16
1.3438021 0.49284872 -0.24346578 23 15
1.0826218 0.24172871 -0.30746222 40 13
1.2852327 0.28554386 0.12250668 9 26
1.2530413 0.27821285 0.058229282 57 24
1.2153496 0.26968953 0 69 22
1.2030005 0.43596625 -0.028897438 9 21
1.1946014 0.26490527 -0.055434272 76 20
1.1631074 0.42118636 -0.08321733 9 19
1.1815697 0.26161379 -0.10551065 76 18
1.1491323 0.41608781 -0.1358995 9 17
1.1487026 0.25398529 -0.15860409 68 16
1.3339455 0.48393515 -0.24131881 24 15
1.0834591 0.23794819 -0.30746222 49 13
1.2862215 0.28105584 0.12250668 9 26
1.2637193 0.27617216 0.058695115 13 24
1.2186806 0.26618698 0 59 22
1.2021639 0.43091646 -0.028839409 10 21
1.1979142 0.26147056 -0.055550735 70 20
1.166844 0.41817313 -0.083389983 9 19
1.1946455 0.26011452 -0.10662835 24 18
1.1528424 0.41311747 -0.13618381 9 17
1.1568441 0.25153881 -0.15963621 16 16
1.3309098 0.47783637 -0.24046002 25 15
1.081892 0.23385105 -0.30677441 49 13
1.2798926 0.27500829 0.12179304 26 26
1.2695606 0.27280027 0.058928031 7 24
1.2196023 0.26193136 0 10 22
1.2013068 0.42587787 -0.028781384 21 21
1.2037499 0.25811666 -0.055783652 25 20
1.1659474 0.41325966 -0.08321733 9 19
1.1882389 0.25439227 -0.10595773 8 18
1.1520091 0.40805528 -0.1358995 10 17
1.1577151 0.24749914 -0.15963621 9 16
1.3280133 0.47129959 -0.23960124 26 15
1.0803896 0.22938973 -0.30608657 58 13
1.278456 0.26980558 0.12155516 54 26
1.2705519 0.26814523 0.058928031 7 24
1.2205542 0.25745952 0 8 22
1.2005024 0.42064098 -0.028723355 31 21
1.1948656 0.25187048 -0.055317819 8 20
1.1674544 0.40898347 -0.08321733 9 19
1.1891633 0.25003543 -0.10595773 8 18
1.1510839 0.40320572 -0.1356152 10 17
1.1658874 0.24476703 -0.16066834 9 16
1.3273277 0.46584135 -0.23917183 26 15
1.0858915 0.2265894 -0.30746222 61 13
1.2842654 0.26634386 0.12203092 64 26
1.269034 0.26320553 0.058811571 9 24
1.2301347 0.42675048 0.029419679 4 23
1.2238942 0.25370052 0 29 22
1.2043235 0.41727069 -0.028781384 48 21
1.1981838 0.24820022 -0.055434272 37 20
1.1618098 0.40244272 -0.082699381 9 19
1.1875896 0.24538358 -0.1057342 8 18
1.1524845 0.39918524 -0.1356152 11 17
1.1546043 0.23821685 -0.15894812 9 16
1.3103435 0.45471269 -0.2357367 23 15
1.0819647 0.22184165 -0.30608657 60 13
1.2802629 0.26109725 0.12155516 62 26
1.2601537 0.25679633 0.058345739 56 24
1.2268916 0.42082328 0.029303625 7 23
1.2198712 0.24843767 0 66 22
1.1986123 0.41082987 -0.028607301 53 21
1.1916989 0.24253547 -0.055084899 76 20
1.1702811 0.40082321 -0.08321733 9 19
1.1908377 0.24193534 -0.10595773 31 18
1.156219 0.3959693 -0.1358995 10 17
1.1553879 0.23438674 -0.15894812 12 16
1.0827326 0.21806353 -0.30608657 56 13
1.2836076 0.25711137 0.12179304 63 26
1.2560995 0.25164345 0.058112819 63 24
1.2188193 0.41352239 0.029071517 8 23
1.2133317 0.24293174 0 74 22
1.2095014 0.40987018 -0.028839409 50 21
1.1924965 0.23858233 -0.055084899 77 20
1.1645222 0.39452529 -0.082699381 11 19
1.1867894 0.2368115 -0.10551065 79 18
1.1481224 0.38892636 -0.13476226 11 17
1.156199 0.23035225 -0.15894812 72 16
1.1432627 0.38769504 -0.20439102 15 15
1.081091 0.21400997 -0.30539873 59 13
1.2844973 0.25262919 0.12179304 64 26
1.254519 0.2467795 0.057996366 64 24
1.2250633 0.4106501 0.029187571 8 23
1.2141724 0.23869495 0 74 22
1.2085564 0.40484732 -0.028781384 37 21
1.193363 0.23421 -0.055084899 77 20
1.1706189 0.39205143 -0.083044685 23 19
1.1851646 0.23219313 -0.10528712 78 18
1.1542476 0.38630173 -0.13533089 10 17
1.1521339 0.22537337 -0.15826003 94 16
1.1166722 0.37405607 -0.1992383 15 15
1.0889492 0.21140589 -0.30746222 57 13
1.2854146 0.24791957 0.12179304 62 26
1.255415 0.2421798 0.057996366 66 24
1.2241182 0.40558076 0.029129546 8 23
1.2174946 0.23471205 0 74 22
1.2124033 0.40120474 -0.028839409 10 21
1.19172 0.22957498 -0.054968439 77 20
1.1673155 0.3861821 -0.082699381 36 19
1.1835613 0.22738244 -0.10506357 77 18
1.1485195 0.37991583 -0.13447796 10 17
1.1505194 0.22068718 -0.15791598 96 16
1.1179711 0.37015584 -0.1992383 14 15
1.0825948 0.20626843 -0.30539873 59 13
1.3205615 0.249873 0.20476277 8 28
1.286272 0.24343112 0.12179304 63 26
1.2537981 0.23733586 0.057879902 65 24
1.2279003 0.4020876 0.029187571 8 23
1.2158494 0.23000048 0 78 22
1.2043004 0.39384443 -0.028607301 7 21
1.1925142 0.22541369 -0.054968439 77 20
1.1686565 0.38210508 -0.082699381 55 19
1.1867957 0.22370639 -0.10528712 80 18
1.1474794 0.37512785 -0.13419364 10 17
1.1512828 0.21666978 -0.15791598 96 16
1.1192564 0.36625117 -0.1992383 14 15
1.0927622 0.2042353 -0.30815008 58 13
1.3262842 0.24615531 0.20553546 9 28
1.2821773 0.23826329 0.12131728 59 26
1.2595313 0.23386119 0.058112819 65 24
1.2269199 0.39702499 0.029129546 8 23
1.2166446 0.22575498 0 74 22
1.2127296 0.39216936 -0.028781384 6 21
1.2006626 0.22260211 -0.055317819 74 20
1.1628679 0.37570879 -0.082181431 60 19
1.187531 0.21976961 -0.10528712 79 18
1.1605917 0.37496188 -0.1356152 9 17
1.1568668 0.21374142 -0.15860409 94 16
1.1158444 0.36081657 -0.19837952 14 15
1.0863733 0.19913404 -0.30608657 59 13
1.3295239 0.2421945 0.20592181 8 28
1.2830012 0.23378623 0.12131728 64 26
1.2553846 0.22879609 0.057879902 65 24
1.2259191 0.39197412 0.029071517 8 23
1.2149264 0.2212756 0 75 22
1.2093326 0.38640323 -0.02866533 6 21
1.1989745 0.21796745 -0.055201355 74 20
1.1617333 0.37108687 -0.082008779 60 19
1.1882908 0.21562302 -0.10528712 79 18
1.1547997 0.36862808 -0.13476226 9 17
1.1551684 0.2092651 -0.15826003 94 16
1.1194415 0.35767391 -0.19880892 14 15
1.0941614 0.19660147 -0.30815008 66 13
1.3231058 0.23603067 0.20476277 8 28
1.2838495 0.22908221 0.12131728 62 26
1.2562147 0.22419335 0.057879902 65 24
1.2248981 0.38693511 0.029013492 8 23
1.2206531 0.2176903 0 74 22
1.2107407 0.3819682 -0.02866533 6 21
1.199728 0.21378091 -0.055201355 73 20
1.1630856 0.36682639 -0.082008779 61 19
1.1890733 0.21126626 -0.10528712 78 18
1.1560794 0.36459482 -0.13476226 9 17
1.1559275 0.2050298 -0.15826003 95 16
1.1230302 0.35451046 -0.1992383 13 15
1.0924729 0.19236891 -0.30746222 67 13
1.3287891 0.23225324 0.20553546 9 28
1.2870932 0.22502376 0.12155516 64 26
1.2569896 0.21980697 0.057879902 64 24
1.2286257 0.38340607 0.029071517 8 23
1.2189422 0.21300216 0 73 22
1.2120667 0.37773961 -0.02866533 7 21
1.200467 0.20959176 -0.055201355 74 20
1.1619792 0.36201754 -0.081836127 60 19
1.1922573 0.20753686 -0.10551065 79 18
1.1502354 0.35832641 -0.13390934 10 17
1.1590768 0.20141296 -0.15860409 94 16
1.1195617 0.34911194 -0.19837952 13 15
1.0955073 0.18895805 -0.30815008 74 13
1.0846388 0.18596801 -0.36856622 36 12
1.332027 0.22802626 0.20592181 9 28
1.2829252 0.21992177 0.1210794 62 26
1.265136 0.21666993 0.058229282 64 24
1.2227955 0.37689283 0.028897438 8 23
1.2196782 0.20874596 0 74 22
1.2228613 0.37667945 -0.028897438 7 21
1.198729 0.20498362 -0.055084899 76 20
1.1608537 0.35722098 -0.081663482 59 19
1.183118 0.20192447 -0.10461649 74 18
1.1562241 0.35577977 -0.13447796 10 17
1.1572964 0.19715697 -0.15826003 92 16
1.1231256 0.34593171 -0.19880892 13 15
1.0985309 0.18552832 -0.30883789 70 13
1.0573109 0.17754531 -0.35875958 56 12
1.3327758 0.22360787 0.20592181 9 28
1.2861402 0.21584994 0.12131728 65 26
1.2683109 0.21288253 0.058345739 30 24
1.2288176 0.37430149 0.029013492 10 23
1.2228299 0.20510937 0 72 22
1.2169994 0.37021261 -0.028723355 8 21
1.1969384 0.20059904 -0.054968439 78 20
1.1596472 0.35263908 -0.08149083 56 19
1.1887289 0.19860503 -0.10506357 73 18
1.1550226 0.3512162 -0.13419364 10 17
1.1579776 0.19311602 -0.15826003 88 16
1.1219119 0.34148329 -0.19837952 13 15
1.1038842 0.18265961 -0.31021357 72 13
1.0695547 0.17593096 -0.36284572 96 12
1.3286724 0.21816188 0.20514911 9 28
1.2917987 0.21215749 0.12179304 62 26
1.2616515 0.20725234 0.057996366 8 24
1.2301812 0.36979514 0.029013492 20 23
1.2284738 0.20164077 0 40 22
1.2158921 0.36523864 -0.02866533 23 21
1.2025959 0.19700924 -0.055201355 71 20
1.1680326 0.3507553 -0.082008779 58 19
1.1869569 0.19405715 -0.10484004 35 18
1.1586797 0.34769917 -0.13447796 10 17
1.1684232 0.19064954 -0.15963621 37 16
1.1207988 0.3366555 -0.19795014 10 15
1.0997993 0.17785466 -0.30883789 74 13
1.0725259 0.17237969 -0.3636629 98 12
1.3343418 0.21406506 0.20592181 9 28
1.2876519 0.20664108 0.12131728 54 26
1.2722682 0.20419286 0.058462199 10 24
1.2266752 0.36406738 0.028897438 30 23
1.2341429 0.19791988 0 17 22
1.2076428 0.35792023 -0.028433222 48 21
1.20081 0.19241956 -0.055084899 23 20
1.1693105 0.34647188 -0.082008779 61 19
1.1925793 0.19048189 -0.10528712 9 18
1.1622664 0.34436291 -0.13476226 10 17
1.1740062 0.18713625 -0.16032429 9 16
1.1243268 0.33344638 -0.19837952 15 15
1.1027882 0.17438518 -0.30952576 72 13
1.0707862 0.16827296 -0.36284572 99 12
1.322877 0.20751242 0.20399007 9 28
1.2859061 0.20176347 0.1210794 33 26
1.2730916 0.37358332 0.089883685 4 25
1.2729732 0.19975057 0.058462199 59 24
1.2255414 0.35907587 0.028839409 44 23
1.2323558 0.19322781 0 61 22
1.2040901 0.35228959 -0.028317168 54 21
1.2088777 0.1893729 -0.055434272 52 20
1.1681203 0.34168309 -0.081836127 59 19
1.1981586 0.18707715 -0.1057342 8 18
1.1634612 0.34030375 -0.13476226 12 17
1.1697575 0.18228368 -0.15963621 9 16
1.127846 0.33021674 -0.19880892 18 15
1.1010141 0.17017235 -0.30883789 75 13
1.0737031 0.16488791 -0.3636629 100 12
1.3284775 0.20363384 0.20476277 9 28
1.2939495 0.19861843 0.12179304 15 26
1.264811 0.36634389 0.089189604 7 25
1.2637864 0.19380865 0.057996366 67 24
1.2195885 0.35269889 0.02866533 44 23
1.230551 0.18855064 0 73 22
1.2052518 0.34829476 -0.028317168 52 21
1.2021239 0.18403171 -0.055084899 75 20
1.1717008 0.33830017 -0.082008779 62 19
1.188924 0.18161695 -0.10484004 33 18
1.1622572 0.33554667 -0.13447796 19 17
1.1703556 0.17840363 -0.15963621 9 16
1.1313565 0.32696658 -0.1992383 19 15
1.1016015 0.16632804 -0.30883789 79 13
1.1173496 0.32329047 -0.25841203 10 14
1.0719349 0.16079341 -0.36284572 101 12
1.3291456 0.19922735 0.20476277 9 28
1.2995585 0.19483018 0.12226879 9 26
1.2516398 0.35800543 0.088148482 8 25
1.2644222 0.18961672 0.057996366 65 24
1.2256163 0.34982076 0.028781384 48 23
1.2212772 0.18300466 0 75 22
1.2136667 0.346156 -0.028491249 46 21
1.202759 0.17983438 -0.055084899 76 20
1.1704191 0.33372408 -0.081836127 44 19
1.1944774 0.1781915 -0.10528712 78 18
1.1705832 0.33354393 -0.13533089 25 17
1.1636215 0.17323714 -0.15860409 49 16
1.1277571 0.32165438 -0.19837952 14 15
1.0997969 0.16213602 -0.30815008 82 13
1.109104 0.31669161 -0.25617948 18 14
1.0724897 0.1570507 -0.36284572 102 12
1.3347559 0.19506072 0.20553546 9 28
1.2928746 0.18899828 0.12155516 9 26
1.2577417 0.35477871 0.088495523 8 25
1.2651087 0.18498111 0.057996366 65 24
1.2316388 0.34690481 0.028897438 35 23
1.2268887 0.17924124 0 72 22
1.2197366 0.34306812 -0.028607301 19 21
1.2033794 0.17563488 -0.055084899 77 20
1.1812327 0.33215174 -0.082526729 15 19
1.1926578 0.17345847 -0.10506357 77 18
1.1621817 0.32674733 -0.13419364 32 17
1.1593461 0.16826901 -0.15791598 93 16
1.1241341 0.31637132 -0.19752073 13 15
1.0979763 0.1579586 -0.30746222 81 13
1.1149459 0.31395555 -0.25729576 22 14
1.0753709 0.15363526 -0.3636629 103 12
1.3305371 0.18971117 0.20476277 9 28
1.2910622 0.18413697 0.12131728 9 26
1.2541696 0.34903982 0.088148482 8 25
1.2632737 0.18021552 0.057879902 64 24
1.2400625 0.34462485 0.029071517 12 23
1.2275069 0.1749575 0 73 22
1.2112985 0.33611649 -0.028375195 7 21
1.2039851 0.17143323 -0.055084899 77 20
1.1847868 0.32869798 -0.082699381 7 19
1.1932561 0.16929425 -0.10506357 79 18
1.1657073 0.32335737 -0.13447796 40 17
1.1574742 0.16387865 -0.15757194 95 16
1.1252317 0.31244546 -0.19752073 17 15
1.1056637 0.15511228 -0.30952576 78 13
1.1089952 0.30808955 -0.25562137 28 14
1.0759006 0.14988059 -0.3636629 104 12
1.3385322 0.18607377 0.20592181 9 28
1.2965965 0.18053271 0.12179304 9 26
1.2625915 0.34665421 0.088669039 8 25
1.2638952 0.17580476 0.057879902 63 24
1.2316215 0.33763257 0.028839409 7 23
1.2231563 0.16999221 0 73 22
1.2196342 0.33409277 -0.028549276 6 21
1.2070503 0.1675684 -0.055201355 74 20
1.1835226 0.32389712 -0.082526729 7 19
1.1962779 0.16567342 -0.10528712 77 18
1.1692233 0.31994671 -0.13476226 61 17
1.1604646 0.16037375 -0.15791598 96 16
1.1334375 0.31048283 -0.19880892 18 15
1.1014345 0.15061028 -0.30815008 81 13
1.1100109 0.30441034 -0.25562137 28 14
1.0740755 0.1458112 -0.36284572 105 12
1.3366938 0.18130605 0.20553546 9 28
1.2972188 0.17600563 0.12179304 9 26
1.2613282 0.34180859 0.088495523 8 25
1.2644712 0.17161256 0.057879902 64 24
1.2375569 0.33486131 0.028955463 6 23
1.2261913 0.16626665 0 72 22
1.2183814 0.32917681 -0.028491249 6 21
1.2001735 0.16257262 -0.054851983 77 20
1.1821839 0.31931546 -0.082354084 7 19
1.1894443 0.16051126 -0.10461649 77 18
1.1654847 0.31476271 -0.13419364 68 17
1.1659268 0.15697359 -0.15860409 95 16
1.1368369 0.30737031 -0.1992383 19 15
1.1043109 0.14726986 -0.30883789 83 13
1.1134176 0.30117521 -0.25617948 25 14
1.0651815 0.14102815 -0.35957682 107 12
1.3397678 0.17695841 0.20592181 9 28
1.2928898 0.17083278 0.12131728 9 26
1.2673301 0.3387005 0.088842563 8 25
1.2724916 0.16816652 0.058229282 66 24
1.2436033 0.33162028 0.029071517 6 23
1.2292433 0.16230828 0 71 22
1.2195231 0.32492185 -0.028491249 7 21
1.2007613 0.15817267 -0.054851983 76 20
1.1808825 0.31454018 -0.082181431 7 19
1.194936 0.15699801 -0.10506357 80 18
1.1666305 0.31048891 -0.13419364 71 17
1.1615559 0.15226834 -0.15791598 96 16
1.1450913 0.3051188 -0.20052649 19 15
1.1048433 0.14322136 -0.30883789 87 13
1.1097559 0.29602048 -0.25506324 25 14
1.0633472 0.13682657 -0.35875958 110 12
1.3428577 0.17235716 0.20630814 8 28
1.3058521 0.16765682 0.12250668 9 26
1.2637419 0.33277404 0.088495523 8 25
1.2706219 0.16318761 0.058112819 67 24
1.2399215 0.32599699 0.028955463 7 23
1.2248694 0.15717426 0 72 22
1.2207057 0.32044992 -0.028491249 7 21
1.2037836 0.15429325 -0.054968439 74 20
1.1796165 0.30957201 -0.082008779 7 19
1.193033 0.15230651 -0.10484004 77 18
1.162905 0.3051441 -0.13362503 73 17
1.1621062 0.14801 -0.15791598 96 16
1.1366265 0.29859665 -0.19880892 18 15
1.1077217 0.1396597 -0.30952576 90 13
1.1061223 0.2907019 -0.25394699 25 14
1.0614734 0.13282564 -0.3579424 112 12
1.3409996 0.1673668 0.20592181 8 28
1.296549 0.16188091 0.12155516 9 26
1.2673085 0.32899192 0.088669039 8 25
1.263748 0.15783569 0.057763446 66 24
1.2434701 0.32229862 0.029013492 7 23
1.2278919 0.1532028 0 70 22
1.2242353 0.31681773 -0.028549276 7 21
1.2043149 0.15009032 -0.054968439 77 20
1.1879296 0.30734101 -0.082526729 7 19
1.1910857 0.14783897 -0.10461649 81 18
1.1687697 0.30233678 -0.13419364 68 17
1.1626158 0.14395258 -0.15791598 94 16
1.1352789 0.2940048 -0.19837952 17 15
1.1082023 0.13579218 -0.30952576 88 13
1.109488 0.28745538 -0.25450513 27 14
1.0642766 0.12939975 -0.35875958 110 12
1.3415757 0.16268483 0.20592181 9 28
1.2970786 0.15758051 0.12155516 10 26
1.2684492 0.32456616 0.088669039 8 25
1.2667708 0.15371998 0.057879902 63 24
1.2421671 0.31733289 0.028955463 7 23
1.2259368 0.14861929 0 74 22
1.2276996 0.31337911 -0.028607301 7 21
1.2023519 0.14558989 -0.054851983 76 20
1.1841643 0.30195031 -0.082181431 7 19
1.1989871 0.14477025 -0.10528712 77 18
1.1674125 0.29763666 -0.13390934 68 17
1.1630868 0.14009643 -0.15791598 93 16
1.1315283 0.28881183 -0.19752073 16 15
1.1086698 0.131923 -0.30952576 92 13
1.1080754 0.28316608 -0.25394699 26 14
1.0694157 0.12622787 -0.36039403 109 12
1.3000929 0.15333925 0.12179304 10 26
1.2622674 0.31851381 0.088148482 9 25
1.2722349 0.15009505 0.058112819 64 24
1.2384223 0.31176537 0.028839409 7 23
1.2289064 0.14484133 0 72 22
1.2239408 0.307863 -0.028491249 7 21
1.2028527 0.14139201 -0.054851983 76 20
1.1779066 0.29618263 -0.081663482 9 19
1.1945381 0.14001347 -0.10484004 77 18
1.1636288 0.29233956 -0.13334073 71 17
1.1660289 0.13631856 -0.15826003 94 16
1.1325295 0.28486031 -0.19752073 19 15
1.1067352 0.12778139 -0.30883789 96 13
1.1137807 0.28049701 -0.25506324 28 14
1.0698497 0.12249415 -0.36039403 110 12
1.3006462 0.14857313 0.12179304 10 26
1.2731035 0.31630877 0.088842563 15 25
1.2727765 0.14543106 0.058112819 65 24
1.2443522 0.30865327 0.028955463 14 23
1.2294289 0.14033619 0 70 22
1.2274858 0.30398047 -0.028549276 10 21
1.2083025 0.13774915 -0.055084899 76 20
1.1838237 0.29307181 -0.082008779 26 19
1.202467 0.13646311 -0.10551065 75 18
1.1646422 0.28827596 -0.13334073 70 17
1.1665206 0.13204393 -0.15826003 93 16
1.1359062 0.28150281 -0.19795014 18 15
1.1047853 0.12365489 -0.30815008 98 13
1.1148013 0.2764129 -0.25506324 28 14
1.0679221 0.11850336 -0.35957682 111 12
1.3036311 0.14430176 0.12203092 9 26
1.2645143 0.30947316 0.088148482 28 25
1.2732763 0.14098734 0.058112819 64 24
1.2357149 0.30191627 0.028723355 41 23
1.2323966 0.13631426 0 38 22
1.2164046 0.29670879 -0.028259141 33 21
1.2137412 0.13406995 -0.055317819 59 20
1.1824176 0.28834194 -0.081836127 49 19
1.1955093 0.13146204 -0.10484004 65 18
1.1656414 0.28420883 -0.13334073 69 17
1.1620505 0.12744065 -0.15757194 83 16
1.1368821 0.27753606 -0.19795014 20 15
1.1099904 0.12030602 -0.30952576 96 13
1.1133933 0.27193648 -0.25450513 29 14
1.0800776 0.11601178 -0.3636629 110 12
1.3041023 0.13997798 0.12203092 9 26
1.2655869 0.30505729 0.088148482 39 25
1.2737608 0.13654192 0.058112819 63 24
1.2294749 0.29583281 0.028549276 53 23
1.2328649 0.13201156 0 70 22
1.2198107 0.29326239 -0.028317168 54 21
1.2142018 0.12983239 -0.055317819 55 20
1.1761453 0.28245091 -0.081318185 62 19
1.2058444 0.1285345 -0.1057342 14 18
1.1666265 0.28013825 -0.13334073 70 17
1.1723181 0.1246149 -0.15894812 29 16
1.1378438 0.27356589 -0.19795014 20 15
1.1127944 0.11667651 -0.31021357 90 13
1.1190249 0.26939383 -0.25562137 28 14
1.3070588 0.13567774 0.12226879 9 26
1.2690169 0.30143973 0.088321999 46 25
1.2717222 0.13206355 0.057996366 64 24
1.2401724 0.29407948 0.028781384 52 23
1.2308089 0.12766901 0 74 22
1.2159649 0.28784165 -0.028201113 52 21
1.2071723 0.12504683 -0.054968439 74 20
1.1795013 0.27912834 -0.08149083 63 19
1.1988537 0.12357223 -0.10506357 36 18
1.1699648 0.27684489 -0.13362503 68 17
1.1678184 0.12002495 -0.15826003 10 16
1.1459308 0.27150971 -0.1992383 20 15
1.1083918 0.11250994 -0.30883789 83 13
1.1152185 0.26435164 -0.25450513 28 14
1.3000945 0.13038199 0.12155516 8 26
1.2652067 0.29586324 0.087974958 42 25
1.277146 0.12811361 0.058229282 62 24
1.2363759 0.28838721 0.02866533 34 23
1.233735 0.12361673 0 71 22
1.2145293 0.28302342 -0.028143087 27 21
1.2076224 0.12062148 -0.054968439 76 20
1.1828963 0.2755802 -0.081663482 37 19
1.2017561 0.11962882 -0.10528712 80 18
1.1709716 0.2725549 -0.13362503 64 17
1.175624 0.11666752 -0.15929218 37 16
1.1373285 0.26505157 -0.19752073 23 15
1.1040115 0.1079885 -0.30746222 83 13
1.1208783 0.26157507 -0.25562137 30 14
1.2939022 0.29810053 0.15783224 7 27
1.2980862 0.12538096 0.12131728 8 26
1.2614236 0.29009691 0.087627918 27 25
1.277607 0.12343177 0.058229282 36 24
1.2446797 0.28576142 0.028839409 10 23
1.2316909 0.11885832 0 74 22
1.2204287 0.2796962 -0.028259141 8 21
1.2080361 0.11640535 -0.054968439 75 20
1.1911881 0.27292845 -0.082181431 10 19
1.1972284 0.1147573 -0.10484004 78 18
1.1719159 0.26846579 -0.13362503 30 17
1.1661819 0.11143433 -0.15791598 91 16
1.1454449 0.26274705 -0.19880892 22 15
1.1091685 0.10457565 -0.30883789 93 13
1.1147076 0.25581431 -0.25394699 29 14
1.2925156 0.29302901 0.15752929 8 27
1.300994 0.12107544 0.12155516 8 26
1.2672914 0.28680211 0.087974958 9 25
1.2830038 0.11942574 0.058462199 26 24
1.2407959 0.2803041 0.028723355 7 23
1.2370777 0.11501223 0 74 22
1.2165235 0.27432525 -0.028143087 7 21
1.2059481 0.11196148 -0.054851983 78 20
1.1848379 0.26710859 -0.081663482 7 19
1.2050611 0.11125061 -0.10551065 78 18
1.1752678 0.26492453 -0.13390934 9 17
1.1665637 0.10736291 -0.15791598 96 16
1.1391512 0.25710514 -0.19752073 30 15
1.111921 0.10091569 -0.30952576 96 13
1.1155938 0.25192171 -0.25394699 29 14
1.2983727 0.28960493 0.15813518 8 27
1.2989095 0.11654234 0.12131728 8 26
1.2682849 0.28237671 0.087974958 6 25
1.2834128 0.1149465 0.058462199 13 24
1.2417667 0.2759712 0.028723355 6 23
1.2349811 0.11047499 0 71 22
1.2198653 0.27083609 -0.028201113 7 21
1.2088194 0.1079689 -0.054968439 78 20
1.1833293 0.26242623 -0.08149083 7 19
1.2029428 0.10703773 -0.10528712 79 18
1.1786091 0.26136312 -0.13419364 7 17
1.1669134 0.10349386 -0.15791598 96 16
1.1400417 0.25312719 -0.19752073 34 15
1.1074767 0.096625656 -0.30815008 98 13
1.1211784 0.24928905 -0.25506324 30 14
1.2920575 0.28368768 0.15722635 8 27
1.3017881 0.11221711 0.12155516 8 26
1.2667791 0.27763084 0.087801442 6 25
1.2812985 0.11047964 0.058345739 11 24
1.23296 0.26948139 0.028491249 6 23
1.2328495 0.10616898 0 72 22
1.2256849 0.26765227 -0.028317168 6 21
1.2116776 0.10395766 -0.055084899 79 20
1.1939353 0.26064801 -0.082181431 7 19
1.2033092 0.10283802 -0.10528712 78 18
1.1746629 0.25617903 -0.13362503 7 17
1.1697353 0.099625431 -0.15826003 95 16
1.1409184 0.24914615 -0.19752073 38 15
1.1030163 0.092367887 -0.30677441 99 13
1.1244212 0.24589966 -0.25562137 30 14
1.2906637 0.27842239 0.15692341 8 27
1.3021905 0.10744508 0.12155516 8 26
1.2726623 0.27404517 0.088148482 6 25
1.2816949 0.10578271 0.058345739 10 24
1.2461058 0.26782531 0.028781384 6 23
1.2332304 0.10164965 0 72 22
1.2339857 0.26474518 -0.028491249 6 21
1.212033 0.099727482 -0.055084899 76 20
1.1900077 0.25521448 -0.081836127 7 19
1.203678 0.098426983 -0.10528712 79 18
1.180405 0.25312859 -0.13419364 7 17
1.1700926 0.09533748 -0.15826003 94 16
1.1321536 0.24307352 -0.19580317 51 15
1.1081243 0.08889173 -0.30815008 100 13
1.1181707 0.24022564 -0.25394699 32 14
1.2892011 0.27339607 0.15662047 8 27
1.3025577 0.10289893 0.12155516 9 26
1.2638556 0.26751679 0.087454401 6 25
1.2845461 0.10150057 0.058462199 9 24
1.2421443 0.26243123 0.02866533 6 23
1.2335777 0.097344257 0 73 22
1.2275687 0.25887468 -0.028317168 6 21
1.2098837 0.095304489 -0.054968439 76 20
1.1884519 0.25053963 -0.081663482 7 19
1.2040143 0.094224758 -0.10528712 78 18
1.1812814 0.24900667 -0.13419364 7 17
1.1704183 0.091252506 -0.15826003 94 16
1.1329952 0.2391201 -0.19580317 65 15
1.1036342 0.084665194 -0.30677441 99 13
1.1237688 0.23733851 -0.25506324 32 14
1.2974329 0.27042687 0.15752929 8 27
1.3004102 0.098395377 0.12131728 8 26
1.2672223 0.26361603 0.087627918 7 25
1.2848927 0.097016051 0.058462199 9 24
1.2528374 0.26014498 0.028897438 7 23
1.2364032 0.093221202 0 70 22
1.2259741 0.25429007 -0.028259141 7 21
1.2077185 0.090897739 -0.054851983 76 20
1.1893193 0.24638964 -0.081663482 7 19
1.2018367 0.090050086 -0.10506357 80 18
1.1821434 0.2448817 -0.13419364 8 17
1.1731842 0.087550387 -0.15860409 93 16
1.1314125 0.23465841 -0.19537376 78 15
1.1063203 0.080982849 -0.30746222 100 13
1.1245497 0.23361064 -0.25506324 33 14
1.2958924 0.26562011 0.15722635 8 27
1.3081931 0.094380185 0.12203092 8 26
1.2632047 0.25840339 0.087280877 7 25
1.2852073 0.092754662 0.058462199 9 24
1.243902 0.25397021 0.02866533 7 23
1.2342117 0.088945366 0 70 22
1.2341983 0.2515206 -0.028433222 7 21
1.2105043 0.087066934 -0.054968439 73 20
1.1925725 0.24294712 -0.081836127 8 19
1.2046278 0.086027168 -0.10528712 78 18
1.1829489 0.24096023 -0.13419364 8 17
1.1734827 0.083454676 -0.15860409 93 16
1.1370087 0.23189987 -0.19623254 78 15
1.1113789 0.077639006 -0.30883789 99 13
1.1277449 0.23017631 -0.25562137 32 14
1.3016754 0.26208365 0.15783224 9 27
1.3035482 0.089480698 0.12155516 8 26
1.2640989 0.25399238 0.087280877 8 25
1.2880149 0.088434696 0.058578655 9 24
1.2423748 0.24891366 0.028607301 7 23
1.237009 0.084803179 0 68 22
1.2301694 0.24622037 -0.028317168 7 21
1.215799 0.082960635 -0.055201355 72 20
1.1860797 0.2373001 -0.081318185 8 19
1.2049208 0.081821717 -0.10528712 78 18
1.1765205 0.23514754 -0.13334073 8 17
1.1712959 0.079195574 -0.15826003 94 16
1.1354371 0.2272425 -0.19580317 79 15
1.1092573 0.073411226 -0.30815008 100 13
1.1309298 0.22672254 -0.25617948 36 14
1.3050607 0.25779641 0.15813518 18 27
1.3063512 0.084859483 0.12179304 8 26
1.2674675 0.24984454 0.087454401 29 25
1.285838 0.083555616 0.058462199 9 24
1.2456874 0.24506262 0.02866533 8 23
1.2447968 0.080740973 0 38 22
1.2310635 0.2417099 -0.028317168 7 21
1.2135888 0.078559399 -0.055084899 73 20
1.1918342 0.23392184 -0.081663482 9 19
1.2027272 0.077249855 -0.10506357 79 18
1.1870793 0.23297241 -0.13447796 22 17
1.1740497 0.075055346 -0.15860409 93 16
1.1362236 0.2232777 -0.19580317 79 15
1.1143051 0.069829695 -0.30952576 98 13
1.1293631 0.22210054 -0.25562137 34 14
1.2986468 0.25180858 0.15722635 23 27
1.3066394 0.080298953 0.12179304 8 26
1.2732271 0.24637558 0.087801442 47 25
1.2886149 0.079215668 0.058578655 9 24
1.239176 0.23927703 0.028491249 26 23
1.2375842 0.075949222 0 13 22
1.2318997 0.23741123 -0.028317168 20 21
1.2238271 0.074915119 -0.055550735 35 20
1.1901954 0.22928339 -0.08149083 28 19
1.2054754 0.073197462 -0.10528712 79 18
1.1854473 0.22835253 -0.13419364 38 17
1.1718326 0.070811994 -0.15826003 93 16
1.1345786 0.21883856 -0.19537376 78 15
1.1217408 0.066350915 -0.31158924 97 13
1.1301315 0.21815698 -0.25562137 33 14
1.2970809 0.24680555 0.15692341 25 27
1.3044138 0.075825304 0.12155516 8 26
1.2642822 0.24005015 0.08710736 48 25
1.2888834 0.074717082 0.058578655 9 24
1.2424585 0.23542009 0.028549276 46 23
1.2453301 0.072048761 0 53 22
1.2253158 0.23191594 -0.028143087 41 21
1.2141078 0.070085108 -0.055084899 10 20
1.1836394 0.2237229 -0.08097288 52 19
1.2057114 0.069199562 -0.10528712 78 18
1.1764786 0.22234809 -0.13305642 64 17
1.1720608 0.06692566 -0.15826003 95 16
1.1377546 0.21533999 -0.19580317 77 15
1.1332419 0.21486725 -0.25617948 33 14
1.2930151 0.24158226 0.15631753 25 27
1.3071557 0.071403146 0.12179304 8 26
1.2699729 0.23677985 0.087454401 40 25
1.2866303 0.07031057 0.058462199 9 24
1.2432725 0.23108165 0.028549276 33 23
1.2380725 0.067523569 0 68 22
1.2261178 0.22763738 -0.028143087 37 21
1.2218264 0.066238739 -0.055434272 43 20
1.1892773 0.2207167 -0.081318185 62 19
1.203459 0.06486097 -0.10506357 42 18
1.1772476 0.21824005 -0.13305642 70 17
1.1722875 0.062834002 -0.15826003 82 16
1.1384993 0.21136716 -0.19580317 72 15
1.133985 0.21091017 -0.25617948 34 14
1.2963321 0.23729287 0.15662047 24 27
1.3098944 0.066734143 0.12203092 8 26
1.2708323 0.23212357 0.087454401 22 25
1.2868794 0.06559436 0.058462199 9 24
1.2563615 0.22900487 0.028839409 10 23
1.2458026 0.063353032 0 67 22
1.2367764 0.22495005 -0.028375195 14 21
1.2145674 0.061607398 -0.055084899 75 20
1.1827196 0.21500306 -0.080800228 33 19
1.2061758 0.060569972 -0.10528712 76 18
1.1755595 0.21368018 -0.13277212 71 17
1.1774565 0.058774542 -0.15894812 39 16
1.1440743 0.20828433 -0.19666195 31 15
1.1323541 0.20631051 -0.25562137 34 14
1.2995943 0.23320927 0.15692341 24 27
1.3076333 0.06204759 0.12179304 9 26
1.2740887 0.22813033 0.087627918 8 25
1.2895952 0.061216075 0.058578655 9 24
1.2473152 0.22284073 0.028607301 7 23
1.2410214 0.058776297 0 63 22
1.2350945 0.22018807 -0.028317168 7 21
1.2172698 0.057480667 -0.055201355 75 20
1.1908263 0.21220082 -0.081318185 9 19
1.2038924 0.056247611 -0.10506357 77 18
1.1738538 0.20913468 -0.1324878 35 17
1.172707 0.054443754 -0.15826003 93 16
1.1496415 0.20516513 -0.19752073 9 15
1.1354653 0.20279023 -0.25617948 36 14
1.305287 0.22954006 0.15752929 19 27
1.3202639 0.058238558 0.12298243 9 26
1.2724218 0.2232459 0.087454401 6 25
1.2922962 0.056819621 0.058695115 10 24
1.2505463 0.21892117 0.02866533 6 23
1.2437167 0.054549087 0 67 22
1.2382789 0.21652642 -0.028375195 7 21
1.2149681 0.053126685 -0.055084899 74 20
1.1915597 0.20804279 -0.081318185 8 19
1.2065601 0.052358452 -0.10528712 79 18
1.1745765 0.20503591 -0.1324878 9 17
1.1728811 0.050554618 -0.15826003 95 16
1.1430752 0.19986279 -0.19623254 8 15
1.1361315 0.19902377 -0.25617948 35 14
1.3035963 0.22478409 0.15722635 10 27
1.2780691 0.21988015 0.087801442 6 25
1.2899821 0.052436724 0.058578655 9 24
1.2438781 0.21349032 0.028491249 6 23
1.2488871 0.050618157 0 50 22
1.2390271 0.21220271 -0.028375195 7 21
1.2151375 0.049097415 -0.055084899 75 20
1.1971579 0.20494185 -0.081663482 7 19
1.2067355 0.048146456 -0.10528712 79 18
1.1874868 0.20325996 -0.13390934 8 17
1.1730504 0.046460185 -0.15826003 95 16
1.1485848 0.19691378 -0.19709133 8 15
1.1416212 0.19589134 -0.25729576 36 14
1.3019651 0.2195874 0.15692341 8 27
1.2739494 0.21435736 0.087454401 6 25
1.285174 0.047532301 0.058345739 9 24
1.2471162 0.20934837 0.028549276 6 23
1.2490642 0.046040412 0 29 22
1.2422608 0.2080777 -0.028433222 7 21
1.2178049 0.044730533 -0.055201355 74 20
1.1954421 0.2001359 -0.08149083 7 19
1.2093923 0.043808818 -0.10551065 80 18
1.1857748 0.19849117 -0.13362503 7 17
1.1756876 0.042244688 -0.15860409 96 16
1.1541551 0.19352753 -0.19795014 8 15
1.1351243 0.19048026 -0.25562137 39 14
1.300276 0.21463265 0.15662047 8 27
1.2771498 0.21031903 0.087627918 6 25
1.2903242 0.043204546 0.058578655 9 24
1.2453738 0.20458393 0.028491249 6 23
1.2517161 0.041759051 0 24 22
1.2380483 0.202922 -0.028317168 7 21
1.2204497 0.040557772 -0.055317819 73 20
1.193673 0.19555362 -0.081318185 7 19
1.2095379 0.03958698 -0.10551065 79 18
1.1815599 0.19353779 -0.13305642 7 17
1.1733528 0.038064897 -0.15826003 95 16
1.1499646 0.18868969 -0.19709133 8 15
1.1309745 0.18571658 -0.25450513 50 14
1.3059156 0.21089287 0.15722635 8 27
1.2680302 0.20425439 0.086933829 6 25
1.2854745 0.038559012 0.058345739 9 24
1.2559479 0.20184076 0.028723355 7 23
1.2568524 0.037529971 0 10 22
1.2387146 0.19881538 -0.028317168 7 21
1.2180876 0.036227629 -0.055201355 75 20
1.1869628 0.19018689 -0.080800228 7 19
1.2071735 0.035507139 -0.10528712 80 18
1.1822283 0.18941219 -0.13305642 8 17
1.1759479 0.034241121 -0.15860409 95 16
1.1481854 0.18427898 -0.19666195 8 15
1.1315843 0.1819651 -0.25450513 62 14
1.3017069 0.20577703 0.15662047 8 27
1.2711635 0.20044149 0.08710736 7 25
1.293085 0.034482978 0.058695115 9 24
1.2664833 0.19924735 0.028955463 7 23
1.2569698 0.033361893 0 10 22
1.239401 0.19449024 -0.028317168 7 21
1.2206975 0.032249555 -0.055317819 74 20
1.1949763 0.18742406 -0.081318185 7 19
1.2097794 0.031353068 -0.10551065 77 18
1.1877558 0.1862704 -0.13362503 8 17
1.1785358 0.03019486 -0.15894812 95 16
1.1512222 0.18085782 -0.19709133 8 15
1.1225865 0.17647909 -0.25227264 73 14
1.2999655 0.20084846 0.15631753 8 27
1.2693912 0.19561851 0.086933829 7 25
1.295694 0.030022664 0.058811571 9 24
1.2573264 0.19306774 0.028723355 7 23
1.2595782 0.029027278 0 10 22
1.2450117 0.19093004 -0.028433222 7 21
1.2183107 0.027722962 -0.055201355 72 20
1.1906945 0.182486 -0.08097288 7 19
1.2098813 0.027129959 -0.10551065 78 18
1.1859763 0.18153499 -0.13334073 8 17
1.1761584 0.026030688 -0.15860409 96 16
1.1470102 0.17588019 -0.19623254 8 15
1.1280113 0.17331013 -0.25338888 78 14
1.303146 0.19645701 0.15662047 8 27
1.2799618 0.19246674 0.087627918 8 25
1.2957954 0.025273506 0.058811571 9 24
1.2678766 0.19017956 0.028955463 7 23
1.2621756 0.024454564 0 10 22
1.2407609 0.18561636 -0.028317168 7 21
1.2233938 0.023557259 -0.055434272 72 20
1.1987528 0.17924206 -0.08149083 7 19
1.2124623 0.022737494 -0.1057342 78 18
1.1939698 0.17851084 -0.13419364 8 17
1.1787217 0.021760734 -0.15894812 96 16
1.1549218 0.17298529 -0.19752073 8 15
1.1262299 0.16880807 -0.25283074 84 14
1.3038238 0.19190699 0.15662047 8 27
1.2707585 0.18653001 0.086933829 32 25
1.2958758 0.02075018 0.058811571 9 24
1.261116 0.18465218 0.028781384 7 23
1.2647531 0.020083943 0 10 22
1.2487866 0.18260004 -0.028491249 7 21
1.2259657 0.019321544 -0.055550735 58 20
1.1919698 0.17396097 -0.08097288 8 19
1.2075516 0.018648906 -0.10528712 76 18
1.1823007 0.17252356 -0.13277212 8 17
1.1787875 0.017851831 -0.15894812 95 16
1.1506464 0.16822983 -0.19666195 8 15
1.1267834 0.16507244 -0.25283074 87 14
1.2970861 0.18650888 0.15571165 8 27
1.2763063 0.18303245 0.087280877 50 25
1.2984345 0.016480248 0.058928031 9 24
1.2617214 0.18046916 0.028781384 15 23
1.2623128 0.015862707 0 10 22
1.2370483 0.17645098 -0.028201113 8 21
1.2335144 0.015335748 -0.055900108 10 20
1.1999451 0.17107832 -0.08149083 8 19
1.2200584 0.014559676 -0.10640481 76 18
1.1902407 0.16966859 -0.13362503 10 17
1.1788425 0.013736987 -0.15894812 96 16
1.1560726 0.16512004 -0.19752073 8 15
1.1273528 0.16113821 -0.25283074 87 14
1.3050998 0.18302777 0.15662047 8 27
1.2769372 0.17857622 0.087280877 48 25
1.2884953 0.011872798 0.058462199 9 24
1.2623744 0.17584349 0.028781384 29 23
1.2573606 0.011419664 0 11 22
1.235182 0.17178269 -0.028143087 23 21
1.2410541 0.010866893 -0.056249484 8 20
1.1980654 0.16654032 -0.081318185 23 19
1.2101423 0.010234731 -0.10551065 71 18
1.1834762 0.16426541 -0.13277212 32 17
1.1764071 0.0096064163 -0.15860409 95 16
1.1493541 0.1598483 -0.19623254 9 15
1.1254954 0.15686038 -0.25227264 88 14
1.3057619 0.17824312 0.15662047 8 27
1.2825243 0.17457691 0.087627918 47 25
1.2910274 0.007159736 0.058578655 9 24
1.2555525 0.17041312 0.028607301 17 23
1.2673939 0.006847783 0 10 22
1.2382793 0.1675944 -0.028201113 22 21
1.2335926 0.0065085869 -0.055900108 9 20
1.1961969 0.16180871 -0.081145532 37 19
1.2076818 0.0057918825 -0.10528712 13 18
1.1815817 0.15979534 -0.1324878 56 17
1.183863 0.0053140521 -0.15963621 93 16
1.1450255 0.15516344 -0.19537376 9 15
1.1236488 0.15240133 -0.2517145 89 14
1.3039168 0.17335242 0.15631753 8 27
1.2806543 0.16976658 0.087454401 47 25
1.2960391 0.0026549085 0.058811571 9 24
1.2635713 0.16702624 0.028781384 7 23
1.2599102 0.0024224012 0 10 22
1.2363511 0.16315536 -0.028143087 9 21
1.2336078 0.0022025055 -0.055900108 38 20
1.2016984 0.15829365 -0.08149083 25 19
1.220144 0.0017826878 -0.10640481 29 18
1.1845943 0.15599924 -0.13277212 69 17
1.1838742 0.0013881919 -0.15963621 91 16
1.155324 0.15247533 -0.19709133 33 15
1.1289783 0.14932398 -0.25283074 85 14
1.3069451 0.16935101 0.15662047 8 27
1.2836829 0.16584308 0.087627918 37 25
1.2960408 -0.0016429268 0.058811571 9 24
1.2566835 0.16186298 0.028607301 6 23
1.2624112 -0.0017634789 0 10 22
1.2443483 0.15980829 -0.028317168 7 21
1.2261165 -0.001863454 -0.055550735 71 20
1.1947975 0.15334027 -0.08097288 8 19
1.210183 -0.0024381774 -0.10551065 77 18
1.1826421 0.15174893 -0.1324878 38 17
1.1789194 -0.0027235642 -0.15894812 96 16
1.1533812 0.14832398 -0.19666195 33 15
1.12466 0.14474942 -0.2517145 76 14
1.3099897 0.16510279 0.15692341 8 27
1.2768323 0.16041437 0.08710736 27 25
1.29353 -0.0061508175 0.058695115 9 24
1.2647065 0.15820085 0.028781384 6 23
1.2673973 -0.0062032668 0 10 22
1.2399393 0.15483463 -0.028201113 7 21
1.2236042 -0.0063399486 -0.055434272 74 20
1.2002739 0.14979647 -0.081318185 7 19
1.2101672 -0.0066624898 -0.10551065 76 18
1.1807263 0.14710116 -0.13220349 10 17
1.1813788 -0.0068577603 -0.15929218 96 16
1.1563604 0.14440599 -0.19709133 15 15
1.1372454 0.14236253 -0.25450513 33 14
1.3031981 0.15938273 0.15601459 8 27
1.2897869 0.15726613 0.087974958 16 25
1.3009902 -0.010967638 0.059044488 9 24
1.2578095 0.15286626 0.028607301 6 23
1.2648662 -0.010822725 0 10 22
1.2454599 0.15089992 -0.028317168 7 21
1.2260718 -0.010637238 -0.055550735 73 20
1.1958641 0.14478663 -0.08097288 7 19
1.2126245 -0.011125308 -0.1057342 77 18
1.1910932 0.14419299 -0.13334073 8 17
1.1813458 -0.011187684 -0.15929218 91 16
1.1544132 0.14006683 -0.19666195 9 15
1.135341 0.13789426 -0.25394699 15 14
1.3062102 0.15513 0.15631753 8 27
1.2903279 0.15276296 0.087974958 10 25
1.3009441 -0.015508874 0.059044488 9 24
1.2632985 0.14907008 0.028723355 6 23
1.2648207 -0.015237867 0 10 22
1.2385341 0.14566113 -0.028143087 7 21
1.2310214 -0.014986698 -0.055783652 72 20
1.201315 0.14120373 -0.081318185 7 19
1.2125784 -0.015358089 -0.1057342 78 18
1.1866568 0.13944452 -0.13277212 7 17
1.1862514 -0.01538475 -0.15998025 92 16
1.1548951 0.13603632 -0.19666195 8 15
1.1479131 0.13538361 -0.25673762 9 14
1.3116732 0.15114687 0.15692341 8 27
1.2933306 0.1485472 0.088148482 9 25
1.3083726 -0.020178059 0.059393868 9 24
1.263811 0.14465943 0.028723355 7 23
1.2697592 -0.019739212 0 10 22
1.2464583 0.14241892 -0.028317168 7 21
1.2284646 -0.019240087 -0.055667192 60 20
1.1993232 0.13672197 -0.081145532 7 19
1.2125207 -0.019379063 -0.1057342 81 18
1.182202 0.13472879 -0.13220349 7 17
1.1837181 -0.019273473 -0.15963621 87 16
