# .PCD v0.7 - Point Cloud Data file format
VERSION 0.7
FIELDS x y z intensity ring
SIZE 4 4 4 4 2
TYPE F F F F U
COUNT 1 1 1 1 1
WIDTH 1194
HEIGHT 1
VIEWPOINT 0 0 0 1 0 0 0
POINTS 1194
DATA ascii
0.83152908 0.032984555 0.018510606 68 23
0.79933238 -0.070252083 0 9 22
0.82154655 0.032415558 -0.0182785 28 21
0.77609497 -0.068418562 -0.034704652 53 20
0.80243742 0.031598527 -0.053176221 69 19
0.76894552 -0.068032369 -0.066167697 28 18
0.78936219 0.030899558 -0.086429812 80 17
0.7549988 -0.067017771 -0.10046072 36 16
0.76330811 0.030047061 -0.1271003 79 15
0.76536298 0.030383952 -0.16743758 28 14
0.93999183 0.036559403 0.24169442 6 31
0.90812576 0.034465604 0.16859999 5 29
0.85629863 -0.078411877 0.12903918 7 28
0.87555242 0.032399405 0.10269699 7 27
0.83030331 -0.075975984 0.076358527 71 26
0.86480975 0.031675469 0.057782371 20 25
0.81814301 -0.074836902 0.036684446 9 24
0.8291418 0.029984092 0.018452579 69 23
0.79409158 -0.072711632 0 14 22
0.8241573 0.029501034 -0.018336527 43 21
0.78082383 -0.071597256 -0.034937568 63 20
0.79756349 0.028464014 -0.05283092 70 19
0.76373333 -0.070378989 -0.065720618 29 18
0.78946525 0.028143983 -0.086429812 80 17
0.74735308 -0.069078989 -0.099428587 36 16
0.76094747 0.027286178 -0.12667091 74 15
0.75816411 0.027291536 -0.16576321 30 14
0.94252741 0.03336988 0.24233893 6 31
0.90333456 0.031112975 0.1676528 7 29
0.84864503 -0.080679938 0.12788014 7 28
0.88062012 0.029523097 0.10330287 7 27
0.82755619 -0.078631833 0.076120645 67 26
0.8599304 0.028477233 0.05743533 40 25
0.82036227 -0.077935129 0.036800902 15 24
0.83423686 0.027267601 0.018568633 68 23
0.79383302 -0.075483091 0 15 22
0.8192597 0.026447814 -0.018220473 54 21
0.77559841 -0.073835023 -0.034704652 68 20
0.80015051 0.025767732 -0.053003568 69 19
0.770917 -0.073777318 -0.066391237 25 18
0.78955871 0.025388064 -0.086429812 80 17
0.7495715 -0.071931101 -0.099772625 37 16
0.75611538 0.024454463 -0.12581211 74 15
0.76069009 0.024732053 -0.16632134 31 14
0.93781006 0.029912729 0.2410499 6 31
0.90343767 0.027959559 0.1676528 8 29
0.85573041 -0.08438801 0.12903918 6 28
0.87823755 0.026367567 0.10299993 7 27
0.82481474 -0.081125475 0.07588277 60 26
0.86002457 0.025475342 0.05743533 56 25
0.81760061 -0.080546752 0.036684446 13 24
0.82683283 0.024114657 0.018394552 70 23
0.79107738 -0.078001425 0 18 22
0.81184876 0.023491463 -0.018046392 61 21
0.78030497 -0.077046648 -0.034937568 64 20
0.79525 0.02281611 -0.052658271 70 19
0.76571375 -0.075828381 -0.065944165 26 18
0.79212499 0.022710718 -0.086714119 78 17
0.74193883 -0.0736605 -0.098740496 36 16
0.75619614 0.021814978 -0.12581211 75 15
0.75833237 0.022130283 -0.16576321 31 14
0.93066108 0.026576318 0.23911633 5 31
0.90597898 0.025038034 0.16812639 9 29
0.84807616 -0.08645457 0.12788014 6 28
0.8708787 0.023235524 0.1020911 8 27
0.82452655 -0.084004126 0.07588277 59 26
0.85761136 0.022550575 0.057261806 62 25
0.81732899 -0.083257571 0.036684446 16 24
0.82940656 0.021444613 0.018452579 71 23
0.79330081 -0.080884755 0 23 22
0.81692243 0.020799628 -0.018162446 60 21
0.77756155 -0.079373211 -0.034821112 65 20
0.79532135 0.020178841 -0.052658271 64 19
0.7654444 -0.078500763 -0.065944165 26 18
0.78474772 0.019871861 -0.085861191 79 17
0.74906456 -0.077031568 -0.099772625 37 16
0.75872618 0.019378137 -0.12624151 68 15
0.76084083 0.019553667 -0.16632134 33 14
0.93316275 0.023394568 0.23976086 5 31
0.91096854 0.022007369 0.16907358 8 29
0.8526805 -0.089945316 0.12865284 7 28
0.86847371 0.020130921 0.10178816 9 27
0.8291769 -0.087416708 0.076358527 51 26
0.86017805 0.019620797 0.05743533 61 25
0.81703341 -0.08611007 0.036684446 21 24
0.82947963 0.018404543 0.018452579 69 23
0.78307176 -0.082576878 0 25 22
0.81449151 0.017885536 -0.018104419 38 21
0.77974808 -0.082492284 -0.034937568 64 20
0.79538691 0.01740253 -0.052658271 62 19
0.77506709 -0.082251303 -0.066838317 25 18
0.77984923 0.01687238 -0.085292578 79 17
0.74140644 -0.078838371 -0.098740496 36 16
0.76125431 0.016659031 -0.12667091 51 15
0.75359613 0.016711449 -0.16464697 33 14
0.93807191 0.020090545 0.2410499 5 31
0.89877272 0.018383469 0.16670561 14 29
0.84743583 -0.092521012 0.12788014 7 28
0.87350363 0.01705854 0.10239404 7 27
0.83379734 -0.091008298 0.076834284 36 26
0.85525739 0.016358269 0.057088286 63 25
0.8142305 -0.088826567 0.036567986 25 24
0.83203745 0.015563091 0.018510606 71 23
0.78524828 -0.085724659 0 38 22
0.81205285 0.014846942 -0.018046392 24 21
0.77697361 -0.08493524 -0.034821112 64 20
0.78796494 0.014327871 -0.052140322 43 19
0.76486307 -0.083976105 -0.065944165 25 18
0.7823866 0.01420298 -0.085576884 73 17
0.74357307 -0.0818334 -0.099084541 34 16
0.76130772 0.014001657 -0.12667091 49 15
0.75852495 0.014055589 -0.16576321 34 14
0.92847633 0.016616965 0.23847181 5 31
0.89637721 0.015197646 0.16623202 34 29
0.85867101 0.013728696 0.10057639 22 27
0.83347464 -0.093918242 0.076834284 33 26
0.85281575 0.013326627 0.056914765 63 25
0.80895388 -0.091095895 0.03633507 37 24
0.82459003 0.012522554 0.018336527 71 23
0.78494424 -0.088465162 0 67 22
0.81209975 0.01201226 -0.018046392 16 21
0.77915311 -0.087933898 -0.034937568 60 20
0.7954911 0.011710463 -0.052658271 26 19
0.776932 -0.088082902 -0.067061856 25 18
0.78739816 0.011560284 -0.086145498 49 17
0.74820203 -0.085001975 -0.099772625 34 16
0.75642699 0.011254707 -0.12581211 47 15
0.75613296 0.011363102 -0.16520509 34 14
0.93335903 0.013458503 0.23976086 5 31
0.88906157 0.011949087 0.16481122 38 29
0.86863881 0.010883741 0.10178816 28 27
0.83315855 -0.096681632 0.076834284 20 26
0.85535079 0.010387097 0.057088286 60 25
0.81111068 -0.094213933 0.03645153 60 24
0.82962686 0.0097174011 0.018452579 70 23
0.78214818 -0.090909019 0 76 22
0.82213134 0.009463991 -0.0182785 8 21
0.77388203 -0.090061739 -0.034704652 43 20
0.78305829 0.0087551465 -0.051795021 19 19
0.7692185 -0.089771755 -0.066391237 25 18
0.77998316 0.0087050432 -0.085292578 33 17
0.74791598 -0.087482631 -0.099772625 35 16
0.76138693 0.008686428 -0.12667091 48 15
0.75616652 0.008855612 -0.16520509 36 14
0.94064426 0.010463213 0.24169442 5 31
0.88909632 0.0090007875 0.16481122 40 29
0.8661887 0.0079732873 0.10148522 19 27
0.84022677 -0.10049529 0.077547915 9 26
0.85288674 0.0075214319 0.056914765 53 25
0.8033573 -0.095994033 0.036102153 68 24
0.82965571 0.0068214051 0.018452579 70 23
0.78432393 -0.093806028 0 83 22
0.81716102 0.0065391976 -0.018162446 5 21
0.77852029 -0.093371227 -0.034937568 37 20
0.79305845 0.0062680747 -0.052485619 9 19
0.7639578 -0.091847651 -0.065944165 28 18
0.78497607 0.0060360944 -0.085861191 30 17
0.74023348 -0.089182347 -0.098740496 34 16
0.75648713 0.005973618 -0.12581211 49 15
0.74400908 0.0060756914 -0.16241446 37 14
0.88912332 0.0057420246 0.16481122 44 29
0.86869365 0.0048192823 0.10178816 10 27
0.83491457 -0.1029521 0.077072158 8 26
0.8454268 0.0043353266 0.056394204 31 25
0.80795556 -0.099562086 0.03633507 76 24
0.82217669 0.0038677445 0.0182785 66 23
0.79141587 -0.097618781 0 84 22
0.82467723 0.0035990705 -0.018336527 4 21
0.77571201 -0.095775209 -0.034821112 33 20
0.78808814 0.0033247636 -0.052140322 7 19
0.76855636 -0.095273823 -0.066391237 27 18
0.78250861 0.0032777723 -0.085576884 28 17
0.74481446 -0.09251982 -0.099428587 34 16
0.7565034 0.0033329483 -0.12581211 51 15
0.74889994 0.003386999 -0.16353071 37 14
0.88177383 0.0025959562 0.16339043 40 29
0.87366831 0.0018112012 0.10239404 7 27
0.83701813 -0.10618553 0.077310033 7 26
0.85291868 0.0014181617 0.056914765 18 25
0.80264992 -0.10174022 0.036102153 72 24
0.8246845 0.0010082575 0.018336527 68 23
0.79354948 -0.1007023 0 82 22
0.82218552 0.00071079168 -0.0182785 5 21
0.78032601 -0.099125639 -0.035054028 26 20
0.788095 0.00057380251 -0.052140322 7 19
0.75587374 -0.096346028 -0.065273538 29 18
0.78003156 0.00053675077 -0.085292578 24 17
0.73957628 -0.094477013 -0.098740496 35 16
0.76389897 0.00072318735 -0.1271003 58 15
0.74647027 0.00076219696 -0.16297258 38 14
0.88914174 -0.00046531588 0.16481122 37 29
0.86374301 -0.001252341 0.10118228 4 27
0.82679361 -0.10764921 0.076358527 7 26
0.84543657 -0.0015669238 0.056394204 12 25
0.80971622 -0.10552963 0.03645153 75 24
0.81968439 -0.0018739244 0.018220473 65 23
0.7907151 -0.10314148 0 85 22
0.81218606 -0.0020209122 -0.018046392 5 21
0.77749985 -0.1015186 -0.034937568 24 20
0.79058617 -0.002176295 -0.05231297 6 19
0.75801808 -0.099182248 -0.065497078 29 18
0.77754486 -0.002186938 -0.085008271 21 17
0.74416739 -0.097587436 -0.099428587 34 16
0.75404543 -0.0019501995 -0.12538272 71 15
0.75621647 -0.0017029841 -0.16520509 39 14
0.89159 -0.0034163843 0.16528483 31 29
0.87117881 -0.0041309018 0.1020911 4 27
0.82394683 -0.11019814 0.076120645 6 26
0.85041463 -0.004381801 0.056741245 8 25
0.79699004 -0.10652605 0.035869237 72 24
0.822173 -0.0045986287 0.0182785 63 23
0.78789169 -0.10542461 0 83 22
0.8146733 -0.0048633739 -0.018104419 6 21
0.77468473 -0.10375784 -0.034821112 20 20
0.79306865 -0.0048053619 -0.052485619 7 19
0.75766724 -0.10182763 -0.065497078 30 18
0.77753335 -0.0047653574 -0.085008271 24 17
0.73646301 -0.099171147 -0.098396458 34 16
0.75649762 -0.0044571408 -0.12581211 77 15
0.75620586 -0.0043426617 -0.16520509 39 14
0.89893681 -0.0065620104 0.16670561 27 29
0.86619592 -0.0071450048 0.10148522 4 27
0.8235572 -0.11307358 0.076120645 8 26
0.85288811 -0.0073646395 0.056914765 5 25
0.80403286 -0.11034618 0.036218613 70 24
0.81715202 -0.0075806053 0.018162446 41 23
0.77761573 -0.10678594 0 83 22
0.81215215 -0.0076909452 -0.018046392 6 21
0.77677214 -0.10694406 -0.034937568 18 20
0.78556514 -0.0075253416 -0.051967669 8 19
0.7622385 -0.10516657 -0.065944165 30 18
0.77999437 -0.0076316004 -0.085292578 40 17
0.74837172 -0.10347295 -0.10011667 34 16
0.76140195 -0.0072607631 -0.12667091 84 15
0.74887544 -0.0069389031 -0.16353071 41 14
0.89399743 -0.0098164622 0.16575842 20 29
0.87360835 -0.010387289 0.10239404 4 27
0.82560062 -0.11644541 0.076358527 8 26
0.85285538 -0.01049058 0.056914765 5 25
0.80362296 -0.11329236 0.036218613 69 24
0.81961977 -0.01045738 0.018220473 64 23
0.7796936 -0.10999147 0 84 22
0.80712008 -0.01061698 -0.017930338 7 21
0.76897889 -0.1085863 -0.034588195 19 20
0.78303844 -0.010379286 -0.051795021 10 19
0.76431221 -0.10831603 -0.066167697 29 18
0.77996296 -0.010354243 -0.085292578 60 17
0.74553686 -0.10585985 -0.099772625 34 16
0.76876009 -0.0099907201 -0.12795909 96 15
0.75371861 -0.009730408 -0.16464697 46 14
0.89641225 -0.012965741 0.16623202 8 29
0.86115986 -0.013280771 0.10087934 4 27
0.83013421 -0.11990708 0.076834284 8 26
0.8528136 -0.013467539 0.056914765 5 25
0.79828131 -0.11536894 0.035985693 69 24
0.81957829 -0.013318323 0.018220473 68 23
0.77930492 -0.11271244 0 78 22
0.81207865 -0.013360604 -0.018046392 8 21
0.77847713 -0.11272912 -0.035054028 16 20
0.78299743 -0.013112537 -0.051795021 19 19
0.76148576 -0.11048539 -0.065944165 29 18
0.78240561 -0.013110571 -0.085576884 68 17
0.73538417 -0.1068778 -0.098396458 35 16
0.76625788 -0.012641465 -0.1275297 97 15
0.74880874 -0.012166828 -0.16353071 52 14
0.89390987 -0.015901435 0.16575842 6 29
0.87103617 -0.016294055 0.1020911 5 27
0.82478893 -0.12206236 0.076358527 8 26
0.85775149 -0.016376454 0.057261806 6 25
0.80036384 -0.11838765 0.036102153 65 24
0.81703061 -0.015994631 0.018162446 71 23
0.77892685 -0.11529608 0 76 22
0.79703331 -0.015941342 -0.01769823 7 21
0.77809906 -0.11531002 -0.035054028 15 20
0.78544331 -0.015751198 -0.051967669 35 19
0.75863355 -0.11276958 -0.065720618 29 18
0.77490765 -0.015578906 -0.084723957 71 17
0.73745471 -0.1098161 -0.098740496 35 16
0.7612868 -0.015100732 -0.12667091 96 15
0.74388862 -0.014700629 -0.16241446 60 14
0.89875752 -0.019112488 0.16670561 5 29
0.8635307 -0.019190222 0.10118228 6 27
0.83419603 -0.12645842 0.077310033 8 26
0.85020864 -0.019222915 0.056741245 6 25
0.7974776 -0.12079997 0.035985693 63 24
0.8194654 -0.019039689 0.018220473 76 23
0.77851975 -0.11801434 0 72 22
0.80446917 -0.01887651 -0.017872311 8 21
0.77520329 -0.11777907 -0.034937568 16 20
0.78289002 -0.018441886 -0.051795021 51 19
0.76069587 -0.11579882 -0.065944165 29 18
0.76987875 -0.018316681 -0.084155343 76 17
0.73462009 -0.11200909 -0.098396458 33 16
0.75876391 -0.017841024 -0.12624151 93 15
0.73652345 -0.017151743 -0.16074008 68 14
0.8913191 -0.022243252 0.16528483 5 29
0.85601175 -0.022183591 0.10027345 6 27
0.82881063 -0.12873816 0.076834284 8 26
0.84514588 -0.022222312 0.056394204 7 25
0.79456282 -0.12333226 0.035869237 62 24
0.81689525 -0.02184072 0.018162446 76 23
0.77561259 -0.12047631 0 67 22
0.80689317 -0.021885103 -0.017930338 9 21
0.77725399 -0.12087498 -0.035054028 16 20
0.78780371 -0.021431325 -0.052140322 60 19
0.75534803 -0.1178045 -0.065497078 26 18
0.7698102 -0.021003949 -0.084155343 76 17
0.73664999 -0.11509036 -0.098740496 34 16
0.75623482 -0.020431042 -0.12581211 94 15
0.73645568 -0.019851122 -0.16074008 71 14
0.89614385 -0.025480347 0.16623202 5 29
0.86337125 -0.025368972 0.10118228 7 27
0.83081299 -0.13202749 0.077072158 8 26
0.8525424 -0.025373362 0.056914765 9 25
0.79412746 -0.12610504 0.035869237 56 24
0.81681406 -0.024692085 0.018162446 77 23
0.78012317 -0.12398151 0 63 22
0.7993167 -0.024494812 -0.017756257 16 21
0.77682728 -0.12358736 -0.035054028 15 20
0.78273797 -0.02404361 -0.051795021 68 19
0.76967871 -0.1228368 -0.066838317 27 18
0.7796635 -0.023964899 -0.085292578 68 17
0.73868781 -0.11805908 -0.099084541 31 16
0.75862086 -0.023137718 -0.12624151 91 15
0.74125391 -0.022553544 -0.16185632 84 14
0.89359576 -0.02853678 0.16575842 6 29
0.85335559 -0.028084604 0.099970512 8 27
0.82054871 -0.13316111 0.076120645 8 26
0.83749175 -0.027894773 0.055873644 14 25
0.80107415 -0.13009733 0.036218613 37 24
0.81922102 -0.027619908 0.018220473 78 23
0.77721912 -0.12629601 0 61 22
0.80422741 -0.027299702 -0.017872311 36 21
0.77639115 -0.12629825 -0.035054028 15 20
0.78763491 -0.026930664 -0.052140322 73 19
0.7692672 -0.12538846 -0.066838317 23 18
0.76964474 -0.02637768 -0.084155343 72 17
0.74073493 -0.12091415 -0.099428587 32 16
0.76099718 -0.025861302 -0.12667091 88 15
0.74361086 -0.025085503 -0.16241446 95 14
0.88613588 -0.03126087 0.16433764 6 29
0.86069834 -0.031162409 0.10087934 7 27
0.8102628 -0.13436958 0.075169139 7 26
0.8398872 -0.030755835 0.056047164 37 25
0.79817581 -0.1323379 0.036102153 28 24
0.81912494 -0.030336389 0.018220473 78 23
0.78419143 -0.13012086 0 51 22
0.79913145 -0.029934978 -0.017756257 45 21
0.78089285 -0.12970422 -0.035286944 15 20
0.78255624 -0.029370939 -0.051795021 76 19
0.76636982 -0.12765683 -0.066614777 21 18
0.76955307 -0.02892977 -0.084155343 53 17
0.74030834 -0.12349905 -0.099428587 31 16
0.76090723 -0.028384715 -0.12667091 85 15
0.74351877 -0.027681038 -0.16241446 97 14
0.89092761 -0.034530345 0.16528483 6 29
0.86306423 -0.034257986 0.10118228 8 27
0.81959915 -0.13888633 0.076120645 7 26
0.83229792 -0.03340932 0.055526599 50 25
0.80263114 -0.13597079 0.03633507 14 24
0.82150578 -0.033432629 0.0182785 74 23
0.77634144 -0.13158341 0 38 22
0.80151975 -0.032818921 -0.017814284 57 21
0.7779513 -0.13214041 -0.035170484 15 20
0.78494114 -0.032196827 -0.051967669 76 19
0.77328002 -0.13160521 -0.067285396 21 18
0.77936983 -0.032128051 -0.085292578 39 17
0.73987275 -0.12608247 -0.099428587 32 16
0.74849254 -0.030709261 -0.12452394 78 15
0.75315839 -0.030640222 -0.16464697 99 14
0.89079511 -0.037795529 0.16528483 6 29
0.85797381 -0.037220132 0.10057639 9 27
0.81908453 -0.14188939 0.076120645 7 26
0.83216983 -0.036459621 0.055526599 62 25
0.80950582 -0.14021003 0.036684446 10 24
0.81638968 -0.036094181 0.018162446 78 23
0.77585399 -0.13442795 0 36 22
0.79639971 -0.03554884 -0.01769823 62 21
0.77748531 -0.13485517 -0.035170484 15 20
0.78232604 -0.034969993 -0.051795021 77 19
0.77769637 -0.13530588 -0.067732476 21 18
0.77428961 -0.034642078 -0.084723957 37 17
0.73452926 -0.12792915 -0.098740496 31 16
0.75084162 -0.033423219 -0.12495333 70 15
0.74573648 -0.033100709 -0.16297258 101 14
0.89801514 -0.041222125 0.16670561 5 29
0.86279696 -0.040433016 0.10118228 8 27
0.81858426 -0.14474766 0.076120645 6 26
0.8345291 -0.039474741 0.055700123 68 25
0.79917955 -0.14126939 0.036218613 8 24
0.81875557 -0.039055329 0.018220473 76 23
0.78276169 -0.13846222 0 32 22
0.80126429 -0.038553584 -0.017814284 56 21
0.76963645 -0.13624159 -0.034821112 19 20
0.78469074 -0.037812874 -0.051967669 77 19
0.7772193 -0.13801971 -0.067732476 20 18
0.77912652 -0.037568249 -0.085292578 34 17
0.73895156 -0.1313736 -0.099428587 30 16
0.75318074 -0.036153946 -0.12538272 61 15
0.74318188 -0.035595197 -0.16241446 105 14
0.89787346 -0.044199821 0.16670561 5 29
0.85522175 -0.042941935 0.10027345 9 27
0.8180998 -0.14746138 0.076120645 7 26
0.83688474 -0.042360708 0.055873644 69 25
0.80607623 -0.14526735 0.036567986 8 24
0.81362861 -0.041530378 0.018104419 78 23
0.77738005 -0.14015631 0 22 22
0.8036285 -0.041331246 -0.017872311 38 21
0.77900577 -0.14059456 -0.035286944 17 20
0.78705204 -0.040535323 -0.052140322 75 19
0.76696169 -0.13879494 -0.066838317 19 18
0.77899766 -0.040151723 -0.085292578 32 17
0.73851192 -0.13382334 -0.099428587 30 16
0.74813664 -0.038415056 -0.12452394 54 15
0.74062562 -0.037942987 -0.16185632 107 14
0.90506876 -0.04770115 0.16812639 5 29
0.84515321 -0.045423027 0.09906169 30 27
0.83673179 -0.045281723 0.055873644 67 25
0.79574454 -0.14624783 0.036102153 7 24
0.8134709 -0.044512197 0.018104419 77 23
0.7842586 -0.14424609 0 17 22
0.79099941 -0.043488696 -0.017582176 24 21
0.76621187 -0.14115192 -0.034704652 16 20
0.78192443 -0.043023955 -0.051795021 77 19
0.77136719 -0.14238906 -0.067285396 21 18
0.78380609 -0.04326487 -0.085861191 30 17
0.74047387 -0.1368576 -0.099772625 29 16
0.75045043 -0.041284036 -0.12495333 50 15
0.74292243 -0.040653013 -0.16241446 110 14
0.88772935 -0.050097819 0.16481122 5 29
0.84250313 -0.048385296 0.09875875 38 27
0.83406997 -0.048211582 0.055700123 68 25
0.79520327 -0.1491634 0.036102153 8 24
0.81331062 -0.047351465 0.018104419 76 23
0.77881306 -0.14618352 0 15 22
0.80081666 -0.046942141 -0.017814284 17 21
0.77062058 -0.14476152 -0.034937568 17 20
0.78176147 -0.045889564 -0.051795021 78 19
0.76105762 -0.14334387 -0.066391237 19 18
0.77125049 -0.045311689 -0.08443965 28 17
0.73510343 -0.13863844 -0.099084541 29 16
0.75030172 -0.043903343 -0.12495333 46 15
0.74033517 -0.043241777 -0.16185632 113 14
0.89245057 -0.053476308 0.16575842 5 29
0.84976137 -0.05175703 0.099667571 50 27
0.83638632 -0.051268041 0.055873644 42 25
0.79958087 -0.15288956 0.03633507 8 24
0.8106454 -0.05004368 0.018046392 77 23
0.78075218 -0.14937778 0 23 22
0.79565799 -0.049442519 -0.01769823 9 21
0.76765919 -0.1469741 -0.034821112 16 20
0.77910686 -0.048471097 -0.051622372 77 19
0.77032852 -0.14790516 -0.067285396 18 18
0.77356714 -0.048150018 -0.084723957 29 17
0.74190593 -0.14262739 -0.10011667 27 16
0.74276811 -0.046089083 -0.12366515 46 15
0.74017972 -0.045825765 -0.16185632 114 14
0.88245755 -0.055996921 0.16386405 5 29
0.84709859 -0.054570574 0.099364631 55 27
0.83122379 -0.053879276 0.055526599 25 25
0.79169255 -0.15422708 0.035985693 8 24
0.81296015 -0.053028245 0.018104419 76 23
0.78513092 -0.15307252 0 31 22
0.7905007 -0.051769488 -0.017582176 6 21
0.77449065 -0.15110803 -0.035170484 16 20
0.78391129 -0.051501855 -0.051967669 76 19
0.76494902 -0.14948986 -0.066838317 17 18
0.76099962 -0.050074514 -0.083302408 28 17
0.73900014 -0.14460419 -0.099772625 25 16
0.74751884 -0.048987396 -0.12452394 44 15
0.74002367 -0.048280038 -0.16185632 114 14
0.88716644 -0.059236344 0.16481122 5 29
0.85186571 -0.057700496 0.099970512 54 27
0.8310405 -0.056635413 0.055526599 18 25
0.80341822 -0.1593132 0.036567986 7 24
0.81527388 -0.055887289 0.018162446 74 23
0.7723648 -0.15320884 0 32 22
0.79280913 -0.054692864 -0.017640203 4 21
0.7617448 -0.15120959 -0.034588195 14 20
0.7812475 -0.05393713 -0.051795021 76 19
0.76442254 -0.15215911 -0.066838317 17 18
0.76082939 -0.052597802 -0.083302408 27 17
0.7336368 -0.14620063 -0.099084541 24 16
0.74243712 -0.051143833 -0.12366515 43 15
0.73985064 -0.050862908 -0.16185632 115 14
0.85165906 -0.060673714 0.099970512 52 27
0.83581412 -0.059877809 0.055873644 9 25
0.80530369 -0.16261755 0.036684446 7 24
0.81506354 -0.058875047 0.018162446 74 23
0.7791726 -0.15740947 0 33 22
0.79012001 -0.057286914 -0.017582176 5 21
0.76118553 -0.15400052 -0.034588195 17 20
0.7810545 -0.056663867 -0.051795021 73 19
0.75900888 -0.15382345 -0.066391237 18 18
0.75567591 -0.055041235 -0.082733795 27 17
0.73312199 -0.1487606 -0.099084541 22 16
0.74715865 -0.054204829 -0.12452394 40 15
0.73966861 -0.053445157 -0.16185632 115 14
0.84648073 -0.063438214 0.099364631 49 27
0.83310151 -0.06276077 0.055700123 6 25
0.79736823 -0.16403855 0.03633507 7 24
0.80488211 -0.060994565 0.017930338 73 23
0.78103769 -0.16077504 0 33 22
0.79738277 -0.060728993 -0.017756257 5 21
0.76308781 -0.15716729 -0.034704652 14 20
0.78084153 -0.05952619 -0.051795021 66 19
0.75356573 -0.15558338 -0.065944165 17 18
0.7629106 -0.058221832 -0.083586723 27 17
0.7325719 -0.15144663 -0.099084541 24 16
0.75187761 -0.057169892 -0.12538272 39 15
0.74189824 -0.056332171 -0.16241446 114 14
0.83388144 -0.065457955 0.097849928 35 27
0.83785099 -0.066045918 0.056047164 4 25
0.80411941 -0.16837597 0.036684446 7 24
0.80217224 -0.063613757 0.017872311 72 23
0.77068985 -0.16142298 0 33 22
0.79717696 -0.063372873 -0.017756257 6 21
0.75764906 -0.15879157 -0.034471735 14 20
0.77565551 -0.06187053 -0.05144972 66 19
0.75548106 -0.1586 -0.066167697 16 18
0.75527322 -0.060315464 -0.082733795 28 17
0.73690909 -0.15490815 -0.099772625 27 16
0.74430627 -0.059232388 -0.12409455 39 15
0.73927742 -0.058607675 -0.16185632 112 14
0.84355539 -0.069003381 0.09906169 29 27
0.83016878 -0.068233036 0.055526599 4 25
0.78890973 -0.16788284 0.035985693 7 24
0.79946542 -0.066075236 0.017814284 56 23
0.77259403 -0.16450526 0 28 22
0.80442506 -0.066752568 -0.017930338 6 21
0.76444131 -0.1628851 -0.034821112 14 20
0.77295995 -0.064243637 -0.051277071 64 19
0.7622236 -0.16281728 -0.066838317 15 18
0.76249671 -0.063413404 -0.083586723 28 17
0.73394394 -0.15695453 -0.099428587 24 16
0.74656081 -0.061895642 -0.12452394 39 15
0.73178065 -0.060609199 -0.16018195 109 14
0.83836299 -0.071539983 0.098455809 24 27
0.83986759 -0.071953073 0.056220684 4 25
0.79563683 -0.17224056 0.03633507 7 24
0.80668998 -0.069627173 0.017988365 71 23
0.78422445 -0.16988105 0 14 22
0.79920584 -0.069144465 -0.017814284 7 21
0.76383919 -0.16568582 -0.034821112 15 20
0.77273101 -0.066941381 -0.051277071 57 19
0.76165056 -0.16547695 -0.066838317 15 18
0.75978404 -0.0660007 -0.083302408 28 17
0.73097354 -0.15898208 -0.099084541 6 16
0.75123769 -0.065040253 -0.12538272 39 15
0.73399317 -0.063364588 -0.16074008 107 14
0.85045731 -0.075676404 0.099970512 11 27
0.8371135 -0.074816093 0.056047164 5 25
0.7779389 -0.17134817 0.035519861 7 24
0.80395204 -0.072226532 0.017930338 75 23
0.78359658 -0.17275423 0 9 22
0.79396731 -0.071639314 -0.01769823 8 21
0.76081902 -0.16780633 -0.034704652 12 20
0.76502657 -0.069123633 -0.050759118 39 19
0.75617951 -0.16717854 -0.066391237 15 18
0.75954908 -0.068652444 -0.083302408 28 17
0.75345969 -0.067875102 -0.12581211 38 15
0.73132813 -0.065844119 -0.16018195 106 14
0.8427729 -0.077980213 0.09906169 8 27
0.82442749 -0.076620527 0.055179559 5 25
0.79438394 -0.17792957 0.03633507 8 24
0.80618423 -0.07525719 0.017988365 77 23
0.77567482 -0.1738281 0 8 22
0.79869056 -0.074861638 -0.017814284 7 21
0.76509905 -0.17156762 -0.034937568 11 20
0.76974833 -0.072243996 -0.051104423 33 19
0.76044697 -0.17092292 -0.066838317 15 18
0.7518838 -0.070630603 -0.082449488 28 17
0.74340677 -0.069618754 -0.12409455 39 15
0.7238127 -0.067740291 -0.15850759 104 14
0.84990823 -0.081611827 0.099970512 6 27
0.83160442 -0.08019416 0.055700123 5 25
0.79862493 -0.18182324 0.036567986 7 24
0.80840504 -0.078304313 0.018046392 78 23
0.77749932 -0.17709661 0 8 22
0.79346126 -0.077041976 -0.01769823 8 21
0.76449549 -0.17423725 -0.034937568 12 20
0.76204234 -0.07422895 -0.050586466 30 19
0.75987601 -0.17344372 -0.066838317 17 18
0.75905126 -0.073953375 -0.083302408 29 17
0.7505154 -0.072903492 -0.12538272 38 15
0.7332893 -0.071047328 -0.16074008 101 14
0.8471629 -0.084191501 0.099667571 7 27
0.82885152 -0.082711086 0.055526599 6 25
0.78585958 -0.18162563 0.035985693 7 24
0.80067813 -0.080259487 0.017872311 81 23
0.78177613 -0.18081395 0 8 22
0.78821242 -0.079326026 -0.017582176 9 21
0.76634496 -0.17734128 -0.035054028 11 20
0.7742033 -0.077965945 -0.05144972 28 19
0.75199389 -0.17438681 -0.066167697 13 18
0.76127386 -0.076711155 -0.083586723 29 17
0.74291563 -0.074677311 -0.12409455 37 15
0.73546243 -0.073841818 -0.1612982 99 14
0.83945602 -0.086407438 0.09875875 6 27
0.83103925 -0.085852817 0.055700123 6 25
0.80465764 -0.18898743 0.036917362 7 24
0.80286527 -0.083444409 0.017930338 82 23
0.77384377 -0.18180621 0 7 22
0.79290402 -0.082579464 -0.01769823 13 21
0.76568979 -0.18014891 -0.035054028 11 20
0.77144504 -0.080417201 -0.051277071 25 19
0.7538026 -0.1775886 -0.066391237 16 18
0.76098752 -0.079500847 -0.083586723 29 17
0.74753773 -0.077894077 -0.12495333 36 15
0.73035085 -0.075921163 -0.16018195 97 14
0.84407037 -0.089995518 0.099364631 6 27
0.82823843 -0.088640057 0.055526599 9 25
0.8050549 -0.086505942 0.017988365 80 23
0.77803224 -0.18581614 0 8 22
0.78513885 -0.084703892 -0.017524149 33 21
0.76262903 -0.18223333 -0.034937568 12 20
0.75874275 -0.081944987 -0.050413817 23 19
0.7604062 -0.18211053 -0.067061856 13 18
0.75823522 -0.081897944 -0.083302408 29 17
0.75216037 -0.081014447 -0.12581211 35 15
0.73976278 -0.079607971 -0.16241446 95 14
0.83881617 -0.092412196 0.09875875 6 27
0.83536303 -0.092330858 0.056047164 30 25
0.80226308 -0.089047387 0.017930338 80 23
0.77495092 -0.18793492 0 8 22
0.78982335 -0.087844297 -0.017640203 51 21
0.75713789 -0.18370293 -0.034704652 12 20
0.76589072 -0.085398465 -0.05093177 24 19
0.75979817 -0.18463114 -0.067061856 12 18
0.760414 -0.084811561 -0.083586723 30 17
0.7494244 -0.083375208 -0.12538272 35 15
0.7273801 -0.080757439 -0.15962383 90 14
0.84837127 -0.096284278 0.099970512 6 27
0.82761586 -0.094275601 0.055526599 39 25
0.79947942 -0.09143088 0.017872311 80 23
0.77432346 -0.19050372 0 7 22
0.78702801 -0.090323463 -0.017582176 60 21
0.75410134 -0.18560895 -0.034588195 11 20
0.76064605 -0.087384365 -0.050586466 22 19
0.74948579 -0.18486929 -0.066167697 14 18
0.75766021 -0.087057158 -0.083302408 28 17
0.74424827 -0.085315146 -0.12452394 35 15
0.72224975 -0.082757771 -0.15850759 85 14
0.84556448 -0.098963715 0.099667571 6 27
0.8297596 -0.097447567 0.055700123 48 25
0.80162191 -0.094646029 0.017930338 79 23
0.77122998 -0.19259302 0 7 22
0.79167378 -0.093642086 -0.01769823 67 21
0.76309991 -0.19082204 -0.035054028 12 20
0.76281404 -0.090324335 -0.050759118 19 19
0.75124955 -0.18809602 -0.066391237 13 18
0.75733602 -0.089833528 -0.083302408 29 17
0.74148393 -0.087761022 -0.12409455 36 15
0.73164064 -0.086388603 -0.16074008 97 14
0.84026706 -0.10148142 0.09906169 6 27
0.81948996 -0.09931732 0.055006038 56 25
0.7988047 -0.097149439 0.017872311 79 23
0.77778351 -0.19728234 0 7 22
0.78387964 -0.095657878 -0.017524149 71 21
0.7600103 -0.19286354 -0.034937568 11 20
0.74761826 -0.09135294 -0.049723219 20 19
0.75537801 -0.19208921 -0.066838317 11 18
0.75208497 -0.091890119 -0.082733795 28 17
0.73872733 -0.090058833 -0.12366515 35 15
0.71921903 -0.087637484 -0.15794946 78 14
0.83990771 -0.10441388 0.09906169 6 27
0.82408959 -0.10277995 0.055353079 54 25
0.80342257 -0.10054291 0.017988365 77 23
0.77225143 -0.19873662 0 7 22
0.78602177 -0.098697282 -0.017582176 68 21
0.76416576 -0.19677427 -0.035170484 11 20
0.75472152 -0.094871312 -0.050241169 17 19
0.74506587 -0.19220917 -0.065944165 10 18
0.75422502 -0.094816662 -0.083018102 29 17
0.73351896 -0.092040047 -0.12280636 36 15
0.72616577 -0.091032118 -0.15962383 47 14
0.84446293 -0.10796024 0.099667571 5 27
0.82372582 -0.10565594 0.055353079 55 25
0.80058688 -0.10303525 0.017930338 78 23
0.76671869 -0.20015468 0 7 22
0.78321034 -0.10099132 -0.017524149 67 21
0.75864536 -0.19816466 -0.034937568 11 20
0.75438577 -0.097505204 -0.050241169 20 19
0.75164586 -0.19658953 -0.066614777 10 18
0.74896085 -0.096827939 -0.082449488 29 17
0.74296784 -0.095827825 -0.12452394 36 15
0.73069584 -0.094045445 -0.16074008 31 14
0.83425468 -0.10949699 0.098455809 6 27
0.8208974 -0.10806876 0.055179559 39 25
0.80271959 -0.10600926 0.017988365 77 23
0.77571082 -0.20528091 0 7 22
0.78533173 -0.10404523 -0.017582176 64 21
0.7531594 -0.19938748 -0.034704652 11 20
0.75900513 -0.10064615 -0.050586466 17 19
0.74855018 -0.19856676 -0.066391237 10 18
0.74863565 -0.099311061 -0.082449488 29 17
0.72799033 -0.096400641 -0.12194758 36 15
0.73761398 -0.097529486 -0.16241446 16 14
0.83140713 -0.11208407 0.098152868 5 27
0.8180427 -0.11060674 0.055006038 33 25
0.79489285 -0.10796421 0.017814284 73 23
0.76292574 -0.20471424 0 7 22
0.78000879 -0.10612741 -0.017466122 57 21
0.74519384 -0.20018235 -0.034355275 11 20
0.75123227 -0.10230928 -0.050068516 20 19
0.75506037 -0.20313953 -0.067061856 7 18
0.75319082 -0.10270955 -0.083018102 29 17
0.73495638 -0.10004028 -0.12323576 35 15
0.82361341 -0.1141305 0.097244047 5 27
0.82010305 -0.11394015 0.055179559 24 25
0.79451114 -0.11073823 0.017814284 75 23
0.76458061 -0.2081726 0 7 22
0.77963352 -0.10884951 -0.017466122 38 21
0.75652862 -0.20609818 -0.034937568 10 20
0.75332332 -0.10539963 -0.050241169 20 19
0.74790579 -0.10466559 -0.082449488 29 17
0.73948336 -0.10327023 -0.12409455 35 15
0.83306229 -0.11822712 0.098455809 5 27
0.81725061 -0.11631501 0.055006038 16 25
0.79413956 -0.11337233 0.017814284 70 23
0.76388609 -0.2107069 0 7 22
0.78172398 -0.1119168 -0.017524149 33 21
0.75103021 -0.20726347 -0.034704652 10 20
0.75296968 -0.10789715 -0.050241169 20 19
0.75001448 -0.10748954 -0.082733795 28 17
0.72938013 -0.10435936 -0.12237697 35 15
0.82773107 -0.12043414 0.097849928 5 27
0.82177734 -0.11987242 0.055353079 9 25
0.79619271 -0.11663699 0.017872311 68 23
0.75592864 -0.2113325 0 6 22
0.78627646 -0.11535522 -0.017640203 26 21
0.7598772 -0.21273459 -0.035170484 11 20
0.75752592 -0.11123371 -0.050586466 20 19
0.74961543 -0.11023776 -0.082733795 29 17
0.74118227 -0.10877981 -0.12452394 35 15
0.84692764 -0.12633982 0.10027345 5 27
0.82873535 -0.12396882 0.055873644 8 25
0.79578078 -0.11941549 0.017872311 69 23
0.76716536 -0.21754506 0 8 22
0.7833758 -0.11787204 -0.017582176 21 21
0.74712735 -0.21194404 -0.034588195 11 20
0.75958055 -0.11437291 -0.050759118 21 19
0.75659782 -0.11393967 -0.083586723 29 17
0.74079806 -0.11136635 -0.12452394 34 15
0.83076388 -0.12723124 0.056047164 7 25
0.79535902 -0.12219257 0.017872311 68 23
0.75919873 -0.21813048 0 9 22
0.78050917 -0.12009672 -0.017524149 17 21
0.75117922 -0.21594414 -0.034821112 10 20
0.74931216 -0.1155353 -0.050068516 20 19
0.75619543 -0.11657999 -0.083586723 29 17
0.73553401 -0.11321839 -0.12366515 34 15
0.82787228 -0.12960693 0.055873644 6 25
0.79741973 -0.1252096 0.017930338 68 23
0.77761513 -0.12243941 -0.017466122 14 21
0.7528547 -0.21913864 -0.034937568 10 20
0.74892497 -0.11801948 -0.050068516 20 19
0.74598581 -0.11757221 -0.082449488 29 17
0.73515445 -0.11565688 -0.12366515 33 15
0.82248735 -0.13172168 0.055526599 6 25
0.79695541 -0.12813145 0.017930338 65 23
0.77965176 -0.12554272 -0.017524149 12 21
0.75443977 -0.22260997 -0.035054028 10 20
0.74850839 -0.12063298 -0.050068516 20 19
0.75781655 -0.12224406 -0.083871037 28 17
0.73472565 -0.11835059 -0.12366515 33 15
0.829386 -0.13592386 0.056047164 6 25
0.79650325 -0.13091256 0.017930338 64 23
0.7816537 -0.12879819 -0.017582176 11 21
0.74409533 -0.2223549 -0.034588195 9 20
0.75298542 -0.12417138 -0.050413817 17 19
0.74757737 -0.12330356 -0.082733795 28 17
0.73917091 -0.12169866 -0.12452394 32 15
0.82398468 -0.13800861 0.055700123 7 25
0.79604143 -0.13369207 0.017930338 63 23
0.78366524 -0.13193323 -0.017640203 11 21
0.7552554 -0.22860159 -0.035170484 9 20
0.75008667 -0.12639254 -0.050241169 19 19
0.75204349 -0.12672196 -0.083302408 29 17
0.73388147 -0.123477 -0.12366515 32 15
0.81857884 -0.14005733 0.055353079 6 25
0.79064071 -0.1356398 0.017814284 63 23
0.78322339 -0.13453123 -0.017640203 10 21
0.74013919 -0.22680575 -0.034471735 10 20
0.75210017 -0.12942514 -0.050413817 16 19
0.74180001 -0.12769286 -0.082165174 28 17
0.733446 -0.12603799 -0.12366515 33 15
0.81565189 -0.14234957 0.055179559 7 25
0.78526014 -0.1374144 0.01769823 60 23
0.78274906 -0.13726437 -0.017640203 10 21
0.74653244 -0.231498 -0.034821112 9 20
0.74675113 -0.13107204 -0.050068516 14 19
0.75116354 -0.13183799 -0.083302408 28 17
0.7208876 -0.12638406 -0.12151819 28 15
0.81512463 -0.14533813 0.055179559 7 25
0.78228956 -0.1398593 0.017640203 57 23
0.78224063 -0.14013237 -0.017640203 10 21
0.75609094 -0.13553706 -0.050759118 15 19
0.74089044 -0.13286845 -0.082165174 27 17
0.81952232 -0.1490607 0.055526599 7 25
0.77933645 -0.14214827 0.017582176 41 23
0.78666669 -0.14374551 -0.017756257 10 21
0.75070357 -0.13729388 -0.050413817 17 19
0.7453115 -0.13633181 -0.082733795 26 17
0.80918318 -0.1501299 0.054832518 6 25
0.78129411 -0.14531727 0.017640203 36 23
0.78372723 -0.14590351 -0.01769823 10 21
0.75267303 -0.14036284 -0.050586466 14 19
0.73505855 -0.13714252 -0.081596561 26 17
0.81113285 -0.15326819 0.055006038 7 25
0.78080791 -0.14790733 0.017640203 33 23
0.78321314 -0.14863835 -0.01769823 10 21
0.74729997 -0.14194304 -0.050241169 16 19
0.74436629 -0.1414018 -0.082733795 24 17
0.81059289 -0.15609865 0.055006038 7 25
0.77534974 -0.1498349 0.017524149 31 23
0.77777892 -0.15043727 -0.017582176 10 21
0.74679995 -0.14455074 -0.050241169 18 19
0.7414031 -0.14366452 -0.082449488 25 17
0.81491262 -0.16001517 0.055353079 7 25
0.77972949 -0.15349084 0.017640203 29 23
0.77722228 -0.15328696 -0.017582176 10 21
0.74626517 -0.14728691 -0.050241169 18 19
0.74821198 -0.14767085 -0.083302408 23 17
0.82169008 -0.16430435 0.055873644 7 25
0.77428484 -0.15524417 0.017524149 25 23
0.77670974 -0.15586349 -0.017582176 9 21
0.74329972 -0.14940742 -0.050068516 18 19
0.74281865 -0.14931853 -0.082733795 23 17
0.81135923 -0.1650684 0.055179559 6 25
0.78111714 -0.15928656 0.01769823 17 23
0.77861118 -0.15906648 -0.017640203 9 21
0.74280024 -0.15187144 -0.050068516 17 19
0.74475449 -0.15227064 -0.083018102 21 17
0.8156653 -0.16889654 0.055526599 6 25
0.78052813 -0.16214845 0.01769823 13 23
0.77315408 -0.16078082 -0.017524149 9 21
0.75203902 -0.15646425 -0.050759118 16 19
0.73932493 -0.15400212 -0.082449488 21 17
0.78974479 -0.16690956 0.017930338 9 23
0.77500629 -0.16412374 -0.017582176 9 21
0.75634348 -0.16023789 -0.051104423 12 19
0.74364579 -0.15759605 -0.083018102 21 17
0.78915727 -0.16966526 0.017930338 8 23
0.77931851 -0.16786559 -0.01769823 9 21
0.7582193 -0.16339473 -0.051277071 12 19
0.73580211 -0.15864423 -0.082165174 21 17
0.78611702 -0.17189245 0.017872311 7 23
0.77139854 -0.16900294 -0.017524149 9 21
0.76252013 -0.16709283 -0.051622372 10 19
0.74009955 -0.16225976 -0.082733795 22 17
0.78795356 -0.17517044 0.017930338 7 23
0.77327526 -0.17209548 -0.017582176 9 21
0.75221729 -0.16748339 -0.05093177 11 19
0.74438071 -0.16590722 -0.083302408 20 17
0.78489786 -0.17737634 0.017872311 7 23
0.76776063 -0.17383981 -0.017466122 10 21
0.76376915 -0.1729553 -0.051795021 10 19
0.74622118 -0.16904555 -0.083586723 20 17
0.78914911 -0.18121912 0.017988365 7 23
0.77446139 -0.17817736 -0.017640203 9 21
0.75586402 -0.17396522 -0.051277071 11 19
0.75047117 -0.17274819 -0.084155343 18 17
0.78607607 -0.18341213 0.017930338 7 23
0.76899511 -0.17962267 -0.017524149 9 21
0.75039154 -0.17548223 -0.05093177 10 19
0.73776191 -0.17257735 -0.082733795 21 17
0.78299737 -0.18558592 0.017872311 8 23
0.76592988 -0.18173642 -0.017466122 9 21
0.75223398 -0.17853791 -0.051104423 10 19
0.73957342 -0.17571791 -0.083018102 8 17
0.78477639 -0.18889545 0.017930338 7 23
0.7652908 -0.18440892 -0.017466122 9 21
0.75400084 -0.18187092 -0.051277071 10 19
0.78168267 -0.1910477 0.017872311 7 23
0.77193111 -0.18883842 -0.017640203 9 21
0.74369597 -0.18202953 -0.050586466 11 19
0.78343856 -0.19436958 0.017930338 7 23
0.76395166 -0.18988045 -0.017466122 9 21
0.75029057 -0.1865363 -0.051104423 10 19
0.77305341 -0.19469132 0.01769823 7 23
0.75600827 -0.1907346 -0.017292041 9 21
0.74237436 -0.18734661 -0.050586466 10 19
0.78448594 -0.20044565 0.017988365 6 23
0.76264149 -0.19507606 -0.017466122 9 21
0.74655193 -0.19115876 -0.05093177 10 19
0.77409655 -0.20070334 0.017756257 7 23
0.75953472 -0.19711669 -0.017408095 9 21
0.75557792 -0.19610927 -0.051622372 10 19
0.76606369 -0.20178667 -0.017582176 9 21
0.74761295 -0.1969938 -0.051104423 9 19
0.75327152 -0.20127153 -0.017292041 9 21
0.74692076 -0.19960226 -0.051104423 11 19
0.75984341 -0.20570518 -0.017466122 9 21
0.74621952 -0.20220828 -0.051104423 18 19
0.76876974 -0.21097241 -0.01769823 9 21
0.74073058 -0.20337641 -0.050759118 20 19
0.76561862 -0.21299218 -0.017640203 9 21
0.74482578 -0.2072829 -0.051104423 14 19
0.76483285 -0.21579689 -0.017640203 9 21
0.74406105 -0.21001144 -0.051104423 12 19
0.75926465 -0.21710597 -0.017524149 9 21
0.73852342 -0.21125093 -0.050759118 12 19
0.75613767 -0.21893494 -0.017466122 9 21
0.74976981 -0.21726063 -0.051622372 22 19
0.76016968 -0.22296508 -0.017582176 9 21
0.73227757 -0.21488385 -0.050413817 28 19
0.76178479 -0.22632164 -0.017640203 10 21
0.7315231 -0.21743868 -0.050413817 28 19
0.76813638 -0.23125178 -0.017814284 11 21
0.73789215 -0.22225344 -0.05093177 20 19
0.76497227 -0.23307659 -0.017756257 10 21
0.74666327 -0.22770788 -0.051622372 12 19
0.76893508 -0.23720439 -0.017872311 10 21
0.75855058 -0.23693575 -0.017640203 12 21
0.76721793 -0.24270067 -0.017872311 11 21
0.75926077 -0.24298009 -0.01769823 14 21
0.75840801 -0.24562892 -0.01769823 14 21
0.90128827 0.43059433 -0.044953004 40 20
0.90737969 0.42941463 -0.04518592 66 20
0.90660983 0.42518929 -0.045069464 68 20
0.90808845 0.42202204 -0.045069464 75 20
0.9171828 0.42272913 0 24 22
0.91856468 0.42316824 -0.045535296 36 20
0.93231082 0.42572632 0 33 22
0.90418988 0.41257724 -0.044720087 21 20
0.92246443 0.41718036 0 38 22
0.90790236 0.4104422 -0.044836547 10 20
0.92619866 0.41497505 0 38 22
0.918455 0.41133347 -0.04530238 8 20
0.92306709 0.40972096 0 22 22
0.90846068 0.40308613 -0.044720087 7 20
0.92442077 0.40665773 0 17 22
0.91443896 0.40191212 -0.044953004 8 20
0.92819917 0.40426007 0 9 22
0.90437698 0.39375874 -0.044370711 8 20
0.90202707 0.39218733 -0.085168555 5 18
0.93190235 0.40200287 0 8 22
0.91263193 0.39355081 -0.044720087 7 20
0.88278824 0.38021886 -0.083156705 8 18
0.92869771 0.39679301 0 7 22
0.90710384 0.38743544 -0.044370711 7 20
0.89092141 0.38020569 -0.083827324 8 18
0.93231279 0.39468074 0 7 22
0.91298759 0.38636151 -0.044603627 7 20
0.90831345 0.3838422 -0.085392095 8 18
0.92906946 0.38950089 0 7 22
0.90978646 0.38109326 -0.044370711 7 20
0.91884422 0.38449362 -0.086286254 8 18
0.92586833 0.38418686 0 7 22
0.90880245 0.37696356 -0.044254255 7 20
0.90412903 0.37448975 -0.084721483 8 18
0.92488927 0.38000765 0 7 22
0.90317619 0.37095824 -0.043904878 7 20
0.89159542 0.36569381 -0.083380245 9 18
0.93548131 0.38052455 0 7 22
0.90909648 0.36967427 -0.044137795 7 20
0.89055729 0.36164775 -0.083156705 9 18
0.92984074 0.37447032 0 6 22
0.89878786 0.36186168 -0.043555502 7 20
0.87793982 0.35299596 -0.081815466 10 18
0.88717818 0.35633266 -0.12798421 8 16
0.92649364 0.36938086 0 7 22
0.90468943 0.36056072 -0.043788418 7 20
0.86990428 0.34626758 -0.080921307 13 18
0.89993221 0.35778138 -0.12970442 8 16
0.92312247 0.36431938 0 7 22
0.89664203 0.35375574 -0.043322586 8 20
0.88270158 0.34776559 -0.082039006 10 18
0.89195055 0.35103184 -0.12832825 8 16
0.91972727 0.35928589 0 7 22
0.90252799 0.3524299 -0.043555502 8 20
0.87688464 0.3421376 -0.081368387 20 18
0.88849109 0.34628436 -0.12764016 8 16
0.91391271 0.35354382 0 7 22
0.90136039 0.34853968 -0.043439046 9 20
0.87342376 0.33729163 -0.080921307 25 18
0.86657083 0.33432308 -0.12419972 8 16
0.92215145 0.35301724 0 6 22
0.89329368 0.34168649 -0.042973209 9 20
0.87925178 0.33600754 -0.081368387 39 18
0.87236345 0.33305153 -0.12488781 9 16
0.93409681 0.35382935 0.044953004 3 24
0.91173917 0.34523493 0 7 22
0.89214331 0.33768758 -0.042856749 9 20
0.88047743 0.33278266 -0.081368387 44 18
0.85966641 0.32463667 -0.12282355 9 16
0.93766659 0.3514379 0.045069464 9 24
0.9105956 0.34117845 0 7 22
0.8956573 0.33544186 -0.042973209 15 20
0.88163364 0.32970718 -0.081368387 47 18
0.86775935 0.3242172 -0.12385568 9 16
0.93888766 0.34816271 0.045069464 9 24
0.91178107 0.33799782 0 7 22
0.89213538 0.33058876 -0.042740289 24 20
0.88038504 0.32592282 -0.081144847 45 18
0.85488272 0.31621739 -0.12179142 13 16
0.95411438 0.35017943 0.045768213 10 24
0.91524583 0.33582821 0 7 22
0.88389719 0.32405615 -0.042274456 28 20
0.87683713 0.32114607 -0.080697767 44 18
0.84667146 0.30985022 -0.12041525 10 16
0.9436447 0.34244633 0.04518592 9 24
0.92117465 0.33416593 0 7 22
0.885023 0.32096881 -0.042274456 33 20
0.88035154 0.31877241 -0.080921307 44 18
0.85246247 0.30841842 -0.12110333 12 16
0.94718665 0.33998886 0.04530238 9 24
0.91056049 0.32675323 0 7 22
0.88378537 0.31703979 -0.042158 51 20
0.8744204 0.31319532 -0.080250688 31 18
0.84420007 0.30212641 -0.11972716 25 16
0.93659163 0.33252886 0.044720087 7 24
0.91169554 0.32357278 0 7 22
0.88488668 0.31395286 -0.042158 58 20
0.88015205 0.31194642 -0.080697767 9 18
0.84519732 0.29932532 -0.11972716 31 16
0.94240499 0.33106619 0.044953004 7 24
0.90568149 0.31807873 0 7 22
0.88592291 0.31101677 -0.042158 60 20
0.87653202 0.30723611 -0.080250688 5 18
0.84155893 0.29474777 -0.11903907 39 16
0.93883336 0.32614604 0.044720087 7 24
0.90442276 0.31410062 0 7 22
0.88705689 0.30776763 -0.042158 61 20
0.86818075 0.30093521 -0.079356529 5 18
0.82853138 0.28698114 -0.11697481 48 16
0.93529487 0.32109162 0.044487171 7 24
0.89846849 0.3083654 0 8 22
0.88576174 0.30386454 -0.04204154 60 20
0.86456275 0.29614875 -0.078909449 5 18
0.83661205 0.28633034 -0.11800694 48 16
0.9435097 0.32021695 0.044836547 7 24
0.91138583 0.30921635 0 8 22
0.88208336 0.29917771 -0.041808624 63 20
0.87031192 0.29471502 -0.079356529 6 18
0.82821614 0.2802572 -0.11663076 53 16
0.93514431 0.31376514 0.044370711 7 24
0.90771556 0.30445403 0 8 22
0.8783831 0.29452032 -0.041575707 63 20
0.86419553 0.28947192 -0.078685917 6 18
0.83149117 0.2782892 -0.11697481 47 16
0.9385516 0.31144363 0.044487171 6 24
0.89684689 0.29753396 0 8 22
0.87935489 0.29160589 -0.041575707 58 20
0.86283505 0.28567666 -0.078462377 7 18
0.83245754 0.27538505 -0.11697481 44 16
0.78191012 0.25764015 -0.22560987 3 13
0.92775977 0.30430081 0.043904878 7 24
0.89550269 0.29362822 0 8 22
0.93838918 0.44749191 -0.023326848 4 21
0.8780427 0.28760925 -0.041459247 46 20
0.86382693 0.28266308 -0.078462377 7 18
0.83105814 0.271714 -0.11663076 44 16
0.75768608 0.24665967 -0.21804368 4 13
0.93837875 0.30395532 0.044370711 7 24
0.89895302 0.2911087 0 9 22
0.91519207 0.43224829 -0.022688551 8 21
0.88141906 0.28530595 -0.041575707 59 20
0.85537243 0.27645537 -0.077568218 9 18
0.83204848 0.26866618 -0.11663076 44 16
0.75625229 0.24328378 -0.21735585 5 13
0.93229371 0.29841015 0.044021338 7 24
0.89996368 0.28796899 0 9 22
0.91435951 0.42814571 -0.022630524 10 21
0.88240963 0.28222749 -0.041575707 60 20
0.85153711 0.27211314 -0.077121131 33 18
0.83057392 0.26515847 -0.11628672 44 16
0.76856023 0.24425025 -0.22079504 7 13
0.93089551 0.29456887 0.043904878 7 24
0.89137232 0.28198928 0 10 22
0.92490685 0.42918119 -0.02286263 18 21
0.87857491 0.27780533 -0.041342791 62 20
0.85723436 0.27062666 -0.077568218 39 18
0.83385789 0.26299644 -0.11663076 37 16
0.94782466 0.29625702 0.091582656 10 26
0.92953295 0.29057792 0.043788418 7 24
0.89235127 0.2788761 0 20 22
0.91959453 0.42280141 -0.022688551 10 21
0.88197273 0.27532181 -0.041459247 61 20
0.85817379 0.26763269 -0.077568218 43 18
0.83477086 0.26008412 -0.11663076 18 16
0.85985428 0.26639435 -0.2476206 9 13
0.94414473 0.2913242 0.091106899 10 26
0.918652 0.2835142 0.043206125 7 24
0.89575797 0.27633494 0 23 22
0.93022645 0.42359295 -0.022920657 8 21
0.87815207 0.27078116 -0.041226331 61 20
0.85914898 0.26448554 -0.077568218 44 18
0.84282446 0.2591885 -0.11766289 6 16
0.8653791 0.26478627 -0.24899626 9 13
0.9427737 0.28730661 0.090869024 6 26
0.92680752 0.28247368 0.043555502 7 24
0.88714445 0.27031448 0 30 22
0.92032069 0.4151769 -0.022630524 7 21
0.88148272 0.26843604 -0.041342791 61 20
0.89573336 0.40400654 -0.065607026 5 19
0.86245114 0.26220337 -0.077791758 43 18
0.83898175 0.25481766 -0.11697481 6 16
0.86860061 0.26245341 -0.2496841 15 13
0.94849044 0.28560311 0.091344781 9 26
0.91821599 0.27637964 0.043089665 7 24
0.88808262 0.26721615 0 49 22
0.92169243 0.41212273 -0.022630524 6 21
0.87523478 0.26321709 -0.040993415 65 20
0.89941269 0.40190053 -0.065779679 7 19
0.85854292 0.25792089 -0.077344678 44 18
0.83032811 0.24921101 -0.11559863 5 16
0.93993342 0.27947494 0.090393275 10 26
0.92631334 0.27545226 0.043439046 7 24
0.89375991 0.26568305 0 52 22
0.92084265 0.40788513 -0.022572497 6 21
0.87854391 0.26086545 -0.041109871 60 20
0.89618468 0.39688456 -0.065434374 7 19
0.859438 0.25492242 -0.077344678 28 18
0.82881707 0.24561366 -0.11525459 5 16
0.79657942 0.23483495 -0.22767338 16 13
0.93617231 0.27463773 0.089917518 8 26
0.92491895 0.27135772 0.043322586 7 24
0.88752586 0.26031178 0 57 22
0.92690432 0.40652612 -0.022688551 6 21
0.87225479 0.255707 -0.040760498 58 20
0.89078856 0.39057544 -0.064916424 6 19
0.86275804 0.25246415 -0.077568218 8 18
0.82257622 0.24050793 -0.11422246 5 16
0.80201352 0.23338358 -0.22904904 24 13
0.93712527 0.27136824 0.089917518 8 26
0.91865957 0.26605996 0.042973209 7 24
0.88602614 0.25652263 0 56 22
0.92144793 0.40028396 -0.02251447 6 21
0.87074149 0.25197235 -0.040644038 57 20
0.8898614 0.38646439 -0.064743772 6 19
0.86124015 0.24876595 -0.077344678 5 18
0.83055341 0.23967654 -0.11525459 5 16
0.78895181 0.22663909 -0.22492205 27 13
0.93801999 0.26825911 0.089917518 9 26
0.91237456 0.26080921 0.042623833 8 24
0.88691616 0.25342828 0 56 22
0.91818374 0.39523849 -0.022398416 6 21
0.86680984 0.24757145 -0.040411122 60 20
0.89120501 0.3833558 -0.064743772 6 19
0.86445653 0.24658574 -0.077568218 5 18
0.81942797 0.23355818 -0.11353438 5 16
0.77816725 0.22063784 -0.22148287 27 13
0.93415743 0.26364213 0.089441761 9 26
0.92285419 0.26047352 0.043089665 7 24
0.8877517 0.25048578 0 54 22
0.92415118 0.39400265 -0.02251447 6 21
0.86762607 0.24469563 -0.040411122 60 20
0.89247137 0.38039836 -0.064743772 6 19
0.86291343 0.24289796 -0.077344678 5 18
0.8273946 0.23268914 -0.1145665 8 16
0.77657837 0.21741465 -0.22079504 28 13
0.74365407 0.20748898 -0.25497264 8 12
0.9326731 0.25971761 0.089203887 9 26
0.91172147 0.25392845 0.042507373 8 24
0.88862062 0.2473854 0 52 22
0.92092061 0.3888188 -0.022398416 6 21
0.87092471 0.24217717 -0.040527578 58 20
0.88690799 0.37435368 -0.064225823 7 19
0.86375612 0.23988435 -0.077344678 5 18
0.89032388 0.37561586 -0.10661572 7 17
0.82820183 0.22979957 -0.1145665 9 16
0.77968866 0.2151999 -0.22148287 35 13
0.73984975 0.20352224 -0.25333822 9 12
0.93121731 0.25564411 0.088966012 9 26
0.9102363 0.2499295 0.042390916 9 24
0.88469648 0.24281499 0 48 22
0.91312468 0.38156348 -0.022166308 6 21
0.86694491 0.23782608 -0.040294662 59 20
0.89057297 0.37206775 -0.064398475 8 19
0.86222625 0.2360653 -0.077121131 7 18
0.88247204 0.36865249 -0.10547848 7 17
0.83381885 0.22805683 -0.11525459 11 16
0.76650983 0.20872746 -0.21735585 36 13
0.75881195 0.20583364 -0.25987595 14 12
0.93691128 0.2536819 0.089441761 6 26
0.91833913 0.24869224 0.042740289 8 24
0.8879534 0.24037282 0 25 22
0.91906524 0.38029638 -0.022282362 6 21
0.86535752 0.23415205 -0.040178202 57 20
0.8941685 0.36991605 -0.064571127 7 19
0.85582864 0.23112454 -0.076450512 8 18
0.88375354 0.36556986 -0.10547848 8 17
0.83460981 0.22514488 -0.11525459 9 16
0.76026475 0.20420016 -0.21529235 47 13
0.75267345 0.20137183 -0.25742429 14 12
0.9329794 0.24913682 0.088966012 8 26
0.91678739 0.24484634 0.042623833 9 24
0.93180573 0.38217732 0.022572497 7 23
0.891204 0.23791084 0 7 22
0.91114551 0.37327299 -0.022050254 6 21
0.85651189 0.22857828 -0.039712369 36 20
0.88162112 0.3610853 -0.063535221 10 19
