# .PCD v0.7 - Point Cloud Data file format
VERSION 0.7
FIELDS x y z intensity ring
SIZE 4 4 4 4 2
TYPE F F F F U
COUNT 1 1 1 1 1
WIDTH 1475
HEIGHT 1
VIEWPOINT 0 0 0 1 0 0 0
POINTS 1475
DATA ascii
1.0960087 1.5856105 -0.21664314 9 17
1.5535626 1.7136329 -0.31652007 56 16
1.0738472 1.5545914 -0.32333285 7 15
1.1968875 1.3173316 -0.49936819 2 13
1.0542181 1.5266336 -0.41691959 4 14
1.198952 1.3168737 -0.60392559 3 12
0.95329505 1.3866457 -0.66643846 3 11
1.2110468 1.3214607 -0.93332827 3 9
0.95414168 1.3909308 -0.77589417 3 10
1.224239 1.331233 -1.0720634 3 8
0.94372535 1.3883934 -1.1125816 2 7
1.1163584 1.2067763 -1.2253307 19 6
0.83578527 1.2389992 -1.2357121 7 5
0.91599572 0.98245668 -1.2507255 3 4
nan nan nan 0 3
nan nan nan 0 2
nan nan nan 0 1
nan nan nan 0 0
4.0606093 5.8773813 1.8968177 21 31
4.2098813 4.613729 1.4373151 37 30
4.1453753 5.9890199 1.3985274 29 29
4.195714 4.6014104 0.96856654 36 28
4.1476774 5.981225 0.88428462 24 27
4.2147574 4.6238818 0.59469259 37 26
4.1121063 5.9254827 0.49939236 21 25
4.2250595 4.633543 0.29079702 38 24
4.1044331 5.9100208 0.16624731 26 23
4.2253804 4.6322713 0 37 22
3.9187467 5.6403527 -0.15864578 7 21
3.8545294 4.2245145 -0.26505968 27 20
1.0234731 1.4693831 -0.12154565 6 19
1.6410966 1.7992446 -0.21549208 72 18
1.098703 1.5776951 -0.21607453 6 17
1.5642496 1.7139541 -0.31755218 52 16
1.0722463 1.540717 -0.32118589 7 15
1.2047279 1.3166881 -0.50074387 3 13
1.0648296 1.5311395 -0.41915208 4 14
1.2083381 1.3178988 -0.60637724 3 12
0.9605208 1.3872918 -0.66831309 3 11
1.222919 1.3255417 -0.93919092 3 9
0.95257312 1.3782742 -0.77057987 3 10
1.2330135 1.3318702 -1.0759431 3 8
0.95323414 1.3919314 -1.1181865 3 7
1.1189964 1.2016141 -1.2238162 19 6
0.84309697 1.2409621 -1.240558 7 5
0.9217273 0.98204404 -1.2541806 3 4
nan nan nan 0 3
nan nan nan 0 2
nan nan nan 0 1
nan nan nan 0 0
4.1007605 5.8936329 1.9064856 29 31
4.1971364 4.5692596 1.4277331 36 30
4.1231208 5.914814 1.3843195 22 29
4.1825442 4.5565481 0.9619987 36 28
4.1021609 5.8738275 0.87034935 27 27
4.1988845 4.5743184 0.59017289 37 26
4.1160254 5.8893223 0.49748364 32 25
4.2099929 4.5864024 0.28870076 36 24
4.1236057 5.8936095 0.16618928 33 23
4.2187285 4.5943031 0 37 22
4.0129008 5.733139 -0.16166317 1 21
3.8929167 4.2367692 -0.26669011 33 20
1.0226223 1.4578061 -0.12085505 6 19
1.6473671 1.7935053 -0.21549208 67 18
1.1070515 1.5779204 -0.21664314 6 17
1.5735778 1.7121265 -0.31824028 55 16
1.0889076 1.5531121 -0.32462102 5 15
1.2109478 1.3142403 -0.5014317 3 13
1.0673764 1.5234178 -0.41803584 3 14
1.2129312 1.3136729 -0.60637724 4 12
0.9682458 1.3875674 -0.67018777 3 11
1.2275386 1.3212649 -0.93919092 3 9
0.96769929 1.3898127 -0.77908278 3 10
1.2422708 1.3320302 -1.0798227 3 8
0.95574105 1.3851833 -1.115384 3 7
1.1220299 1.1960564 -1.2223015 18 6
0.84763962 1.2378637 -1.240558 7 5
0.92407638 0.97734869 -1.2524531 3 4
nan nan nan 0 3
nan nan nan 0 2
nan nan nan 0 1
nan nan nan 0 0
4.1348095 5.8963666 1.9122862 22 31
4.1939969 4.5324001 1.4209691 36 30
4.1306677 5.879571 1.3795836 33 29
4.1740532 4.5139947 0.95620352 37 28
4.1336555 5.8729615 0.87246996 31 27
4.1953387 4.5369792 0.58731836 37 26
4.14189 5.8803153 0.4980042 29 25
4.2047253 4.5471139 0.2871868 37 24
4.1427135 5.8771362 0.16613126 29 23
4.2083669 4.5494566 0 37 22
nan nan nan 0 21
3.9212565 4.2378135 -0.26762179 33 20
1.0322694 1.4601637 -0.12137299 6 19
1.6522367 1.7856293 -0.21526857 56 18
1.1053975 1.5638958 -0.21522158 3 17
1.5848947 1.7117938 -0.31927243 47 16
1.0659572 1.5090318 -0.31603315 3 15
1.2204391 1.3152847 -0.50349522 4 13
1.0785646 1.5274656 -0.42026833 4 14
1.2255645 1.3180721 -0.61046338 4 12
0.97441345 1.3860773 -0.67112511 3 11
1.2338839 1.3183669 -0.94036335 3 9
0.96735829 1.3790085 -0.7748313 3 10
1.2527801 1.3339161 -1.0849954 3 8
0.96174932 1.3835406 -1.1167852 3 7
1.1303022 1.1964633 -1.2268453 19 6
0.84439206 1.2238885 -1.2292509 7 5
0.91998994 0.96627945 -1.242088 3 4
nan nan nan 0 3
nan nan nan 0 2
nan nan nan 0 1
nan nan nan 0 0
4.1316848 5.848351 1.9013294 30 31
4.179893 4.4856691 1.4108233 36 30
4.1469131 5.8591037 1.3781627 23 29
4.1678939 4.4759054 0.95118099 37 28
4.1727819 5.8848195 0.87640822 22 27
4.1857004 4.4949965 0.58375019 38 26
4.1854715 5.8983722 0.50078052 21 25
4.195034 4.5050035 0.28543994 37 24
4.1921315 5.9034057 0.16729179 22 23
4.1969466 4.5054798 0 38 22
1.4519346 2.0403566 -0.057330661 8 21
3.9019625 4.187572 -0.26529258 28 20
1.0445801 1.4667188 -0.12223624 6 19
1.6601589 1.781671 -0.21549208 40 18
1.1295452 1.5863543 -0.21891761 5 17
1.604383 1.7207271 -0.32202476 41 16
1.0769193 1.5133358 -0.31775072 5 15
1.2348816 1.321541 -0.50762218 4 13
1.0768403 1.5137533 -0.41747773 4 14
1.2301579 1.313786 -0.61046338 4 12
0.97657263 1.3788807 -0.66925043 3 11
1.2384783 1.3140519 -0.94036335 3 9
0.97998446 1.3867232 -0.78120852 3 10
1.258901 1.3310875 -1.0862887 3 8
0.9713124 1.3869666 -1.1223903 2 7
1.1303525 1.188194 -1.2223015 18 6
0.84974504 1.2225025 -1.2308662 8 5
nan nan nan 0 4
nan nan nan 0 3
nan nan nan 0 2
nan nan nan 0 1
nan nan nan 0 0
4.1660728 5.8535776 1.9077744 27 31
4.1738505 4.4479704 1.4034959 36 30
4.1944046 5.8825774 1.3871611 26 29
4.1615205 4.4379158 0.94615859 38 28
4.2091575 5.8924351 0.87974054 32 27
4.1784492 4.4574962 0.58065784 38 26
4.2248812 5.9101081 0.50303632 25 25
4.18681 4.464838 0.28380951 39 24
4.2664924 5.9639649 0.16943879 21 23
4.188694 4.4652839 0 37 22
1.4543309 2.0294316 -0.057156578 7 21
3.8379185 4.0901856 -0.2599355 25 20
1.0496936 1.4630635 -0.12223624 7 19
1.677994 1.7888577 -0.21705689 35 18
nan nan nan 0 17
1.6100804 1.7153974 -0.32202476 32 16
1.0936536 1.5255959 -0.32118589 4 15
1.237838 1.3154742 -0.5069344 3 13
1.0818542 1.510174 -0.41747773 4 14
1.2428516 1.3180687 -0.61454946 4 12
0.98248267 1.3775237 -0.67018777 3 11
1.2489163 1.3163366 -0.94505346 5 9
0.98481905 1.3832939 -0.78120852 3 10
1.2470571 1.3098819 -1.0720634 6 8
0.97614795 1.3835676 -1.1223903 3 7
1.139798 1.1901765 -1.2283599 19 6
0.85379434 1.2196779 -1.2308662 9 5
nan nan nan 0 4
nan nan nan 0 3
nan nan nan 0 2
nan nan nan 0 1
nan nan nan 0 0
4.200933 5.8613319 1.9148642 26 31
4.1651535 4.4093256 1.3956048 37 30
4.2153201 5.8706298 1.3876348 28 29
4.149076 4.3953624 0.93997705 38 28
4.2417107 5.8965797 0.88246697 18 27
4.1666398 4.413938 0.57685179 37 26
4.240087 5.8899918 0.50251573 30 25
4.1792989 4.42733 0.28229555 38 24
4.2541208 5.90516 0.1681622 28 23
4.1828732 4.429565 0 38 22
1.4511795 2.0101476 -0.056750391 8 21
3.8463144 4.0719914 -0.25958613 19 20
1.0530815 1.457551 -0.12206359 7 19
nan nan nan 0 18
1.0909539 1.5101099 -0.20925111 3 17
1.6296793 1.7241503 -0.3247771 28 16
1.1044623 1.5299559 -0.32290345 4 15
1.2537791 1.3235624 -0.51174927 5 13
1.0899661 1.5103445 -0.41859397 4 14
1.2472157 1.31394 -0.61454946 37 12
0.99403256 1.3835069 -0.67487442 3 11
1.2596132 1.3183469 -0.94974357 5 9
0.99071646 1.3818614 -0.78227139 3 10
1.2620012 1.3163179 -1.0811158 5 8
0.98431975 1.3853921 -1.1265939 3 7
1.138414 1.1804724 -1.2223015 19 6
0.86023986 1.2198132 -1.2340969 9 5
nan nan nan 0 4
nan nan nan 0 3
nan nan nan 0 2
nan nan nan 0 1
nan nan nan 0 0
4.2199535 5.8446736 1.9142197 27 31
4.1586871 4.3718262 1.3882773 36 30
4.2472906 5.8717957 1.3914235 23 29
4.1439643 4.3593779 0.93534088 39 28
4.2462573 5.8596277 0.8791346 28 27
4.1614389 4.3777299 0.57399726 38 26
4.2884274 5.9135251 0.50581264 21 25
4.1706309 4.3873835 0.28066513 39 24
4.2786708 5.8935738 0.16827825 26 23
4.1741815 4.3895826 0 39 22
1.4552516 2.0010242 -0.056634337 9 21
3.871546 4.068718 -0.2602849 11 20
1.0610927 1.457903 -0.1224089 6 19
1.7385391 1.8275717 -0.22331598 26 18
nan nan nan 0 17
1.6442324 1.7274113 -0.32649732 28 16
1.1187398 1.5378585 -0.32547981 5 15
1.2602832 1.3206948 -0.51243705 5 13
1.0980921 1.5104765 -0.41971022 5 14
1.2585632 1.3161821 -0.61781836 66 12
0.99774033 1.3779749 -0.67393708 3 11
1.2795372 1.3298329 -0.96146882 4 9
0.99445212 1.3763849 -0.78120852 3 10
nan nan nan 0 8
0.98698574 1.3784044 -1.1237913 3 7
1.1455094 1.179141 -1.2253307 19 6
0.86580724 1.2182094 -1.2357121 10 5
nan nan nan 0 4
nan nan nan 0 3
nan nan nan 0 2
nan nan nan 0 1
nan nan nan 0 0
4.2541313 5.8467507 1.9200203 32 31
4.1493959 4.3301854 1.3798225 36 30
4.2687831 5.8561893 1.3914235 33 29
4.1359892 4.3191938 0.92993206 37 28
4.2823339 5.8640709 0.88216406 25 27
4.1550717 4.3390894 0.57090485 38 26
4.3012476 5.8856826 0.50477153 32 25
4.1694045 4.3540373 0.27950054 39 24
4.3051157 5.8866744 0.16851036 19 23
4.1712117 4.3544021 0 39 22
1.4655266 1.9997115 -0.056750391 8 21
3.9652355 4.1380911 -0.26564199 10 20
1.0782075 1.4701091 -0.1237901 6 19
1.8055788 1.8840569 -0.23113987 29 18
1.182375 1.6125299 -0.22488809 7 17
1.6659917 1.7374449 -0.32959372 24 16
1.1328202 1.5458746 -0.32805619 4 15
1.2782255 1.3301355 -0.51793975 3 13
1.1050583 1.5084094 -0.42026833 4 14
1.2647908 1.3134807 -0.61863554 8 12
1.0066329 1.3801074 -0.67674905 3 11
nan nan nan 0 9
1.0019082 1.3765684 -0.78333426 3 10
1.4222573 1.4619629 -1.2117292 12 8
0.99541664 1.3799943 -1.1279951 3 7
1.1496184 1.1751353 -1.2253307 18 6
0.86783874 1.2120726 -1.2324815 10 5
nan nan nan 0 4
nan nan nan 0 3
nan nan nan 0 2
nan nan nan 0 1
nan nan nan 0 0
4.2987785 5.8649931 1.9309772 27 31
4.140799 4.2911458 1.3719314 37 30
4.3342171 5.9026051 1.4061049 30 29
4.1304584 4.2834024 0.92529589 38 28
4.3071866 5.8550863 0.88307291 33 27
4.1400642 4.294838 0.56686097 38 26
4.3350668 5.8887134 0.50633317 30 25
4.1568317 4.3107047 0.27763721 38 24
4.3256383 5.8716102 0.16851036 31 23
4.1586051 4.3110371 0 39 22
1.4677037 1.9888035 -0.056576312 9 21
4.0091467 4.1547637 -0.26762179 10 20
1.1203151 1.5165352 -0.12810634 6 19
1.8014348 1.8673158 -0.22979863 29 18
1.1894697 1.6103926 -0.22517239 8 17
1.6889577 1.749711 -0.33303416 14 16
1.1250683 1.5240606 -0.32419163 5 15
1.2778403 1.32049 -0.51587623 3 13
1.1129425 1.5086625 -0.42138457 4 14
1.2825428 1.3226105 -0.62517333 4 12
1.0070968 1.3711517 -0.67393708 3 11
1.6099458 1.6491652 -1.2053536 11 9
1.0040369 1.3694088 -0.78120852 3 10
1.4375892 1.4679263 -1.2207816 14 8
0.9990133 1.3748342 -1.1265939 3 7
1.1507133 1.1684865 -1.2223015 19 6
0.87074053 1.2076381 -1.2308662 10 5
nan nan nan 0 4
nan nan nan 0 3
nan nan nan 0 2
nan nan nan 0 1
nan nan nan 0 0
4.4070954 5.971231 1.9709374 74 31
4.1363306 4.2581801 1.3657312 37 30
4.4267049 5.9869132 1.4297847 83 29
4.1171036 4.2413349 0.91911441 38 28
4.3871136 5.9225483 0.89549345 32 27
4.134222 4.2589397 0.56400645 38 26
4.3456635 5.8622808 0.50529206 31 25
4.1537027 4.2789841 0.27647263 38 24
4.3525276 5.8672729 0.1688005 26 23
4.1537127 4.2775011 0 39 22
1.4716586 1.9796534 -0.056460254 9 21
4.0716419 4.1915836 -0.27088261 15 20
1.1520852 1.5488663 -0.13121405 6 19
1.7923129 1.8449559 -0.22778676 26 18
1.2007229 1.6144186 -0.22630964 8 17
1.7261513 1.775737 -0.33922693 23 16
1.1286496 1.518343 -0.32376224 4 15
1.2687782 1.3024886 -0.51037353 6 13
1.1153002 1.5008527 -0.42026833 5 14
1.2786595 1.3099071 -0.62108725 4 12
1.0187551 1.376954 -0.67862368 3 11
1.6203411 1.648254 -1.2088711 12 9
1.0139372 1.3733617 -0.78546 3 10
1.4427044 1.4628992 -1.2207816 14 8
1.0072266 1.3765324 -1.1307976 3 7
1.1603959 1.170103 -1.2283599 19 6
0.87271404 1.2014995 -1.2276356 10 5
nan nan nan 0 4
nan nan nan 0 3
nan nan nan 0 2
nan nan nan 0 1
nan nan nan 0 0
4.4365549 5.9674449 1.9748044 84 31
4.127316 4.2193489 1.3578401 38 30
4.4490418 5.9733934 1.4302583 69 29
4.1077023 4.202219 0.91370559 38 28
4.4596796 5.9768276 0.9060964 81 27
4.12992 4.2249136 0.5613898 39 26
4.3795238 5.8650656 0.50685376 27 25
4.1406722 4.2358961 0.2746093 38 24
4.3740029 5.8512807 0.1688005 35 23
4.1476364 4.2415342 0 38 22
1.4770638 1.9725022 -0.056402225 9 21
4.1254172 4.2158852 -0.27344471 32 20
1.1873435 1.5847918 -0.13466705 6 19
1.7882855 1.8280178 -0.22644554 20 18
1.1843247 1.5801663 -0.222045 4 17
1.7427419 1.780309 -0.34129122 28 16
1.1342069 1.5141962 -0.32376224 5 15
1.2752291 1.2995429 -0.51106137 6 13
1.1263632 1.5047617 -0.42250085 6 14
1.2817932 1.3035293 -0.62027001 4 12
1.0224124 1.3713506 -0.67768639 3 11
1.6276395 1.6441555 -1.2100437 12 9
1.0149205 1.3641834 -0.78227139 3 10
1.4480566 1.4576015 -1.2207816 14 8
1.011039 1.3711629 -1.1293963 3 7
1.1576372 1.1588173 -1.2207868 18 6
0.87711185 1.1982926 -1.2276356 10 5
nan nan nan 0 4
nan nan nan 0 3
nan nan nan 0 2
nan nan nan 0 1
nan nan nan 0 0
4.4569492 5.9492102 1.97416 58 31
4.1188102 4.179914 1.3499489 38 30
4.4414487 5.9177718 1.4207865 38 29
4.1074734 4.1713023 0.91022849 38 28
4.4621763 5.9346499 0.90215814 39 27
4.1244164 4.1884775 0.55853528 39 26
4.4774313 5.950635 0.51570332 37 25
4.1368885 4.2011251 0.27332824 39 24
4.4064226 5.8519535 0.16926472 32 23
4.1385832 4.2013788 0 39 22
1.4812766 1.9630823 -0.056286175 9 21
4.1401081 4.2014594 -0.27344471 38 20
1.2246494 1.6222688 -0.13829271 6 19
1.8072184 1.8338552 -0.22801031 7 18
1.5035909 1.9926956 -0.28174981 7 17
1.7596966 1.784479 -0.34335545 17 16
1.1468896 1.5200676 -0.3259092 6 15
nan nan nan 0 13
1.1348004 1.5045182 -0.42361709 7 14
nan nan nan 0 12
1.0258042 1.365918 -0.67674905 3 11
1.6320941 1.6366171 -1.2088711 12 9
1.0237389 1.366071 -0.78546 3 10
1.4516205 1.451027 -1.2194883 14 8
1.0232099 1.3776101 -1.1378038 3 7
1.1659138 1.1589695 -1.2253307 19 6
0.88354808 1.1982995 -1.2308662 10 5
nan nan nan 0 4
nan nan nan 0 3
nan nan nan 0 2
nan nan nan 0 1
nan nan nan 0 0
4.4442391 5.8892589 1.959336 36 31
4.1076322 4.1395874 1.3414941 37 30
4.4280457 5.8571835 1.4098936 34 29
4.1011314 4.1359 0.90559232 39 28
4.44243 5.865612 0.89397877 35 27
4.1154981 4.1518087 0.55544287 38 26
4.4665542 5.8932195 0.51205939 35 25
4.1304193 4.1653881 0.27193075 39 24
4.4751334 5.9002762 0.17112158 37 23
4.1285658 4.1620679 0 39 22
1.4877782 1.9581594 -0.056286175 9 21
4.1353927 4.16749 -0.27216366 40 20
1.2423623 1.6338807 -0.1396739 7 19
nan nan nan 0 18
1.5300508 2.0131612 -0.28544581 8 17
nan nan nan 0 16
1.168553 1.5376455 -0.33063254 6 15
nan nan nan 0 13
1.1427261 1.504632 -0.42473334 8 14
1.7001003 1.70393 -0.82048893 4 12
1.0359086 1.3699118 -0.68049836 3 11
1.6359466 1.6296393 -1.2076987 12 9
1.0312221 1.3661054 -0.78758574 3 10
1.4579445 1.4477112 -1.2207816 14 8
1.0280125 1.37403 -1.1378038 3 7
1.1669157 1.1523061 -1.2223015 17 6
0.88751686 1.195363 -1.2308662 10 5
nan nan nan 0 4
nan nan nan 0 3
nan nan nan 0 2
nan nan nan 0 1
nan nan nan 0 0
4.4345288 5.8360138 1.9464456 34 31
4.1075616 4.1121631 1.3369849 38 30
4.4177208 5.8033934 1.4004219 33 29
4.0921307 4.0995607 0.90056986 39 28
4.4302692 5.8093991 0.88761699 35 27
4.1018243 4.1092467 0.55163682 38 26
4.4512882 5.8327637 0.50806838 36 25
4.1142058 4.1216331 0.26995096 39 24
4.4643488 5.8456669 0.16996104 36 23
4.1176047 4.1235967 0 38 22
1.4900535 1.9469951 -0.056112096 9 21
4.1262379 4.130794 -0.2706497 38 20
1.2719941 1.6614654 -0.14243631 7 19
nan nan nan 0 18
1.5321956 2.0021544 -0.2845929 8 17
nan nan nan 0 16
1.2154821 1.5885811 -0.34265554 7 15
nan nan nan 0 13
1.1435369 1.4948215 -0.42305899 7 14
1.7107691 1.7032789 -0.82294059 4 12
1.037881 1.3625958 -0.67862368 3 11
1.6400537 1.6223677 -1.2065262 12 9
1.0412127 1.3698925 -0.79183722 3 10
1.462989 1.4426132 -1.2207816 14 8
1.0338064 1.372269 -1.1392051 3 7
1.1751977 1.1523968 -1.2268453 17 6
0.89168406 1.1922578 -1.2308662 10 5
nan nan nan 0 4
nan nan nan 0 3
nan nan nan 0 2
nan nan nan 0 1
nan nan nan 0 0
4.4108505 5.7629395 1.9271101 33 31
4.0942435 4.0703354 1.3279665 38 30
4.3976407 5.7353272 1.3876348 33 29
4.0801401 4.0591316 0.89477468 38 28
4.4187899 5.7525611 0.88125527 34 27
4.1002588 4.0791135 0.54949594 39 26
4.4397168 5.7756572 0.50442445 35 25
4.109086 4.0878801 0.2686699 39 24
4.4537497 5.7876587 0.16874246 35 23
4.116014 4.0933385 0 39 22
1.4983646 1.9437628 -0.056170117 10 21
4.1254025 4.0998054 -0.26960158 34 20
1.3294891 1.724226 -0.14830641 7 19
nan nan nan 0 18
1.5364939 1.9925884 -0.28402427 8 17
nan nan nan 0 16
1.2603312 1.6348763 -0.35381976 7 15
nan nan nan 0 13
1.1532025 1.4966177 -0.42473334 4 14
1.7186825 1.6986566 -0.82375783 4 12
1.0470932 1.3643047 -0.6814357 3 11
1.6488603 1.6197242 -1.2088711 12 9
1.0448534 1.3642687 -0.79077435 3 10
1.4667357 1.4357464 -1.2194883 14 8
1.0388291 1.3684708 -1.1392051 3 7
1.1794134 1.1480818 -1.2268453 17 6
0.89719325 1.1905077 -1.2324815 10 5
nan nan nan 0 4
nan nan nan 0 3
nan nan nan 0 2
nan nan nan 0 1
nan nan nan 0 0
4.4024539 5.7084689 1.9142197 33 31
4.0883241 4.0347795 1.3212025 38 30
4.3961301 5.6900249 1.3805308 33 29
4.0756516 4.0250659 0.89052486 38 28
4.4079609 5.6951046 0.87489349 34 27
4.092154 4.0413332 0.54640353 39 26
4.4303255 5.7199011 0.50095403 34 25
4.1044884 4.0534973 0.26738885 40 24
4.4356632 5.7226791 0.16729179 35 23
4.1078525 4.0554008 0 39 22
1.50701 1.9402337 -0.056228146 11 21
4.1201286 4.0660915 -0.26832053 29 20
1.3480232 1.7351114 -0.14968762 7 19
nan nan nan 0 18
1.5388751 1.9813237 -0.28317136 10 17
nan nan nan 0 16
1.3097662 1.6869323 -0.36627212 8 15
nan nan nan 0 13
1.1392853 1.4673321 -0.41747773 3 14
1.727977 1.6959535 -0.82539219 4 12
1.0504344 1.3588054 -0.68049836 3 11
1.6500388 1.6090504 -1.2053536 10 9
1.0537475 1.3659945 -0.79396296 3 10
1.4732747 1.4321076 -1.2207816 14 8
1.0473644 1.3697765 -1.1434088 3 7
1.1819818 1.1425778 -1.2253307 17 6
0.90134346 1.1873685 -1.2324815 10 5
nan nan nan 0 4
nan nan nan 0 3
nan nan nan 0 2
nan nan nan 0 1
nan nan nan 0 0
4.3986549 5.6625371 1.9039074 33 31
4.0762801 3.9949224 1.3127478 37 30
4.3828139 5.6320143 1.3701117 33 29
4.0702715 3.9917979 0.88627505 39 28
4.3957872 5.6385727 0.86853176 33 27
4.0859842 4.0085773 0.54378688 39 26
4.4149961 5.659163 0.49696308 35 25
4.0954256 4.0164223 0.26587489 39 24
4.423327 5.6657782 0.16607322 35 23
4.096981 4.0165448 0 39 22
1.5042096 1.9234039 -0.055879988 13 21
4.1111016 4.0289707 -0.26680657 26 20
nan nan nan 0 19
2.0308344 1.9904419 -0.25215259 2 18
1.5411962 1.9700663 -0.28231841 9 17
nan nan nan 0 16
1.345945 1.7211862 -0.37485999 9 15
nan nan nan 0 13
1.145643 1.4654679 -0.41803584 4 14
1.7304995 1.6866165 -0.82375783 4 12
1.0577762 1.3589766 -0.68237299 3 11
1.6426655 1.5912927 -1.1959734 10 9
1.0571237 1.3605188 -0.79290009 3 10
1.4780157 1.427214 -1.2207816 14 8
1.0571821 1.3726815 -1.1490136 3 7
1.1843275 1.1372766 -1.2238162 17 6
0.90527594 1.184373 -1.2324815 10 5
nan nan nan 0 4
nan nan nan 0 3
nan nan nan 0 2
nan nan nan 0 1
nan nan nan 0 0
4.3787341 5.5984373 1.8871499 33 31
4.0737929 3.9660978 1.3076749 38 30
4.3696871 5.5768609 1.3601662 34 29
4.0640187 3.9593272 0.8820253 39 28
4.3884244 5.5907712 0.86338174 33 27
4.0749865 3.9699869 0.54045659 39 26
4.4060206 5.6091795 0.49383971 35 25
4.0908279 3.9854 0.26471031 39 24
4.4158449 5.6176662 0.16508676 34 23
4.0869865 3.9802704 0 39 22
1.5155479 1.924036 -0.056054067 11 21
3.9024763 3.7993906 -0.25236571 1 20
1.4707761 1.86707 -0.16211841 8 19
2.032413 1.978135 -0.25148198 2 18
1.5461857 1.9629922 -0.28203413 10 17
nan nan nan 0 16
1.362295 1.7302709 -0.37786576 10 15
nan nan nan 0 13
nan nan nan 0 14
1.7496746 1.6940035 -0.83029556 4 12
1.0625134 1.3552761 -0.68237299 3 11
1.638653 1.5763745 -1.1889383 17 9
1.0658041 1.3623588 -0.7960887 3 10
1.4829885 1.4220461 -1.2207816 14 8
1.0629944 1.3708063 -1.1504149 3 7
1.1882901 1.1331356 -1.2238162 16 6
0.90592158 1.1766633 -1.2276356 10 5
nan nan nan 0 4
nan nan nan 0 3
nan nan nan 0 2
nan nan nan 0 1
nan nan nan 0 0
4.3698621 5.5470572 1.8749042 32 31
4.0683432 3.9332392 1.3014748 38 30
4.3587265 5.5230241 1.3506943 33 29
4.05828 3.9262331 0.87777549 39 28
4.3725305 5.5306325 0.85641408 33 27
4.067348 3.9349821 0.53760213 39 26
4.3899984 5.548768 0.48984873 34 25
4.0759869 3.9433248 0.26284698 39 24
4.4022818 5.5583286 0.16381018 34 23
4.0810795 3.9468701 0 39 22
1.5222549 1.9187342 -0.056054067 15 21
3.8894296 3.7590406 -0.25061885 1 20
1.4587069 1.8384603 -0.16004661 8 19
2.0285549 1.960654 -0.25014073 2 18
1.5657072 1.9728885 -0.28430858 9 17
2.0306182 1.9612842 -0.38739303 2 16
1.3670992 1.723335 -0.37743637 10 15
nan nan nan 0 13
1.1845678 1.4937501 -0.42864022 3 14
1.7592815 1.6908501 -0.83192998 4 12
1.0674736 1.3513726 -0.68237299 3 11
1.6537347 1.5797861 -1.1959734 17 9
1.0763828 1.3655602 -0.80034018 3 10
1.4881907 1.4166012 -1.2207816 14 8
1.0705557 1.370168 -1.1532173 3 7
1.1953282 1.1315026 -1.2268453 16 6
0.91256136 1.1763549 -1.2308662 10 5
nan nan nan 0 4
nan nan nan 0 3
nan nan nan 0 2
nan nan nan 0 1
nan nan nan 0 0
4.3601427 5.493154 1.8620137 33 31
4.0598788 3.8963859 1.2941473 39 30
4.3529792 5.4743395 1.3426431 33 29
4.0494752 3.8890996 0.87275308 39 28
4.3695893 5.4854455 0.85186994 35 27
4.063787 3.9028168 0.53522331 40 26
4.3838902 5.4994793 0.4868989 34 25
4.0723939 3.911068 0.26168239 39 24
4.3951721 5.5097036 0.16282372 35 23
4.0774775 3.9145787 0 39 22
1.5261599 1.9092343 -0.055938009 14 21
4.0989928 3.9338448 -0.26331279 29 20
1.4732118 1.8428501 -0.16090986 8 19
2.0141506 1.9325361 -0.24745825 2 18
nan nan nan 0 17
2.0199058 1.9367051 -0.38395262 2 16
1.3777118 1.7243299 -0.37872452 10 15
nan nan nan 0 13
1.2173709 1.5237031 -0.43868646 5 14
1.7685945 1.6879581 -0.83356446 4 12
1.0765049 1.3530858 -0.68518502 3 11
1.6643251 1.5782671 -1.1994909 12 9
1.0811428 1.3617946 -0.80034018 3 10
1.4931264 1.4113978 -1.2207816 14 8
1.0778874 1.3696808 -1.1560199 3 7
1.1978194 1.1259634 -1.2253307 15 6
0.91549021 1.1716565 -1.2292509 10 5
nan nan nan 0 4
nan nan nan 0 3
nan nan nan 0 2
nan nan nan 0 1
nan nan nan 0 0
4.3491383 5.440156 1.8491234 33 31
4.0487614 3.858675 1.2862561 39 30
4.3383183 5.4169469 1.332224 34 29
4.0415688 3.8544929 0.86811686 39 28
4.3607702 5.4353089 0.84641701 35 27
4.0575676 3.8697221 0.53260666 39 26
4.378089 5.4530177 0.48412254 35 25
4.0697508 3.8813233 0.26063424 40 24
4.3799548 5.4514518 0.16154712 35 23
4.0730157 3.8830779 0 39 22
1.5375113 1.9097404 -0.056112096 10 21
3.8685577 3.6870191 -0.24759091 1 20
1.4749494 1.8318636 -0.16039191 7 19
2.0136678 1.9186287 -0.24656409 2 18
nan nan nan 0 17
2.0176804 1.9211121 -0.3822324 2 16
1.3683038 1.7003057 -0.37443063 9 15
1.8518213 1.7585814 -0.72085106 2 13
1.2348846 1.5346485 -0.4431515 6 14
1.7761922 1.6833981 -0.8343817 4 12
1.0826681 1.3511305 -0.6861223 3 11
1.6714331 1.5739599 -1.2006634 12 9
1.0873002 1.3597819 -0.80140305 3 10
1.4996058 1.4076396 -1.2220747 14 8
1.0800949 1.3626608 -1.1532173 3 7
1.2046545 1.1244851 -1.2283599 15 6
0.9219287 1.1714571 -1.2324815 10 5
nan nan nan 0 4
nan nan nan 0 3
nan nan nan 0 2
nan nan nan 0 1
nan nan nan 0 0
4.34236 5.3929482 1.8381665 33 31
4.046279 3.8294575 1.2811832 39 30
4.3356338 5.3750143 1.3255937 34 29
4.0334711 3.8199897 0.86348081 39 28
4.345418 5.3775778 0.83975232 35 27
4.0504971 3.8374257 0.52999002 39 26
4.3610454 5.3930869 0.4801316 35 25
4.0596943 3.8447795 0.25912032 40 24
4.376955 5.4089212 0.16073474 35 23
4.0647521 3.8482208 0 39 22
1.5438359 1.9046314 -0.056112096 13 21
3.8650737 3.6580501 -0.24654278 1 20
1.1659923 1.4370103 -0.12568924 4 19
2.0109704 1.9033897 -0.24544638 2 18
1.1784893 1.4524442 -0.21010405 3 17
2.0114377 1.90251 -0.3798241 2 16
nan nan nan 0 15
1.8544486 1.7488118 -0.71947539 3 13
1.2476251 1.5400221 -0.4459421 6 14
1.7889456 1.6836584 -0.83765054 4 12
1.0915003 1.3529508 -0.68893427 3 11
1.6879413 1.5789554 -1.2088711 12 9
1.0948735 1.3595071 -0.80352879 3 10
1.5042654 1.4026591 -1.2220747 14 8
1.0912907 1.3669826 -1.1602235 3 7
1.2112979 1.1231846 -1.2313893 14 6
0.92580825 1.1683935 -1.2324815 10 5
nan nan nan 0 4
nan nan nan 0 3
nan nan nan 0 2
nan nan nan 0 1
nan nan nan 0 0
4.3282905 5.3391037 1.8246317 33 31
4.037653 3.7960067 1.2744193 38 30
4.3224978 5.3224859 1.3161218 34 29
4.0317192 3.7930589 0.86038995 39 28
4.3350492 5.3284783 0.83429939 34 27
4.0421095 3.8028092 0.52713549 39 26
4.352149 5.3457069 0.47718173 34 25
4.0560455 3.8159018 0.25807217 40 24
4.3610864 5.350975 0.15945815 34 23
4.0574503 3.8158879 0 39 22
1.5567894 1.9069815 -0.056344204 11 21
3.8577943 3.6257315 -0.24526173 1 20
1.1597241 1.4196008 -0.1244807 4 19
2.0121551 1.8912468 -0.24477577 2 18
1.1741371 1.4367697 -0.20839819 4 17
2.0036163 1.8819267 -0.37707174 3 16
nan nan nan 0 15
1.8464953 1.7291971 -0.71397275 3 13
1.1822351 1.4487143 -0.42026833 3 14
1.798267 1.6806267 -0.83928496 4 12
1.0964519 1.3489411 -0.68893427 3 11
1.695062 1.5745547 -1.2100437 12 9
1.1010351 1.3574365 -0.8045916 3 10
1.5078244 1.3956846 -1.2207816 14 8
1.0999399 1.3680116 -1.1644272 3 7
1.2124755 1.1160477 -1.2283599 14 6
0.93127209 1.1664859 -1.2340969 10 5
nan nan nan 0 4
nan nan nan 0 3
nan nan nan 0 2
nan nan nan 0 1
nan nan nan 0 0
4.3218656 5.2913909 1.8136748 34 31
4.0301633 3.7612498 1.2676556 39 30
4.3155622 5.2743006 1.3080707 33 29
4.0203128 3.7546642 0.85498112 39 28
4.3278184 5.2799172 0.82914937 34 27
4.0305467 3.7641981 0.52380526 39 26
4.3432546 5.2950006 0.47405836 35 25
4.0444431 3.7771568 0.25644177 41 24
4.3543782 5.304801 0.15852971 34 23
4.0458159 3.777117 0 38 22
1.565354 1.9031944 -0.056402225 13 21
3.84851 3.5918052 -0.24386421 1 20
1.1696665 1.421124 -0.12499864 6 19
2.0026755 1.8685843 -0.24276392 2 18
1.1838728 1.4384217 -0.20925111 4 17
2.008688 1.8728831 -0.3767277 3 16
1.1720514 1.4250062 -0.31560379 6 15
1.8472353 1.7178353 -0.71190917 3 13
1.1798112 1.4349493 -0.41747773 4 14
1.8093226 1.6791564 -0.84173667 4 12
1.1040846 1.3486966 -0.69080895 3 11
1.6991969 1.5668365 -1.2088711 12 9
1.1071959 1.3553395 -0.80565453 3 10
1.5111099 1.3889667 -1.2194883 14 8
1.1047087 1.3641638 -1.1644272 3 7
1.2134236 1.1091295 -1.2253307 13 6
0.93056709 1.1572707 -1.2276356 10 5
nan nan nan 0 4
nan nan nan 0 3
nan nan nan 0 2
nan nan nan 0 1
nan nan nan 0 0
4.3173022 5.2482829 1.8040071 34 31
4.0253968 3.7306104 1.262019 39 30
4.3027391 5.2213054 1.2985988 34 29
4.0134659 3.7221408 0.85073143 39 28
4.3162189 5.2284064 0.82339352 34 27
4.0254078 3.7331908 0.52142644 39 26
4.329957 5.2413411 0.47058794 35 25
4.0374546 3.7443449 0.25516072 39 24
4.3426247 5.2529588 0.15742721 34 23
4.0388017 3.7442832 0 40 22
1.5767654 1.9034979 -0.056576312 12 21
4.0570841 3.7599032 -0.2563253 28 20
nan nan nan 0 19
2.0000467 1.8531278 -0.24164622 2 18
nan nan nan 0 17
2.0006666 1.8524133 -0.37397534 3 16
nan nan nan 0 15
1.8496861 1.7081189 -0.71053356 4 13
1.1832614 1.4289433 -0.41691959 5 14
1.8116951 1.6696312 -0.8401022 4 12
1.1132009 1.3502057 -0.69362092 3 11
1.7030261 1.5594063 -1.2076987 12 9
1.1162252 1.356715 -0.80884308 3 10
1.515949 1.3836834 -1.2194883 14 8
1.1081576 1.3586929 -1.1630261 4 7
1.2187625 1.1062216 -1.2268453 12 6
0.93460107 1.1540153 -1.2276356 10 5
nan nan nan 0 4
nan nan nan 0 3
nan nan nan 0 2
nan nan nan 0 1
nan nan nan 0 0
4.3001685 5.1903858 1.7891831 33 31
4.0150876 3.6951041 1.2546916 38 30
4.2942991 5.1741328 1.2905477 35 29
4.0064411 3.6897113 0.84648162 39 28
4.3074841 5.1808596 0.81824356 36 27
4.0231171 3.7063375 0.51952344 40 26
4.3259053 5.1993465 0.46815866 36 25
4.0357985 3.7167008 0.25422904 40 24
4.3337598 5.2051058 0.15644075 36 23
4.029768 3.7098525 0 40 22
1.5894642 1.9059428 -0.056808416 10 21
3.7962859 3.4938555 -0.23897298 16 20
1.5960591 1.9131773 -0.17006031 10 19
1.9896797 1.8313224 -0.23963436 2 18
1.5562296 1.8653289 -0.27407345 40 17
1.9940312 1.8340448 -0.37156704 2 16
1.4135214 1.6950992 -0.37872452 25 15
1.8343624 1.6821775 -0.70227951 5 13
1.2877005 1.5449389 -0.45263961 8 14
1.8227454 1.6680773 -0.84255385 3 12
1.1132394 1.3411502 -0.69080895 3 11
1.7065529 1.5522661 -1.2065262 12 9
1.1238365 1.3562995 -0.81096882 3 10
1.523703 1.3815196 -1.2220747 14 8
1.1128937 1.3548164 -1.1630261 4 7
1.2194659 1.0995147 -1.2238162 11 6
0.9408285 1.1538721 -1.2308662 10 5
nan nan nan 0 4
nan nan nan 0 3
nan nan nan 0 2
nan nan nan 0 1
nan nan nan 0 0
4.2941585 5.1482649 1.7795153 34 31
4.0129323 3.668628 1.2501824 38 30
4.2831144 5.125947 1.282023 35 29
3.9986005 3.6580739 0.84223175 40 28
4.3007584 5.1379938 0.81369936 36 27
4.0158248 3.6738017 0.5169068 41 26
4.3175111 5.1543736 0.46538234 35 25
4.0259824 3.6830783 0.25283152 40 24
4.3253188 5.1600499 0.15551232 36 23
4.0272832 3.6829774 0 40 22
1.6041352 1.9099602 -0.057098553 10 21
3.7709739 3.4475627 -0.23664379 17 20
1.6039968 1.9097854 -0.17023297 10 19
1.9868636 1.8159741 -0.23851667 2 18
1.5640023 1.8620615 -0.27435777 40 17
1.9931021 1.8203995 -0.37019089 2 16
1.4222977 1.6941786 -0.37958333 39 15
1.8363738 1.6728512 -0.70090383 6 13
1.3056011 1.5553818 -0.45710459 10 14
1.8317665 1.6651992 -0.84418833 3 12
1.1223655 1.3425971 -0.69362092 3 11
1.711961 1.5462997 -1.2065262 12 9
1.126881 1.3508254 -0.80990601 3 10
1.5253323 1.3733327 -1.2194883 14 8
1.1213311 1.3559113 -1.1672298 3 7
1.2247803 1.0965757 -1.2253307 11 6
0.9436425 1.149104 -1.2292509 10 5
nan nan nan 0 4
nan nan nan 0 3
nan nan nan 0 2
nan nan nan 0 1
nan nan nan 0 0
4.2857027 5.1017923 1.7685585 33 31
4.0058694 3.6365976 1.2439822 39 30
4.2772841 5.0827837 1.274919 35 29
3.9930561 3.6274929 0.8383683 41 28
4.2866921 5.0849919 0.80764061 35 27
4.0083537 3.641362 0.51429009 41 26
4.303328 5.1011338 0.46191192 36 25
4.022172 3.6538963 0.2517834 41 24
4.3103528 5.1040497 0.15429375 36 23
4.0197492 3.6504176 0 40 22
1.6204656 1.9158077 -0.057446711 10 21
3.7262344 3.381716 -0.23303358 21 20
1.6154797 1.909892 -0.1707509 9 19
1.9802742 1.7973242 -0.23695189 3 18
1.5644064 1.848726 -0.27322054 33 17
1.9847596 1.8001347 -0.3674385 2 16
1.4284976 1.6889542 -0.37958333 36 15
1.8442771 1.6677198 -0.70159167 6 13
1.3110225 1.5508149 -0.45710459 10 14
1.846635 1.6663804 -0.84827441 3 12
1.1272789 1.3384744 -0.69362092 3 11
1.7173481 1.5403146 -1.2065262 12 9
1.1376377 1.353624 -0.81415743 3 10
1.5303555 1.367733 -1.2194883 14 8
1.1236475 1.3486068 -1.1644272 3 7
1.2258137 1.0894413 -1.2223015 10 6
0.95027471 1.1485827 -1.2324815 10 5
nan nan nan 0 4
nan nan nan 0 3
nan nan nan 0 2
nan nan nan 0 1
nan nan nan 0 0
4.279417 5.0565395 1.7582462 34 31
4.001071 3.6055934 1.2383456 39 30
4.2689104 5.0352316 1.2668679 35 29
3.9879756 3.5962999 0.8345049 42 28
4.2812147 5.0408649 0.80309647 35 27
4.0031848 3.6099877 0.51191139 39 26
4.2929363 5.0511103 0.45878851 35 25
4.0132742 3.6190703 0.25038591 40 24
4.303865 5.0604053 0.15342334 36 23
4.0126681 3.6172554 0 40 22
nan nan nan 0 21
3.7602861 3.3887408 -0.23443107 22 20
1.6240848 1.9058582 -0.17092356 9 19
1.9812945 1.7850585 -0.23628128 3 18
1.5563679 1.8262254 -0.27066177 20 17
1.9821361 1.7845716 -0.36571831 2 16
1.4391692 1.6895877 -0.3808715 35 15
1.8572464 1.6676888 -0.70434302 6 13
1.3166977 1.5459994 -0.45710459 10 14
1.8506794 1.658349 -0.84745717 6 12
1.1349373 1.3380706 -0.69549555 3 11
1.7246327 1.5354763 -1.2076987 12 9
1.1394371 1.3461859 -0.81203175 3 10
1.5351206 1.3623827 -1.2194883 13 8
1.1363183 1.3542049 -1.1728346 4 7
1.2340889 1.089097 -1.2268453 10 6
0.95184112 1.1423221 -1.2292509 10 5
nan nan nan 0 4
nan nan nan 0 3
nan nan nan 0 2
nan nan nan 0 1
nan nan nan 0 0
4.2672849 5.0066309 1.7460004 34 31
3.9936597 3.5737474 1.2321454 39 30
4.2625618 4.9922881 1.259764 35 29
3.9820974 3.5658877 0.83064145 41 28
4.2713752 4.9938207 0.79794651 35 27
3.994736 3.5784357 0.50929475 39 26
4.2878475 5.0095601 0.45635924 36 25
4.0072718 3.5883875 0.24922132 40 24
4.2971253 5.0168695 0.15255293 36 23
4.0122266 3.5915599 0 40 22
4.3110051 5.0313077 -0.15301715 34 21
3.755337 3.3606133 -0.23338296 19 20
1.6258603 1.8944947 -0.17040561 11 19
1.9760624 1.7685246 -0.23494005 3 18
1.5530391 1.8094631 -0.26895592 29 17
1.9751135 1.7664444 -0.36330998 2 16
1.448261 1.6882956 -0.38173026 40 15
1.8684428 1.6659895 -0.70640647 3 13
1.3249851 1.5453285 -0.45822087 10 14
1.8652894 1.6597235 -0.85154331 3 12
1.1483827 1.344888 -0.70111954 3 11
1.726404 1.5268267 -1.2053536 12 9
1.1470599 1.3456488 -0.81415743 3 10
1.5396299 1.3572845 -1.2194883 14 8
1.1410384 1.3502301 -1.1728346 4 7
1.2332008 1.0810722 -1.2223015 10 6
0.95807076 1.1420877 -1.2324815 11 5
nan nan nan 0 4
nan nan nan 0 3
nan nan nan 0 2
nan nan nan 0 1
nan nan nan 0 0
4.2571354 4.9612794 1.7350436 34 31
3.9854572 3.5426931 1.2259452 39 30
4.248704 4.9427447 1.2507657 35 29
3.9754379 3.5362542 0.82677799 40 28
4.2571592 4.9438882 0.79219061 36 27
3.9867411 3.546284 0.50667804 41 26
4.2800264 4.9669647 0.45375645 36 25
4.0023494 3.5601482 0.24817319 41 24
4.2794771 4.9628305 0.15133438 36 23
4.0016875 3.5583093 0 41 22
4.2893705 4.9708009 -0.1516245 35 21
3.7515233 3.3348751 -0.23245127 14 20
1.6533065 1.9136477 -0.17265007 10 19
1.9691855 1.7500483 -0.23337525 3 18
1.5460551 1.7892548 -0.26668146 36 17
1.9682974 1.7480402 -0.36090168 2 16
1.4570669 1.6872153 -0.38258907 43 15
1.8667543 1.6534164 -0.70365518 6 13
1.3415039 1.5536188 -0.46212775 12 14
1.8760982 1.6582181 -0.85399497 5 12
1.1515617 1.3391117 -0.7001822 3 11
1.7367047 1.5251566 -1.2088711 12 9
1.1544582 1.3452764 -0.81628317 3 10
1.5475816 1.3547168 -1.2220747 14 8
1.1455097 1.3464389 -1.1728346 4 7
1.2399715 1.0793682 -1.2253307 10 6
0.96082306 1.1372766 -1.2308662 10 5
nan nan nan 0 4
nan nan nan 0 3
nan nan nan 0 2
nan nan nan 0 1
nan nan nan 0 0
4.2539048 4.9226217 1.7266648 34 31
3.9813588 3.5142603 1.2208724 39 30
4.2434487 4.9018931 1.2441353 36 29
3.9710906 3.5076466 0.8233009 40 28
4.2483888 4.8989906 0.78734356 36 27
3.9841683 3.519172 0.50477505 41 26
4.2662945 4.9161944 0.45045954 37 25
3.9941561 3.5279787 0.24689214 42 24
4.2763395 4.922576 0.15058002 37 23
3.9953372 3.5277801 0 42 22
4.2755599 4.9199424 -0.15052199 35 21
3.7449884 3.3045878 -0.23128669 16 20
1.6665173 1.9153972 -0.17334066 9 19
1.9603356 1.7299958 -0.23158695 3 18
1.5574893 1.7892014 -0.26753438 49 17
1.9669528 1.7346139 -0.3595255 2 16
1.472928 1.6930228 -0.38516545 38 15
1.8782214 1.6513195 -0.7057187 5 13
1.3756617 1.5820615 -0.47217402 18 14
1.8821632 1.6513307 -0.85399497 4 12
1.1640371 1.3436517 -0.70486885 3 11
1.7386869 1.5161865 -1.2065262 12 9
1.1608584 1.34275 -0.8173461 3 10
1.5493029 1.3462325 -1.2194883 14 8
1.1558166 1.3485278 -1.1784396 4 7
1.2378913 1.0696242 -1.2192723 10 6
0.96251714 1.1308366 -1.2276356 10 5
nan nan nan 0 4
nan nan nan 0 3
nan nan nan 0 2
nan nan nan 0 1
nan nan nan 0 0
4.238627 4.8687263 1.71313 34 31
3.9722207 3.4803922 1.2141085 39 30
4.2355833 4.8566966 1.2365577 37 29
3.9634836 3.4751647 0.81905109 40 28
4.2418365 4.8553452 0.78279942 36 27
3.9764488 3.4865065 0.5021584 43 26
4.2629547 4.8761077 0.4482038 37 25
3.9882762 3.4968598 0.24572757 44 24
4.2704668 4.8812752 0.14976764 37 23
3.9894328 3.4966421 0 43 22
4.2721705 4.8797841 -0.14976764 35 21
3.756501 3.2914951 -0.23128669 21 20
1.6932319 1.9318016 -0.17541246 12 19
1.9479196 1.7064079 -0.22935157 3 18
1.5702667 1.7912314 -0.2686716 56 17
1.9546516 1.7110987 -0.35608506 2 16
1.4788288 1.687871 -0.38516545 42 15
1.8912224 1.6510695 -0.70847005 4 13
nan nan nan 0 14
1.8718702 1.6307975 -0.84663993 5 12
1.167199 1.3378315 -0.70393151 3 11
1.7442322 1.5098037 -1.2065262 12 9
1.1640551 1.3369808 -0.81628317 3 10
1.5539927 1.3408163 -1.2194883 14 8
1.1632174 1.3476238 -1.181242 4 7
1.2446404 1.0678819 -1.2223015 10 6
0.97017545 1.1318232 -1.2324815 10 5
nan nan nan 0 4
nan nan nan 0 3
nan nan nan 0 2
nan nan nan 0 1
nan nan nan 0 0
4.2301288 4.8248305 1.7028177 35 31
3.9659634 3.450526 1.208472 39 30
4.2233658 4.808672 1.2280331 36 29
3.9606817 3.4483395 0.81596029 40 28
4.2341814 4.812552 0.77825528 36 27
3.9692149 3.456964 0.49977964 40 26
4.2552395 4.8331103 0.44560099 37 25
3.9835007 3.4681654 0.24467945 44 24
4.2544489 4.8288202 0.14860711 36 23
3.9808624 3.4646499 0 40 22
4.2685065 4.8430824 -0.14907132 35 21
3.7396967 3.253787 -0.22953981 27 20
1.7082082 1.9352365 -0.17627572 14 19
1.9610866 1.7064707 -0.23024572 4 18
1.571584 1.7801484 -0.26781869 49 17
1.9490954 1.6948681 -0.35402083 4 16
1.4912212 1.6900928 -0.38688302 37 15
1.900609 1.6476033 -0.70984566 4 13
nan nan nan 0 14
1.8489394 1.5995475 -0.83356446 4 12
1.1762097 1.3391842 -0.70674348 3 11
1.7475536 1.5025735 -1.2053536 12 9
1.1746721 1.3397237 -0.82053465 3 10
1.5584304 1.3356557 -1.2194883 15 8
1.1638469 1.3388612 -1.1770383 5 7
1.2451433 1.0611734 -1.2192723 9 6
0.97143596 1.1257057 -1.2292509 10 5
nan nan nan 0 4
nan nan nan 0 3
nan nan nan 0 2
nan nan nan 0 1
nan nan nan 0 0
4.2253346 4.7872252 1.6944389 36 31
3.9589493 3.4214377 1.2028356 39 30
4.2165346 4.7688851 1.2214028 36 29
3.9496686 3.4158077 0.81132424 42 28
4.2205133 4.7650356 0.77280241 36 27
3.9605441 3.4251895 0.497163 40 26
4.2431331 4.7872338 0.44265112 37 25
3.9741943 3.4369762 0.2433984 42 24
4.2472305 4.7884994 0.14779472 36 23
3.9753025 3.4367218 0 40 22
4.2621689 4.8019753 -0.14825894 37 21
3.7334545 3.2266788 -0.22849169 23 20
1.6765542 1.8866454 -0.17230476 31 19
1.9330927 1.6703405 -0.22622199 5 18
1.5741824 1.7712104 -0.26725006 47 17
1.9418705 1.6767371 -0.35161251 4 16
1.5033518 1.6925112 -0.38860059 61 15
1.9078852 1.6428583 -0.71053356 3 13
nan nan nan 0 14
nan nan nan 0 12
1.1778114 1.331594 -0.70486885 3 11
1.7527878 1.4964644 -1.2053536 12 9
1.1761184 1.3324239 -0.81840891 3 10
1.5614525 1.328823 -1.2181952 15 8
1.1737243 1.341235 -1.1826433 5 7
1.25036 1.0581028 -1.2207868 10 6
0.97286189 1.1194227 -1.2260202 10 5
nan nan nan 0 4
nan nan nan 0 3
nan nan nan 0 2
nan nan nan 0 1
nan nan nan 0 0
4.2131472 4.7399387 1.6828376 35 31
3.952378 3.3917439 1.197199 40 30
4.2086802 4.7266288 1.2142988 36 29
3.9428225 3.3859162 0.80746073 40 28
4.2156553 4.726191 0.76886415 37 27
3.9573662 3.3983793 0.49525997 42 26
4.2315974 4.7407532 0.43970129 36 25
3.971005 3.4100733 0.24246672 40 24
4.2389565 4.7456756 0.14692432 38 23
3.9682987 3.4065487 0 40 22
4.2506018 4.7553792 -0.14727248 37 21
3.7276323 3.1989975 -0.22744356 27 20
1.6831297 1.8807815 -0.17230476 31 19
1.9294559 1.6554837 -0.2251043 8 18
1.5787009 1.7638521 -0.26696575 53 17
1.9326615 1.6570674 -0.34886014 6 16
1.5076107 1.6854157 -0.3881712 65 15
1.922749 1.64399 -0.71397275 3 13
nan nan nan 0 14
nan nan nan 0 12
1.1916864 1.3378717 -0.71049279 3 11
1.7580009 1.4903368 -1.2053536 12 9
1.1867658 1.335084 -0.82266039 3 10
1.5660814 1.3233644 -1.2181952 14 8
1.1783991 1.3371298 -1.1826433 4 7
1.2555705 1.055009 -1.2223015 9 6
0.9755097 1.1145817 -1.2244049 10 5
nan nan nan 0 4
nan nan nan 0 3
nan nan nan 0 2
nan nan nan 0 1
nan nan nan 0 0
4.2047215 4.6956625 1.6725253 35 31
3.9480896 3.3630278 1.192126 40 30
4.1964846 4.6782684 1.2057741 36 29
3.9364011 3.3554273 0.80359727 40 28
4.2080808 4.6830111 0.76432002 37 27
3.9508491 3.3677161 0.49288121 42 26
4.2272754 4.7010942 0.43744549 37 25
3.9644647 3.3793039 0.24130213 43 24
4.2345972 4.705946 0.14616996 38 23
3.9617224 3.3757749 0 41 22
4.2496133 4.7193308 -0.14663418 38 21
3.7336271 3.1804581 -0.2270942 80 20
1.6699934 1.8523518 -0.17023297 38 19
1.9430988 1.654852 -0.22599846 8 18
1.5884778 1.7617469 -0.26753438 51 17
1.9330608 1.6451629 -0.34782803 9 16
1.513778 1.6798787 -0.3881712 57 15
nan nan nan 0 13
1.6297694 1.8094897 -0.54975337 39 14
1.7104167 1.4489216 -0.76328355 25 12
1.1950365 1.3317677 -0.70955545 3 11
1.7600696 1.4810437 -1.2030087 12 9
1.1961724 1.3357892 -0.825849 3 10
nan nan nan 0 8
1.191525 1.3421042 -1.1910508 3 7
1.2548409 1.0465854 -1.2177576 9 6
0.98462462 1.1167334 -1.2308662 10 5
nan nan nan 0 4
nan nan nan 0 3
nan nan nan 0 2
nan nan nan 0 1
nan nan nan 0 0
4.200067 4.6576285 1.6641465 35 31
3.9412012 3.3335047 1.1864895 39 30
4.1897631 4.6380811 1.1991438 36 29
3.9330022 3.3289068 0.80050653 41 28
4.1994367 4.6406832 0.75977594 37 27
3.9467955 3.3417375 0.49097818 44 26
4.2185597 4.6585698 0.43484271 37 25
3.9609818 3.3525443 0.24037047 42 24
4.2224798 4.6596398 0.1451835 38 23
3.9582083 3.3490136 0 43 22
4.2383933 4.6755743 -0.14570574 38 21
3.7237248 3.1496749 -0.22581315 36 20
1.6797986 1.8502077 -0.17057827 37 19
1.954283 1.6532189 -0.22666907 5 18
1.59295 1.7543508 -0.26725006 49 17
1.940398 1.6403406 -0.34817207 7 16
1.5229386 1.6782355 -0.38902995 30 15
3.1428902 2.646698 -1.1658802 9 13
1.6275859 1.7950404 -0.5469628 30 14
1.7172734 1.4444612 -0.76410073 29 12
1.1963441 1.3243532 -0.70768076 3 11
nan nan nan 0 9
1.2053666 1.3366535 -0.82903761 3 10
nan nan nan 0 8
1.1934474 1.3348457 -1.1882483 3 7
1.2613717 1.0449513 -1.2207868 9 6
0.98705858 1.1120327 -1.2292509 10 5
nan nan nan 0 4
nan nan nan 0 3
nan nan nan 0 2
nan nan nan 0 1
nan nan nan 0 0
4.1943917 4.6204162 1.6557678 36 31
3.9335787 3.3047578 1.180853 39 30
4.1853104 4.6023602 1.1934606 37 29
3.9288895 3.3031368 0.79741579 42 28
4.1914158 4.6010394 0.75553471 38 27
3.9412861 3.313534 0.48883727 45 26
4.2071137 4.615056 0.43206638 37 25
3.9529557 3.3233285 0.23920588 43 24
4.2160206 4.6215992 0.14442916 37 23
3.9539757 3.3230081 0 43 22
4.229423 4.6330528 -0.14483535 39 21
3.7092834 3.1164374 -0.22429919 8 20
1.6909671 1.8501549 -0.17109622 32 19
1.963858 1.6495869 -0.22711615 8 18
1.6004328 1.7508937 -0.26753438 39 17
1.9575001 1.6430994 -0.35023633 5 16
1.5417683 1.6877371 -0.39246508 27 15
3.1627164 2.6455081 -1.1700073 7 13
1.6190699 1.7731369 -0.54193968 22 14
1.7220539 1.4387585 -0.76410073 29 12
1.2103024 1.3304691 -0.71330476 3 11
1.5167289 1.2591904 -1.0283026 10 9
1.2067554 1.3292937 -0.82691187 3 10
nan nan nan 0 8
1.1964847 1.3293397 -1.1868471 3 7
1.2665496 1.0418031 -1.2223015 9 6
0.98966539 1.1071553 -1.2276356 9 5
nan nan nan 0 4
nan nan nan 0 3
nan nan nan 0 2
nan nan nan 0 1
nan nan nan 0 0
4.1844296 4.5772119 1.6454555 36 31
3.9301224 3.2785316 1.1763438 40 30
4.1748366 4.5587478 1.185883 36 29
3.9195306 3.2719998 0.79316598 43 28
4.1822991 4.5589409 0.75099063 37 27
3.9356279 3.2854099 0.48669639 42 26
4.1979098 4.5727744 0.42946357 36 25
3.9472721 3.295114 0.23815775 45 24
4.2075744 4.5785027 0.14355876 37 23
3.9463494 3.2931764 0 42 22
4.2235909 4.5943336 -0.144081 38 21
3.7225993 3.1044197 -0.22441566 5 20
1.7041639 1.851588 -0.17178681 29 19
1.9657769 1.6395354 -0.22666907 6 18
1.6085202 1.746845 -0.26781869 36 17
1.9613202 1.6346728 -0.34989232 4 16
1.5629359 1.6984017 -0.39632964 23 15
nan nan nan 0 13
1.6104212 1.7513148 -0.53691655 14 14
1.721855 1.4279183 -0.76164907 28 12
1.2120438 1.3226023 -0.71143007 3 11
1.4972388 1.2342553 -1.0118873 17 9
1.2207674 1.3348941 -0.83328909 3 10
1.5118046 1.2414412 -1.1612943 13 8
1.1985722 1.3218735 -1.1840446 4 7
1.2688168 1.0358984 -1.2207868 9 6
0.99371672 1.1035205 -1.2276356 10 5
nan nan nan 0 4
nan nan nan 0 3
nan nan nan 0 2
nan nan nan 0 1
nan nan nan 0 0
4.1733727 4.5316277 1.6344987 35 31
3.9233458 3.24858 1.1707073 40 30
4.1615691 4.5109272 1.1773583 36 29
3.9143734 3.2434366 0.78968883 42 28
4.1754098 4.5180569 0.74674946 38 27
3.9303901 3.2566803 0.48455548 42 26
4.1875601 4.5280509 0.42668724 37 25
3.9439332 3.2678845 0.23722608 43 24
4.1980782 4.536262 0.14268835 38 23
3.9410589 3.2643452 0 41 22
4.2149386 4.5513067 -0.1432106 38 21
3.70455 3.0675287 -0.22266877 5 20
1.7244902 1.8599738 -0.17316802 28 19
1.990967 1.6481812 -0.22890447 5 18
1.6196687 1.7466887 -0.2686716 33 17
1.976845 1.6353569 -0.35161251 3 16
1.5839039 1.7092099 -0.40019417 18 15
1.7658876 1.4570574 -0.64518923 25 13
1.6085582 1.7364531 -0.53412592 12 14
1.7268289 1.4218992 -0.76164907 28 12
1.2260692 1.328596 -0.71705401 3 11
1.5017525 1.2287594 -1.0118873 14 9
1.2223587 1.3272914 -0.83116335 3 10
1.5792055 1.287454 -1.210436 14 8
1.1976044 1.3115574 -1.1784396 6 7
1.2739722 1.0327133 -1.2223015 9 6
0.99884158 1.1014612 -1.2292509 9 5
nan nan nan 0 4
nan nan nan 0 3
nan nan nan 0 2
nan nan nan 0 1
nan nan nan 0 0
4.1678224 4.494 1.62612 35 31
3.9177229 3.2209516 1.1656344 40 30
4.1555796 4.4729853 1.1712016 37 29
3.908499 3.2156377 0.78621179 42 28
4.1674967 4.4780126 0.74250829 37 27
3.9244313 3.228718 0.4824146 41 26
4.1846519 4.4933219 0.42477849 38 25
3.9360249 3.2382402 0.23606151 44 24
4.1883378 4.494144 0.14181794 38 23
3.9331141 3.2346966 0 44 22
4.2035375 4.5073099 -0.14228216 38 21
3.7055864 3.0466533 -0.22208647 5 20
nan nan nan 0 19
2.0024827 1.6459596 -0.22957508 4 18
1.6274493 1.7428415 -0.26895592 29 17
1.9902009 1.6347268 -0.35298869 3 16
1.6016092 1.7162871 -0.40319991 19 15
1.7784059 1.4569697 -0.64794058 30 13
1.5930244 1.7076393 -0.52687025 14 14
1.7445964 1.4263178 -0.76736957 28 12
1.2306994 1.3243083 -0.71705401 3 11
nan nan nan 0 9
1.2300569 1.3263391 -0.83328909 3 10
1.5936775 1.2899985 -1.2181952 14 8
1.2021754 1.307369 -1.1784396 7 7
1.2775692 1.0282599 -1.2223015 9 6
1.0052482 1.1007907 -1.2324815 9 5
nan nan nan 0 4
nan nan nan 0 3
nan nan nan 0 2
nan nan nan 0 1
nan nan nan 0 0
4.1571159 4.4511676 1.6158077 35 31
3.9157295 3.1964805 1.1616888 41 30
4.1493759 4.4351406 1.1650449 37 29
3.9043918 3.1894808 0.78312105 41 28
4.1593556 4.4380789 0.73826706 37 27
3.9196944 3.203095 0.48051158 42 26
4.17132 4.4477506 0.42182866 38 25
3.9298921 3.2102697 0.23501338 46 24
4.1817746 4.4557962 0.1410636 38 23
3.9288847 3.2083046 0 45 22
4.1945214 4.4678254 -0.14146978 38 21
3.7084575 3.0273862 -0.22162063 3 20
3.6625309 3.8993447 -0.3679173 30 19
2.00986 1.6408832 -0.22979863 3 18
1.6488196 1.7534505 -0.27151471 24 17
nan nan nan 0 16
1.6294913 1.7340407 -0.40878204 28 15
1.7834808 1.4507532 -0.64794058 31 13
1.5953457 1.6987911 -0.52575403 19 14
1.7495646 1.4202194 -0.76736957 13 12
1.239827 1.325304 -0.71986604 3 11
nan nan nan 0 9
1.2377634 1.3253492 -0.83541483 3 10
1.5979466 1.2847065 -1.2181952 13 8
1.2053272 1.3016433 -1.1770383 8 7
1.2825274 1.0252573 -1.2238162 10 6
1.0076044 1.0960439 -1.2308662 9 5
nan nan nan 0 4
nan nan nan 0 3
nan nan nan 0 2
nan nan nan 0 1
nan nan nan 0 0
4.1487002 4.4127102 1.6067845 36 31
3.9092753 3.1696801 1.156616 40 30
4.1421914 4.3981166 1.1588881 38 29
3.8976781 3.1625171 0.77964395 42 28
4.1553259 4.4043989 0.73493481 38 27
3.9095864 3.1721547 0.47789496 42 26
4.1672215 4.413938 0.41991991 38 25
3.9269364 3.1862116 0.23419815 46 24
4.1784267 4.4211831 0.14042529 38 23
3.9239635 3.1826668 0 47 22
4.182631 4.424087 -0.14054134 37 21
3.7306473 3.0238528 -0.22231939 16 20
3.6377625 3.8472922 -0.36411899 17 19
2.0155756 1.6338575 -0.22979863 3 18
1.6685778 1.7621264 -0.27378917 23 17
3.9402268 3.1890287 -0.69944054 39 16
1.6439891 1.7372954 -0.41092899 33 15
1.7866627 1.4430104 -0.64725274 34 13
1.5995935 1.6914396 -0.5251959 24 14
1.778445 1.4333535 -0.77799344 6 12
1.2478504 1.3241287 -0.72174066 3 11
1.800653 1.442048 -1.2065262 12 9
1.24393 1.3226713 -0.8364777 3 10
1.6059926 1.2815062 -1.2207816 13 8
1.215502 1.3034935 -1.1826433 9 7
1.2878368 1.0217836 -1.2253307 10 6
1.0116148 1.0923436 -1.2308662 9 5
nan nan nan 0 4
nan nan nan 0 3
nan nan nan 0 2
nan nan nan 0 1
nan nan nan 0 0
4.1432619 4.3746672 1.5984057 36 31
3.8999863 3.1385424 1.1504158 40 30
4.1295738 4.3526196 1.1508369 38 29
3.8938479 3.135823 0.77655321 42 28
4.1458082 4.3621473 0.73039061 37 27
3.9076138 3.1468832 0.47622985 43 26
4.1593194 4.3733249 0.41749063 38 25
3.9230227 3.1592734 0.23326649 46 24
4.1697216 4.3812151 0.13961293 39 23
3.9200177 3.1557281 0 45 22
4.1798649 4.3888116 -0.13990305 38 21
3.762588 3.0280244 -0.22360043 31 20
3.6810675 3.8646474 -0.36705405 18 19
nan nan nan 0 18
1.6901286 1.7724848 -0.27634794 23 17
3.9209898 3.1497669 -0.69393587 15 16
1.6670152 1.7493933 -0.41522294 20 15
1.7860591 1.4322597 -0.64518923 28 13
1.6057822 1.6855656 -0.5251959 28 14
1.7705141 1.4168167 -0.77227294 4 12
1.2460929 1.3130316 -0.71799135 6 11
1.8024664 1.4326941 -1.2041811 12 9
1.2563075 1.326547 -0.84179199 4 10
1.6070987 1.2732391 -1.2181952 11 8
1.2214596 1.3007542 -1.1840446 14 7
1.2867025 1.0135968 -1.2207868 10 6
1.0141231 1.0874077 -1.2292509 9 5
nan nan nan 0 4
nan nan nan 0 3
nan nan nan 0 2
nan nan nan 0 1
nan nan nan 0 0
4.1351781 4.3356967 1.5893824 36 31
3.8994973 3.1157928 1.1470339 40 30
4.1260972 4.3186469 1.1456274 38 29
3.8835425 3.1052537 0.7723034 44 28
4.1318526 4.3171597 0.72524065 38 27
3.9010754 3.1192446 0.47408894 43 26
4.1504202 4.3335533 0.41506135 38 25
3.9125643 3.1284149 0.23198546 45 24
4.157331 4.3377509 0.1386845 38 23
3.9134276 3.1279855 0 45 22
4.1674914 4.3453221 -0.13897462 38 21
3.77899 3.0195465 -0.2239498 30 20
3.699712 3.8571765 -0.36757198 14 19
3.2945743 2.6300259 -0.37532285 28 18
1.7134906 1.7845074 -0.27919102 27 17
3.3025796 2.6345313 -0.58212173 6 16
1.6782217 1.7488999 -0.41651112 26 15
