# .PCD v0.7 - Point Cloud Data file format
VERSION 0.7
FIELDS x y z intensity ring
SIZE 4 4 4 4 2
TYPE F F F F U
COUNT 1 1 1 1 1
WIDTH 1205
HEIGHT 1
VIEWPOINT 0 0 0 1 0 0 0
POINTS 1205
DATA ascii
0.97228086 -0.26917896 -0.045418836 17 20
0.94807136 -0.13538152 -0.063880526 21 19
0.97419512 -0.27025667 -0.087627493 11 18
0.96891153 -0.13830917 -0.10803726 8 17
0.966519 -0.26846641 -0.13452102 84 16
0.97815198 -0.13927473 -0.16617505 8 15
1.0020169 -0.14245181 -0.22380823 8 14
0.89942837 -0.13003471 0.16859999 96 29
0.90878099 -0.13214561 0.10784698 75 27
0.92791677 -0.13520032 0.062814467 33 25
0.9377861 -0.2627244 0.043788418 21 24
0.92484182 -0.13508394 0.020889714 71 23
0.95315611 -0.26724747 0 20 22
0.94955778 -0.13879715 -0.021469982 7 21
0.97614121 -0.27393115 -0.045651756 18 20
0.95006168 -0.13904494 -0.06405317 36 19
0.9732936 -0.27348578 -0.087627493 10 18
0.96350586 -0.14098364 -0.10746864 9 17
0.96324122 -0.27099413 -0.13417698 80 16
0.98009777 -0.14303783 -0.16660444 9 15
0.99671429 -0.14508376 -0.222692 7 14
0.89170438 -0.13195862 0.16717921 93 29
0.90833777 -0.13515851 0.10784698 67 27
0.93239856 -0.13899927 0.063161507 33 25
0.92438883 -0.13815008 0.020889714 67 23
0.95707142 -0.27178326 0 20 22
0.95401305 -0.14283852 -0.021586038 7 21
0.9824295 -0.27923042 -0.046001129 17 20
0.94219297 -0.14110556 -0.063535221 65 19
0.96993977 -0.27619433 -0.087403953 10 18
0.96057576 -0.14381641 -0.10718434 10 17
0.96942884 -0.27640742 -0.13520911 39 16
0.97961807 -0.14628716 -0.16660444 14 15
1.001024 -0.14926895 -0.22380823 8 14
0.89852238 -0.13615386 0.16859999 90 29
0.91031474 -0.1386956 0.10814992 64 27
0.93190771 -0.14225312 0.063161507 33 25
0.93376219 -0.14302526 0.021121822 47 23
0.95611686 -0.2751224 0 19 22
0.95350862 -0.14616778 -0.021586038 7 21
0.97420508 -0.28073913 -0.045651756 17 20
0.93922859 -0.14402193 -0.063362576 73 19
0.97136056 -0.28027391 -0.087627493 11 18
0.96249813 -0.14770669 -0.10746864 39 17
0.97083545 -0.28048217 -0.13555315 36 16
0.96933371 -0.14841034 -0.16488688 53 15
0.99808699 -0.1524004 -0.22325012 14 14
0.9052974 -0.14055632 0.17002077 75 29
0.91225314 -0.14240736 0.10845286 56 27
0.93138009 -0.14566778 0.063161507 32 25
0.93819755 -0.14704509 0.021237876 38 23
0.95030528 -0.27721402 0 16 22
0.95049644 -0.14928006 -0.021528009 7 21
0.97321916 -0.28413802 -0.045651756 15 20
0.94115913 -0.14784408 -0.063535221 76 19
0.96555018 -0.2824237 -0.087180413 10 18
0.96443135 -0.15144464 -0.10775296 70 17
0.96980095 -0.2840386 -0.13555315 39 16
0.97611207 -0.15291828 -0.16617505 74 15
0.99029619 -0.15494543 -0.22157575 50 14
0.89995056 -0.14295852 0.16907358 80 29
0.9117505 -0.14559084 0.10845286 49 27
0.93332958 -0.14930555 0.063335031 33 25
0.93274099 -0.14954062 0.021121822 34 23
0.95891559 -0.28338471 0 17 22
0.94258994 -0.15126215 -0.021353928 8 21
0.967435 -0.28610659 -0.045418836 17 20
0.93817395 -0.15073916 -0.063362576 77 19
0.96699435 -0.28633621 -0.087403953 10 18
0.96144354 -0.15442255 -0.10746864 77 17
0.97597134 -0.28938025 -0.1365853 36 16
0.96584117 -0.15479031 -0.16445749 81 15
0.98977685 -0.1582285 -0.22157575 73 14
0.91371292 -0.14900643 0.1087558 43 27
0.93036693 -0.15200406 0.063161507 34 25
0.93717498 -0.15342775 0.021237876 32 23
0.95078993 -0.28439784 0 17 22
0.9494583 -0.15574639 -0.021528009 9 21
0.97365338 -0.29147729 -0.045768213 17 20
0.93766892 -0.15384942 -0.063362576 75 19
0.97075576 -0.29115093 -0.087851033 12 18
0.96337819 -0.15800577 -0.10775296 78 17
0.97258514 -0.29206792 -0.13624124 36 16
0.96775407 -0.15838394 -0.16488688 80 15
0.99162447 -0.1620696 -0.22213387 76 14
0.91808504 -0.1529979 0.10936169 41 27
0.93967468 -0.15686803 0.063855588 34 25
0.93416756 -0.1562921 0.021179849 30 23
0.94740039 -0.28698489 0 15 22
0.94397688 -0.15824585 -0.021411955 29 21
0.97501826 -0.29560393 -0.045884673 20 20
0.93712616 -0.15712157 -0.063362576 76 19
0.96735263 -0.29380891 -0.087627493 11 18
0.96527141 -0.16177203 -0.10803726 76 17
0.9715597 -0.29546109 -0.13624124 22 16
0.96962541 -0.16216119 -0.16531627 81 15
0.99105275 -0.16553003 -0.22213387 81 14
0.91507071 -0.15595138 0.10905875 39 27
0.92925543 -0.15865767 0.063161507 33 25
0.93112385 -0.15929988 0.021121822 29 23
0.9320122 -0.28602225 0 18 22
0.94092607 -0.16128868 -0.021353928 62 21
0.96438587 -0.29622167 -0.045418836 18 20
0.9414624 -0.16138539 -0.063707873 72 19
0.97340405 -0.29956511 -0.088298112 13 18
0.95977372 -0.1644821 -0.10746864 77 17
0.97992969 -0.30195725 -0.13761742 13 16
0.97145319 -0.16612299 -0.16574566 78 15
0.99524558 -0.1699699 -0.22325012 79 14
0.91696674 -0.1595636 0.10936169 38 27
0.93852806 -0.16358811 0.063855588 31 25
0.92809898 -0.16212544 0.021063795 28 23
0.94532251 -0.29375693 0 14 22
0.93789428 -0.1641476 -0.021295901 72 21
0.97049505 -0.3018266 -0.045768213 16 20
0.94089335 -0.16467072 -0.063707873 71 19
0.96997678 -0.30221528 -0.088074572 11 18
0.9640891 -0.16867517 -0.10803726 74 17
0.97414517 -0.30389091 -0.13692933 11 16
0.97572184 -0.17034799 -0.16660444 74 15
0.98984283 -0.17261755 -0.22213387 76 14
0.91884863 -0.16319095 0.10966463 38 27
0.93303823 -0.16600218 0.063508548 31 25
0.937374 -0.16709325 0.021295901 29 23
0.95144069 -0.29932147 0 13 22
0.93488324 -0.16682415 -0.021237876 77 21
0.96705514 -0.30445731 -0.045651756 15 20
0.9378565 -0.16752182 -0.063535221 74 19
0.96659613 -0.30467644 -0.087851033 11 18
0.96594059 -0.17246987 -0.10832157 73 17
0.97549182 -0.30787 -0.13727339 10 16
0.97269547 -0.17332688 -0.16617505 69 15
0.99406558 -0.17674035 -0.22325012 73 14
0.9158594 -0.16580147 0.10936169 35 27
0.93002754 -0.16865669 0.063335031 33 25
0.92943412 -0.16887943 0.021121822 28 23
0.93853992 -0.29865789 0 15 22
0.93921536 -0.17096908 -0.021353928 75 21
0.96841812 -0.30842549 -0.045768213 15 20
0.94466043 -0.17195204 -0.06405317 73 19
0.96789718 -0.30881065 -0.088074572 10 18
0.96536338 -0.1756721 -0.10832157 72 17
0.97676837 -0.31203184 -0.13761742 11 16
0.9745397 -0.17698552 -0.16660444 36 15
0.9934426 -0.18020922 -0.22325012 58 14
0.91283351 -0.16855325 0.10905875 35 27
0.93924737 -0.17369092 0.064029112 33 25
0.92880887 -0.17228486 0.021121822 25 23
0.94462538 -0.30424729 0 12 22
0.93615431 -0.17379662 -0.021295901 75 21
0.97440636 -0.31428796 -0.046117589 14 20
0.93914783 -0.1743506 -0.063707873 74 19
0.97391701 -0.31449819 -0.088745192 10 18
0.96959931 -0.18010418 -0.10889018 66 17
0.9803822 -0.31697315 -0.13830552 14 16
0.97388446 -0.18055621 -0.16660444 21 15
0.99041027 -0.18323848 -0.222692 34 14
0.90976971 -0.17144474 0.1087558 36 27
0.93124872 -0.17576365 0.063508548 32 25
0.92820185 -0.17552595 0.021121822 22 23
0.94042468 -0.17814443 -0.021411955 68 21
0.97804803 -0.31924736 -0.046350509 14 20
0.94095409 -0.17824951 -0.063880526 74 19
0.97039264 -0.31728667 -0.088521652 10 18
0.96896476 -0.18348762 -0.10889018 38 17
0.97921383 -0.32056433 -0.13830552 14 16
0.9708271 -0.18350324 -0.16617505 12 15
1.0041062 -0.18954435 -0.22604074 30 14
0.91160405 -0.17508098 0.10905875 34 27
0.93307978 -0.179478 0.063682072 30 25
0.92758352 -0.17876491 0.021121822 22 23
0.9447394 -0.18219611 -0.021528009 47 21
0.9792974 -0.3234477 -0.046466965 15 20
0.94032615 -0.18153296 -0.063880526 74 19
0.97642243 -0.32286322 -0.089192271 10 18
0.97563821 -0.18826252 -0.10974311 20 17
0.96640009 -0.31989345 -0.1365853 13 16
0.97501969 -0.18781054 -0.16703384 7 15
0.99868357 -0.19196481 -0.22492447 19 14
0.90370822 -0.17669398 0.10814992 32 27
0.9324795 -0.18257122 0.063682072 29 25
0.92943949 -0.18231465 0.021179849 23 23
0.94900501 -0.18644397 -0.021644065 35 21
0.98532033 -0.32908174 -0.046816342 12 20
0.9421674 -0.18512481 -0.06405317 73 19
0.97057015 -0.32467958 -0.088745192 11 18
0.9701317 -0.19055152 -0.1091745 10 17
0.96762395 -0.32405636 -0.13692933 26 16
0.97922766 -0.19197842 -0.16789262 5 15
1.0027927 -0.19637465 -0.22604074 10 14
0.90552104 -0.1803256 0.10845286 32 27
0.92938948 -0.18534364 0.063508548 27 25
0.92631292 -0.18523626 0.021121822 22 23
0.94099241 -0.18830295 -0.021469982 30 21
0.98410755 -0.33269092 -0.046816342 14 20
0.93662196 -0.18744616 -0.063707873 75 19
0.97885835 -0.33127853 -0.089639343 12 18
0.97186339 -0.19458753 -0.1094588 7 17
0.9905988 -0.1979496 -0.17003958 6 15
1.0164471 -0.20269883 -0.2293895 9 14
0.8975541 -0.18218197 0.10754404 32 27
0.93359447 -0.18972957 0.063855588 28 25
0.93301171 -0.18994546 0.021295901 23 23
0.94029593 -0.1917506 -0.021469982 20 21
0.98057902 -0.33531106 -0.046699882 14 20
0.94326371 -0.19235414 -0.064225823 57 19
0.96822202 -0.33161646 -0.088745192 11 18
0.96630841 -0.19699863 -0.10889018 6 17
0.98024327 -0.19946577 -0.16832201 6 15
1.0180866 -0.20690249 -0.22994761 8 14
0.89934433 -0.18580951 0.10784698 31 27
0.93292648 -0.19298726 0.063855588 25 25
0.93724024 -0.19420283 0.021411955 20 23
0.94941473 -0.1970385 -0.021702092 14 21
0.98176098 -0.33955312 -0.046816342 13 20
0.94991624 -0.19714749 -0.064743772 32 19
0.96705854 -0.3349942 -0.088745192 11 18
0.97291452 -0.20186619 -0.10974311 7 17
0.98677981 -0.20436688 -0.16961019 7 15
1.012583 -0.20947918 -0.22883137 8 14
0.89869022 -0.18894768 0.10784698 28 27
0.93224716 -0.1962426 0.063855588 26 25
0.93166298 -0.19645444 0.021295901 20 23
0.94872117 -0.20035139 -0.021702092 14 21
0.97585875 -0.34131902 -0.046583425 12 20
0.95166379 -0.20097129 -0.064916424 50 19
0.97057962 -0.34002441 -0.089192271 10 18
0.97463536 -0.20576814 -0.11002742 8 17
0.98847157 -0.20831209 -0.17003958 7 15
1.0166173 -0.21400499 -0.22994761 8 14
0.90048689 -0.19243893 0.10814992 29 27
0.92915124 -0.19881743 0.063682072 27 25
0.93345153 -0.20006035 0.021353928 19 23
0.95538652 -0.20505142 -0.021876173 14 21
0.96766335 -0.34204131 -0.046234049 13 20
0.94123298 -0.20205697 -0.064225823 67 19
0.9671014 -0.34240499 -0.088968731 10 18
0.97151798 -0.20848389 -0.10974311 10 17
0.97572798 -0.20903908 -0.16789262 29 15
1.0087495 -0.21586253 -0.22827323 8 14
0.90951508 -0.19766349 0.10936169 30 27
0.9357664 -0.20363174 0.064202629 27 25
0.93271196 -0.20348029 0.021353928 19 23
0.94977856 -0.20733131 -0.021760119 12 21
0.95935416 -0.34304789 -0.045884673 12 20
0.9429599 -0.20586704 -0.064398475 69 19
0.96824276 -0.34662297 -0.089192271 11 18
0.97074729 -0.21204329 -0.10974311 43 17
0.97495532 -0.21261391 -0.16789262 65 15
1.0175195 -0.22143237 -0.23050575 8 14
0.93745005 -0.20759311 0.064376153 27 25
0.93443739 -0.2072698 0.021411955 19 23
0.95389473 -0.21188271 -0.021876173 13 21
0.95815092 -0.34639454 -0.045884673 14 20
0.94707108 -0.21039116 -0.064743772 69 19
0.96930516 -0.3510223 -0.089415811 10 18
0.96757513 -0.21489803 -0.1094588 68 17
0.9718014 -0.21548864 -0.16746323 72 15
1.0047984 -0.22255421 -0.22771512 8 14
0.93428534 -0.21032268 0.064202629 26 25
0.93858725 -0.21161735 0.021528009 20 23
0.95074737 -0.21450084 -0.021818146 15 21
0.9592796 -0.35059935 -0.046001129 17 20
0.93902844 -0.21206617 -0.064225823 68 19
0.97047228 -0.3550953 -0.089639343 12 18
0.96439499 -0.2177332 -0.1091745 75 17
0.97344714 -0.21941514 -0.16789262 71 15
1.0111914 -0.22747232 -0.2293895 8 14
0.93601531 -0.21396926 0.064376153 23 25
0.93544269 -0.21417707 0.021469982 21 23
0.94999284 -0.21781826 -0.021818146 15 21
0.967475 -0.3572588 -0.046466965 32 20
0.94561702 -0.21683276 -0.064743772 65 19
0.97389382 -0.36021817 -0.090086423 13 18
0.96366763 -0.22093007 -0.1091745 76 17
0.97271425 -0.22264199 -0.16789262 71 15
1.0032604 -0.22938845 -0.22771512 7 14
0.93526274 -0.21723528 0.064376153 22 25
0.94195843 -0.21928579 0.021644065 20 23
0.95409793 -0.22225495 -0.0219342 13 21
0.9614839 -0.35904509 -0.046234049 37 20
0.94971526 -0.22125177 -0.065089077 43 19
0.96796966 -0.36186177 -0.089639343 10 18
0.96285141 -0.2244606 -0.1091745 78 17
0.9766919 -0.22731036 -0.1687514 69 15
1.0024534 -0.23288907 -0.22771512 9 14
0.93688893 -0.22122869 0.064549677 22 25
0.94118714 -0.22257251 0.021644065 20 23
0.96544433 -0.22859976 -0.022224335 12 21
0.95789015 -0.36151224 -0.046117589 35 20
0.94646955 -0.2241625 -0.064916424 32 19
0.96430963 -0.36452171 -0.089415811 10 18
0.9644804 -0.22838654 -0.1094588 76 17
0.97589248 -0.23071827 -0.1687514 69 15
0.93611109 -0.22449771 0.064549677 22 25
0.94040447 -0.2258565 0.021644065 18 23
0.96220899 -0.23139003 -0.022166308 12 21
0.95895386 -0.3657487 -0.046234049 27 20
0.95053399 -0.22861923 -0.065261729 29 19
0.96303129 -0.36788556 -0.089415811 12 18
0.96367729 -0.23175181 -0.1094588 76 17
0.97508115 -0.23412336 -0.1687514 60 15
0.93289697 -0.22718005 0.064376153 21 25
0.93718076 -0.22855175 0.021586038 18 23
0.97354269 -0.2376816 -0.022456443 10 21
0.95942736 -0.23427823 -0.065952323 16 19
0.96406227 -0.37214655 -0.089639343 15 18
0.96527684 -0.23569746 -0.10974311 75 17
0.9790464 -0.23868051 -0.16961019 36 15
0.92725307 -0.22925037 0.064029112 23 25
0.9460876 -0.23419964 0.021818146 17 23
0.97274917 -0.24090868 -0.022456443 11 21
0.95375931 -0.23643771 -0.065607026 13 19
0.96282285 -0.37534148 -0.089639343 23 18
0.96203595 -0.23847385 -0.1094588 73 17
0.98538381 -0.24385397 -0.17089838 30 15
0.92890847 -0.2329244 0.064202629 22 25
0.94288015 -0.23673315 0.021760119 15 23
0.96947688 -0.24369936 -0.022398416 11 21
0.96023071 -0.24140546 -0.066124976 11 19
0.98465496 -0.38787439 -0.091874748 7 18
0.96123981 -0.24166277 -0.1094588 73 17
0.97500885 -0.24474533 -0.1691808 28 15
0.9305082 -0.2367743 0.064376153 22 25
0.94689506 -0.24124497 0.021876173 15 23
0.96619707 -0.24647015 -0.022340389 12 21
0.96663666 -0.24658743 -0.066642925 10 19
0.96761495 -0.24684072 -0.11031172 70 17
0.98370111 -0.25055557 -0.17089838 17 15
0.93205041 -0.2408009 0.064549677 20 25
0.94358325 -0.24409403 0.021818146 17 23
0.97981328 -0.25373405 -0.022688551 10 21
0.96089458 -0.24888988 -0.066297628 10 19
0.96910971 -0.2510024 -0.11059604 70 17
0.98754799 -0.25538096 -0.17175716 10 15
0.93788737 -0.24612963 0.021702092 16 23
0.9741286 -0.25572437 -0.022572497 10 21
0.9624337 -0.25287032 -0.066470273 10 19
0.9610163 -0.25250795 -0.10974311 71 17
0.99856925 -0.2619223 -0.17390412 9 15
0.94673389 -0.25178376 0.0219342 14 23
0.97806352 -0.26039749 -0.022688551 10 21
0.95917821 -0.25542468 -0.066297628 10 19
0.9673788 -0.25759307 -0.11059604 68 17
0.99531358 -0.26460519 -0.17347473 9 15
0.94343448 -0.25444219 0.021876173 15 23
0.97473413 -0.26316437 -0.022630524 11 21
0.965509 -0.26070398 -0.066815577 10 19
0.97127271 -0.26225144 -0.11116465 65 17
1.0110402 -0.27252537 -0.17648049 9 15
0.94008315 -0.25724471 0.021818146 15 23
0.98104626 -0.26852733 -0.022804603 10 21
0.95737165 -0.2621147 -0.066297628 12 19
0.96551079 -0.26450878 -0.11059604 52 17
1.0029031 -0.27429697 -0.1751923 9 15
0.94158953 -0.26118669 0.021876173 15 23
0.98246527 -0.27278414 -0.02286263 11 21
0.9636187 -0.26760632 -0.066815577 10 19
0.971766 -0.26985371 -0.11144896 35 17
0.99956459 -0.27714369 -0.1747629 8 15
0.94307983 -0.26514229 0.0219342 14 23
0.97674006 -0.27469888 -0.022746576 10 21
0.96267867 -0.27096832 -0.066815577 10 19
0.9708181 -0.27324417 -0.11144896 26 17
0.99621856 -0.2799705 -0.17433351 8 15
0.94219548 -0.2682682 0.0219342 13 23
0.98539621 -0.28082371 -0.022978684 10 21
0.96657521 -0.27551484 -0.067160875 10 19
0.97468734 -0.27781209 -0.11201758 15 17
0.99528468 -0.28327253 -0.17433351 8 15
0.94120592 -0.27171972 0.0219342 12 23
0.98200715 -0.28357401 -0.022920657 10 21
0.96320981 -0.27820092 -0.066988222 9 19
0.9736625 -0.28138259 -0.11201758 10 17
0.99423981 -0.28691855 -0.17433351 7 15
0.94025165 -0.27500349 0.0219342 12 23
0.98336148 -0.28786778 -0.022978684 10 21
0.96936935 -0.28381434 -0.067506172 9 19
0.98221594 -0.28754812 -0.11315482 9 17
0.99323213 -0.29038736 -0.17433351 8 15
0.94408226 -0.27969187 0.022050254 10 23
0.98235065 -0.2912986 -0.022978684 9 21
0.9683727 -0.28719631 -0.067506172 9 19
0.97644025 -0.28957403 -0.11258619 9 17
0.9789325 -0.2940127 -0.022920657 9 21
0.96019334 -0.28843981 -0.066988222 9 19
0.98018461 -0.29439822 -0.11315482 9 17
0.97077298 -0.29509392 -0.022746576 9 21
0.9640075 -0.29306152 -0.067333527 9 19
0.96969032 -0.2947804 -0.11201758 14 17
0.97451806 -0.29993972 -0.02286263 9 21
0.9653641 -0.2971527 -0.067506172 9 19
0.96622795 -0.29760715 -0.11173327 24 17
0.96863645 -0.30203301 -0.022746576 9 21
0.96903396 -0.30216229 -0.067851476 9 19
0.9699291 -0.30244541 -0.11230189 25 17
0.96762961 -0.30524346 -0.022746576 9 21
0.977494 -0.30852297 -0.068542078 9 19
0.96886748 -0.30582926 -0.11230189 26 17
0.96655822 -0.30861926 -0.022746576 9 21
0.97646558 -0.31176275 -0.068542078 9 19
0.967848 -0.30904043 -0.11230189 25 17
0.96785516 -0.31275412 -0.022804603 9 21
0.9824965 -0.31745288 -0.069060028 9 19
0.97858977 -0.3162072 -0.11372343 15 17
0.97151232 -0.31767282 -0.022920657 9 21
0.9884994 -0.32318881 -0.06957797 9 19
0.97978657 -0.32055846 -0.11400773 10 17
0.9703415 -0.32123145 -0.022920657 9 21
0.99204725 -0.32836598 -0.069923274 9 19
0.97158235 -0.32165176 -0.11315482 9 17
0.95029521 -0.31814611 -0.022456443 9 21
1.0003622 -0.33497253 -0.070613876 9 19
0.98223889 -0.32895717 -0.11457635 9 17
0.95628643 -0.32384917 -0.022630524 9 21
0.98742503 -0.33431673 -0.069750629 9 19
0.97643381 -0.3306306 -0.11400773 9 17
0.9933362 -0.34016892 -0.070268571 9 19
0.97286391 -0.33340758 -0.11372343 10 17
0.98029059 -0.33975163 -0.069405325 9 19
0.98108912 -0.34003276 -0.11486067 10 17
0.97909862 -0.34317145 -0.069405325 9 19
0.97285849 -0.34100726 -0.11400773 10 17
0.98260027 -0.34824225 -0.069750629 9 19
0.97634828 -0.34604949 -0.11457635 10 17
0.96969026 -0.34732178 -0.068887375 10 19
0.97519535 -0.34928524 -0.11457635 10 17
0.97316593 -0.35239166 -0.069232672 10 19
0.98565716 -0.35688788 -0.1159979 10 17
0.96255368 -0.35237941 -0.068542078 10 19
0.96359664 -0.35676536 -0.06871473 10 19
0.96702129 -0.36186382 -0.069060028 9 19
0.9541409 -0.36068717 -0.068196774 10 19
0.85288417 -0.45816773 -0.32280192 28 12
0.94588023 -0.36136225 -0.067678824 16 19
0.94461298 -0.36466181 -0.067678824 15 19
0.94710189 0.31738001 -0.044953004 4 20
0.95057636 0.31485209 -0.045069464 9 20
0.9397943 0.30767354 -0.044487171 36 20
0.93605423 0.30302772 -0.044254255 31 20
0.96439266 0.31158069 -0.087851033 7 18
0.94191939 0.30110508 -0.044487171 38 20
0.94885856 0.30294797 -0.086286254 17 18
0.93819869 0.29632178 -0.044254255 31 20
0.96184468 0.30318499 -0.087403953 19 18
0.93922728 0.29304504 -0.044254255 36 20
0.97003424 0.30203089 -0.088074572 28 18
0.95218527 0.29341537 -0.044836547 47 20
0.96626753 0.29735816 -0.087627493 30 18
0.95320368 0.29008988 -0.044836547 58 20
0.9601478 0.29182684 -0.086956874 36 18
0.94942409 0.28533393 -0.044603627 63 20
0.96598405 0.28972602 -0.087403953 39 18
0.95041436 0.28201807 -0.044603627 69 20
0.96698958 0.28635234 -0.087403953 42 18
0.95139295 0.27869877 -0.044603627 73 20
0.96315104 0.2817564 -0.086956874 37 18
0.94751108 0.2741648 -0.044370711 77 20
0.96891618 0.27976364 -0.087403953 38 18
0.94610667 0.27001017 -0.044254255 85 20
0.96269846 0.27434838 -0.086733334 37 18
0.94076675 0.26513064 0 4 22
0.94463807 0.26603442 -0.044137795 87 20
0.96609616 0.27148646 -0.086956874 36 18
0.93445611 0.25985223 0 24 22
0.9383381 0.26074591 -0.043788418 94 20
0.9621895 0.26696044 -0.086509794 35 18
0.93772501 0.25740832 0 42 22
0.93437803 0.25632247 -0.043555502 96 20
0.96071237 0.26294813 -0.086286254 25 18
0.93620324 0.25348559 0 53 22
0.94009125 0.25435287 -0.043788418 95 20
0.96162438 0.25959304 -0.086286254 23 18
0.9394992 0.25085557 0 61 22
0.94101721 0.25090554 -0.043788418 94 20
0.96252471 0.25623477 -0.086286254 19 18
0.94041228 0.24741043 0 62 22
0.93947059 0.24698974 -0.043671962 87 20
0.95859367 0.25161976 -0.085839175 18 18
0.94364887 0.24491312 0 57 22
0.94995928 0.24635889 -0.044137795 66 20
0.96670204 0.25012729 -0.086509794 12 18
0.96882057 0.25031614 -0.13417698 8 16
0.94207454 0.24100357 0 58 22
0.94112998 0.24058932 -0.043671962 65 20
0.96756929 0.24675132 -0.086509794 13 18
0.96488649 0.2457213 -0.13348889 30 16
0.93810028 0.23633862 0 62 22
0.95169789 0.23955488 -0.044137795 60 20
0.9660508 0.24260224 -0.086286254 14 18
0.96337748 0.24158619 -0.13314486 29 16
0.93891954 0.23306261 0 62 22
0.95010316 0.23563568 -0.044021338 60 20
0.96447337 0.23863594 -0.086062714 18 18
0.95459384 0.23586766 -0.13176867 27 16
0.93000817 0.22743061 0 89 22
0.94606537 0.23114334 -0.043788418 59 20
0.96283901 0.23485166 -0.085839175 17 18
0.97462833 0.23734547 -0.13452102 23 16
0.93075722 0.22434534 0 97 22
0.94925582 0.22858396 -0.043904878 63 20
0.95638573 0.22976068 -0.085168555 27 18
0.96822321 0.2322254 -0.13348889 23 16
0.92666709 0.21995157 0 97 22
0.94765604 0.22453296 -0.043788418 57 20
0.95475757 0.22585313 -0.084945023 30 18
0.97143912 0.22940804 -0.13383295 23 16
0.93862438 0.21930426 0.043322586 5 24
0.92990291 0.2171165 0 99 22
0.9460007 0.22066191 -0.043671962 60 20
0.96043181 0.22346997 -0.085392095 31 18
0.97227341 0.22584598 -0.13383295 21 16
0.94425422 0.21713476 0.043555502 22 24
0.92577958 0.21276061 0 101 22
0.94920039 0.21791168 -0.043788418 54 20
0.95631105 0.21918222 -0.084945023 30 18
0.96818691 0.22152674 -0.13314486 28 16
0.94009537 0.21291021 0.043322586 60 24
0.92648005 0.20968944 0 104 22
0.94991779 0.21476281 -0.043788418 54 20
0.95707029 0.21584274 -0.084945023 30 18
0.97137117 0.21868427 -0.13348889 22 16
0.93839401 0.20908982 0.043206125 84 24
0.9296478 0.20699184 0 102 22
0.94825953 0.21074349 -0.043671962 48 20
0.95052165 0.2108991 -0.084274404 29 18
0.96970987 0.21476217 -0.13314486 22 16
0.93915403 0.20564905 0.043206125 86 24
0.92551339 0.20252565 0 96 22
0.94410759 0.20637667 -0.043439046 51 20
0.96102434 0.20951355 -0.085168555 30 18
0.97049046 0.21120659 -0.13314486 22 16
0.93498117 0.2013294 0.042973209 93 24
0.93110526 0.20033418 0 78 22
0.94237959 0.20256065 -0.043322586 52 20
0.96174985 0.20615765 -0.085168555 30 18
0.97606689 0.20884307 -0.13383295 21 16
0.93567824 0.19806446 0.042973209 96 24
0.93179882 0.19708279 0 77 22
0.9430809 0.19926992 -0.043322586 76 20
0.95271307 0.20076759 -0.084274404 29 18
0.97194129 0.20442617 -0.13314486 21 16
0.92899179 0.19345026 0.042623833 97 24
0.92754978 0.19298466 0 79 22
0.94621694 0.19647887 -0.043439046 83 20
0.95686537 0.33118051 -0.067678824 3 19
0.95581287 0.19810702 -0.084497944 28 18
0.96533591 0.19971332 -0.13211273 20 16
0.92479891 0.18905513 0.042390916 99 24
0.93070143 0.19007829 0 83 22
0.94200087 0.19218755 -0.043206125 86 20
0.94864142 0.32442001 -0.066988222 9 19
0.96141481 0.19558424 -0.084945023 28 18
0.97091699 0.19714849 -0.13280082 17 16
0.93035227 0.18679765 0.042623833 99 24
0.93626386 0.18780041 0 81 22
0.94021642 0.18841313 -0.043089665 91 20
0.94504666 0.31949753 -0.066642925 24 19
0.95476323 0.19078 -0.084274404 31 18
0.97159928 0.19375816 -0.13280082 14 16
0.9260962 0.18259425 0.042390916 101 24
0.92955172 0.18309873 0 86 22
0.94331968 0.18560649 -0.043206125 90 20
0.95324665 0.31858569 -0.067160875 31 19
0.95294625 0.18713857 -0.084050864 30 18
0.9625122 0.18865201 -0.13142464 15 16
0.92179096 0.17858376 0.042158 104 24
0.92524272 0.17907661 0 87 22
0.95387942 0.31528986 -0.02251447 8 21
0.94392997 0.18247731 -0.043206125 91 20
0.94956565 0.3138459 -0.066815577 39 19
0.95359361 0.18381104 -0.084050864 30 18
0.96803027 0.18621567 -0.13211273 13 16
0.92731762 0.17628634 0.042390916 104 24
0.93814802 0.17814949 0 43 22
0.95497406 0.31195822 -0.02251447 15 21
0.9372285 0.17763828 -0.042856749 95 20
0.94591761 0.30896893 -0.066470273 48 19
0.95178175 0.18002407 -0.083827324 30 18
0.96624011 0.18238167 -0.13176867 13 16
1.1745237 0.2182349 0.11085069 14 26
0.92550147 0.1724347 0.042274456 106 24
0.93387699 0.17380635 0 15 22
0.9513576 0.30690968 -0.022398416 19 21
0.9427554 0.17526728 -0.043089665 93 20
0.94230032 0.3039569 -0.066124976 58 19
0.95243526 0.1765344 -0.083827324 30 18
0.969338 0.17928389 -0.13211273 11 16
0.92364001 0.16875996 0.042158 109 24
0.92709684 0.16921602 0 10 22
0.95474941 0.30451846 -0.022456443 21 21
0.9458192 0.17241763 -0.043206125 66 20
0.95047873 0.30295554 -0.066642925 44 19
0.95056462 0.17293496 -0.083603784 30 18
0.96505237 0.17519484 -0.13142464 18 16
0.935821 0.16775864 0.087538742 44 26
0.92173547 0.16526119 0.04204154 108 24
0.92765284 0.16614075 0 10 22
0.96057039 0.30269778 -0.022572497 19 21
0.94392657 0.16884615 -0.043089665 24 20
0.94672436 0.29829121 -0.066297628 42 19
0.9585194 0.1709104 -0.084274404 34 18
0.96565807 0.17182511 -0.13142464 17 16
0.91433179 0.16066709 0.085397854 96 26
0.91492486 0.16076368 0.041692164 108 24
0.92576373 0.16247523 0 13 22
0.95446754 0.29709703 -0.022398416 17 21
0.94207817 0.16496028 -0.042973209 19 20
0.95013928 0.29573178 -0.066470273 43 19
0.96156394 0.16798647 -0.084497944 38 18
0.95405018 0.16635445 -0.12970442 20 16
0.91491455 0.15731484 0.085397854 98 26
0.92535663 0.15907855 0.042158 100 24
0.91895831 0.157829 0 13 22
0.95316273 0.29285684 -0.022340389 18 21
0.94264829 0.1616708 -0.042973209 50 20
0.95121688 0.29224735 -0.066470273 42 19
0.96708387 0.16528895 -0.084945023 47 18
0.95465344 0.16285656 -0.12970442 22 16
0.91054791 0.15330559 0.084922098 101 26
0.92590624 0.15584747 0.042158 97 24
0.91950363 0.15462027 0 14 22
0.95417917 0.28952786 -0.022340389 25 21
0.94074315 0.1579715 -0.042856749 89 20
0.94507676 0.28673518 -0.065952323 52 19
0.96028465 0.16069601 -0.084274404 74 18
0.96498936 0.16113238 -0.1310806 18 16
0.90613842 0.14948691 0.084446348 103 26
0.93137467 0.15341477 0.042390916 95 24
0.92990881 0.1530102 0 29 22
0.94317269 0.28274396 -0.022050254 30 21
0.93635845 0.1538882 -0.042623833 96 20
0.94368464 0.28271279 -0.065779679 61 19
0.96081227 0.15751071 -0.084274404 80 18
0.97323298 0.29163885 -0.11230189 4 17
0.95573992 0.15635471 -0.12970442 19 16
0.90911245 0.14671357 0.084684223 104 26
0.93187827 0.15032539 0.042390916 86 24
0.93041104 0.14992568 0 85 22
0.94894344 0.28088045 -0.022166308 32 21
0.93688995 0.15061875 -0.042623833 96 20
0.94461697 0.27958184 -0.065779679 56 19
0.95889676 0.15376723 -0.084050864 82 18
0.97900516 0.28966072 -0.11287051 8 17
0.9660638 0.15456024 -0.1310806 13 16
0.90964413 0.14338054 0.084684223 106 26
0.932423 0.14690886 0.042390916 82 24
0.9284839 0.14613163 0 91 22
0.94756919 0.27669403 -0.022108281 33 21
0.93987793 0.14772953 -0.042740289 95 20
0.9504199 0.27752781 -0.066124976 43 19
0.95453221 0.14949238 -0.083603784 85 18
0.96809781 0.28273106 -0.11144896 10 17
0.96172899 0.15026502 -0.13039251 15 16
0.91259962 0.14057741 0.084922098 108 26
0.93046111 0.1432789 0.042274456 82 24
0.92651647 0.14251547 0 93 22
0.94852924 0.27338472 -0.022108281 33 21
0.93544948 0.14370099 -0.042507373 96 20
0.9465934 0.27281523 -0.065779679 47 19
0.9550482 0.14615954 -0.083603784 85 18
0.95953918 0.27657488 -0.11031172 14 17
0.96714497 0.14764333 -0.1310806 18 16
0.91062289 0.13702658 0.084684223 110 26
0.9334259 0.14039579 0.042390916 82 24
0.93195456 0.14001173 0 93 22
0.94947773 0.27007204 -0.022108281 34 21
0.93841583 0.14079958 -0.042623833 96 20
0.94514281 0.26882106 -0.065607026 50 19
0.95801604 0.14318736 -0.083827324 84 18
0.96049875 0.27322379 -0.11031172 21 17
0.96520454 0.14390686 -0.13073654 20 16
0.90614629 0.1332936 0.084208466 110 26
0.93143862 0.13677964 0.042274456 82 24
0.92501444 0.13568674 0 95 22
0.95036811 0.266922 -0.022108281 37 21
0.9389016 0.13752304 -0.042623833 95 20
0.95087445 0.2668801 -0.065952323 47 19
0.95602089 0.13965538 -0.083603784 83 18
0.96861577 0.27190071 -0.11116465 25 17
0.96322531 0.14035389 -0.13039251 20 16
0.90660602 0.13012975 0.084208466 112 26
0.93188709 0.13369012 0.042274456 79 24
0.92298377 0.13226974 0 94 22
0.94888711 0.26292956 -0.022050254 39 21
0.93935251 0.13440877 -0.042623833 95 20
0.95175421 0.2637254 -0.065952323 40 19
0.95403665 0.13597172 -0.083380245 79 18
0.96472818 0.26734877 -0.11059604 25 17
0.96861404 0.13767657 -0.1310806 23 16
0.89965838 0.12594719 0.083494842 113 26
0.92740011 0.12975599 0.04204154 32 24
0.92591661 0.12938726 0 91 22
0.9473899 0.2589508 -0.021992227 44 21
0.94231308 0.13130389 -0.042740289 94 20
0.94305253 0.25774729 -0.065261729 39 19
0.95697254 0.13297775 -0.083603784 33 18
0.96330726 0.26315066 -0.11031172 23 17
0.95927465 0.13295725 -0.12970442 25 16
0.9075141 0.12363894 0.084208466 114 26
0.92539418 0.12602487 0.04192508 16 24
0.92886257 0.12632382 0 90 22
0.945921 0.25482056 -0.0219342 51 21
0.94029021 0.12768352 -0.042623833 95 20
0.95602357 0.25756282 -0.066124976 37 19
0.95498526 0.12914136 -0.083380245 10 18
0.95703 0.25783035 -0.1094588 22 17
0.96221024 0.12976579 -0.13004847 29 16
0.90794003 0.12047037 0.084208466 122 26
0.92087573 0.12214886 0.041692164 9 24
0.92929792 0.12308071 0 88 22
0.94197685 0.2502217 -0.021818146 61 21
0.94073015 0.12440052 -0.042623833 90 20
0.95209926 0.25293145 -0.065779679 37 19
0.96777725 0.12740409 -0.084497944 7 18
0.96512091 0.25641915 -0.11031172 21 17
0.97002494 0.12735659 -0.1310806 31 16
0.91080344 0.11777207 0.084446348 123 26
0.93368393 0.12050296 0.042274456 8 24
0.93309444 0.24470063 0.021586038 4 23
0.9322021 0.12014987 0 86 22
0.94280148 0.2470966 -0.021818146 62 21
0.94363636 0.121429 -0.042740289 89 20
0.95538729 0.25024438 -0.065952323 34 19
0.97313541 0.12481654 -0.084945023 6 18
0.96601003 0.25304869 -0.11031172 21 17
0.96061438 0.12290463 -0.12970442 35 16
0.91120899 0.11459206 0.084446348 122 26
0.93159986 0.11710044 0.042158 8 24
0.93148267 0.24097292 0.021528009 10 23
0.93507665 0.11736345 0 86 22
0.94123989 0.24317284 -0.021760119 68 21
0.9390766 0.11768957 -0.042507373 92 20
0.95379877 0.24644491 -0.065779679 34 19
0.96367902 0.12020855 -0.084050864 7 18
0.96444058 0.24921657 -0.11002742 21 17
0.96349549 0.11985077 -0.13004847 49 16
0.88541269 0.10812916 0.13406166 52 28
0.90668076 0.11066048 0.083970591 119 26
0.93946165 0.11457484 0.042507373 7 24
0.93478 0.2381805 0.021586038 31 23
0.93550056 0.11393544 0 64 22
0.93244255 0.23723178 -0.021528009 80 21
0.94694072 0.11513396 -0.042856749 79 20
0.9546957 0.2429474 -0.065779679 32 19
0.96905839 0.11726274 -0.084497944 6 18
0.96294212 0.24506152 -0.10974311 21 17
0.97130543 0.11719172 -0.1310806 73 16
0.89559877 0.10617683 0.13560705 85 28
0.90458941 0.107208 0.083732717 111 26
0.92993331 0.11014322 0.04204154 7 24
0.9356057 0.23491605 0.021586038 37 23
0.93340921 0.11038146 0 23 22
0.94053316 0.23581736 -0.021702092 86 21
0.93493319 0.11039266 -0.042274456 29 20
0.95312023 0.23900077 -0.065607026 32 19
0.96698815 0.11359449 -0.084274404 6 18
0.96619928 0.24230886 -0.11002742 20 17
0.96432847 0.11295314 -0.13004847 79 16
0.89596391 0.10304996 0.13560705 104 28
0.90741301 0.10448638 0.083970591 104 26
0.93775702 0.10773418 0.042390916 7 24
0.9412694 0.23286143 0.021702092 40 23
0.93378878 0.10712259 0 16 22
0.93888527 0.23209122 -0.021644065 74 21
0.94027627 0.10768521 -0.042507373 20 20
0.94668949 0.23385967 -0.065089077 34 19
0.96983409 0.11066391 -0.084497944 7 18
0.95740008 0.23652782 -0.10889018 20 17
0.96715868 0.11002898 -0.13039251 83 16
1.0092199 0.11315499 -0.28063667 9 13
0.8864792 0.099006094 0.13406166 111 28
0.90529817 0.10104822 0.083732717 100 26
0.93810904 0.10462386 0.042390916 7 24
0.9347564 0.22794388 0.021528009 51 23
0.92668301 0.10321284 0 15 22
0.94454336 0.23000737 -0.021760119 48 21
0.94559348 0.10510682 -0.042740289 19 20
0.95472497 0.23250759 -0.065607026 33 19
0.96278793 0.10647372 -0.083827324 7 18
0.96782619 0.23572657 -0.11002742 17 17
0.96261305 0.10612088 -0.12970442 86 16
1.0167596 0.11057141 -0.28270018 9 13
0.88927573 0.096170574 0.13444801 112 28
0.91801989 0.099194676 0.084922098 96 26
0.92853469 0.10029927 0.04192508 8 24
0.93315673 0.2239269 0.021469982 52 23
0.93698245 0.10102624 0 17 22
0.94534051 0.22670889 -0.021760119 42 21
0.94597238 0.10164034 -0.042740289 19 20
0.94825935 0.22741039 -0.065089077 30 19
0.96810663 0.10363114 -0.084274404 8 18
0.97109771 0.2327626 -0.11031172 14 17
0.96544045 0.10301721 -0.13004847 86 16
1.0123761 0.10635242 -0.28132448 9 13
0.89453667 0.093411498 0.13522071 117 28
0.91342568 0.095324583 0.084446348 91 26
0.93883377 0.097908281 0.042390916 8 24
0.93150181 0.2200873 0.021411955 58 23
0.93485928 0.097338282 0 20 22
0.94373405 0.22266248 -0.021702092 53 21
0.93389893 0.097075827 -0.042158 35 20
0.95151246 0.22451214 -0.065261729 29 19
0.97095728 0.10033248 -0.084497944 9 18
0.97190422 0.22937141 -0.11031172 15 17
0.96334779 0.099229909 -0.12970442 87 16
1.0246999 0.10400525 -0.28476366 9 13
0.89239919 0.090046532 0.13483436 118 28
0.90878344 0.091806732 0.083970591 92 26
0.93668461 0.094385996 0.042274456 9 24
0.9298315 0.21626201 0.021353928 64 23
0.9327054 0.093830027 0 58 22
0.94446719 0.21953171 -0.021702092 56 21
0.94168818 0.0945464 -0.042507373 85 20
0.94986242 0.22061902 -0.065089077 30 19
0.97128469 0.097112119 -0.084497944 9 18
0.96302718 0.2237054 -0.1091745 19 17
0.96860063 0.096514612 -0.13039251 88 16
1.0226642 0.10019863 -0.28407586 9 13
0.88531625 0.086385541 0.13367532 120 28
0.9066208 0.088398427 0.083732717 95 26
0.93450624 0.091042995 0.042158 10 24
0.93054348 0.21317738 0.021353928 69 23
0.92803383 0.090264268 0 90 22
0.94279283 0.21567006 -0.021644065 60 21
0.93702424 0.090952225 -0.042274456 95 20
0.95058882 0.21746796 -0.065089077 30 19
0.96418071 0.093020722 -0.083827324 9 18
0.96376371 0.22051065 -0.1091745 21 17
0.96400088 0.092670366 -0.12970442 87 16
0.97505277 0.22346282 -0.16832201 8 15
1.0205975 0.096585616 -0.28338802 9 13
0.88315272 0.083069533 0.13328896 122 28
0.91188049 0.085686892 0.084208466 95 26
0.93481839 0.087780401 0.042158 11 24
0.92644495 0.20865449 0.021237876 77 23
0.92336398 0.086569376 0 96 22
0.94110292 0.21182279 -0.021586038 67 21
0.93735129 0.087517254 -0.042274456 96 20
0.9489103 0.21359463 -0.064916424 30 19
0.96201968 0.089429729 -0.083603784 9 18
0.95487797 0.21477228 -0.10803726 21 17
0.96185231 0.089082099 -0.12936038 86 16
0.96626025 0.21769832 -0.16660444 13 15
1.0209447 0.092844293 -0.28338802 10 13
0.88837224 0.080264322 0.13406166 126 28
0.90723014 0.081908584 0.083732717 96 26
0.94010925 0.084790573 0.042390916 10 24
0.92716765 0.20541933 0.021237876 81 23
0.92865592 0.083621144 0 93 22
0.93699509 0.20727992 -0.021469982 68 21
0.93267548 0.08380945 -0.04204154 95 20
0.94481933 0.20902546 -0.064571127 30 19
0.97226351 0.086766019 -0.084497944 9 18
0.96289319 0.21306583 -0.10889018 22 17
0.96463931 0.085769802 -0.12970442 83 16
0.96701425 0.21432412 -0.16660444 14 15
1.0164728 0.088871866 -0.28201234 9 13
0.89356947 0.077577911 0.13483436 129 28
0.91495019 0.079368591 0.084446348 95 26
0.9354226 0.081088789 0.042158 9 24
0.92299777 0.20110486 0.021121822 92 23
0.92645097 0.080169395 0 95 22
0.94015372 0.2045455 -0.021528009 67 21
0.93545085 0.08076226 -0.042158 96 20
0.94554317 0.20572616 -0.064571127 29 19
0.96015364 0.082336374 -0.083380245 15 18
0.96120536 0.20916922 -0.10860588 23 17
0.96740055 0.082607105 -0.13004847 80 16
0.98699671 0.2151916 -0.17003958 14 15
1.0239636 0.085910246 -0.28407586 9 13
0.89875871 0.074856207 0.13560705 133 28
0.91274107 0.075973883 0.084208466 95 26
0.93146926 0.19990255 0.063855588 7 25
0.93072158 0.077420764 0.04192508 10 24
0.92369413 0.19788177 0.021121822 96 23
0.92672515 0.076934986 0 95 22
0.93841928 0.20073347 -0.021469982 67 21
0.93821633 0.077696718 -0.042274456 96 20
0.94869298 0.20295225 -0.064743772 30 19
0.96291733 0.079182707 -0.083603784 57 18
0.96192968 0.20581271 -0.10860588 22 17
0.97015136 0.079426184 -0.13039251 78 16
0.9805212 0.21017861 -0.1687514 16 15
1.0194647 0.081960782 -0.28270018 10 13
0.90146458 0.072066173 0.13599339 138 28
0.91298795 0.072946705 0.084208466 94 26
0.9199329 0.19420506 0.062987991 23 25
0.92848337 0.074141055 0.041808624 53 24
0.92678952 0.19533938 0.021179849 98 23
0.92697519 0.073861428 0 95 22
0.93663538 0.19709954 -0.021411955 63 21
0.93597889 0.074393027 -0.042158 96 20
0.94936079 0.19980514 -0.064743772 30 19
0.95820916 0.07560879 -0.083156705 45 18
0.95531923 0.20106867 -0.10775296 20 17
0.96794045 0.07602036 -0.13004847 76 16
0.97639573 0.20589763 -0.16789262 16 15
1.0221277 0.07875903 -0.28338802 10 13
0.89678413 0.06855467 0.13522071 144 28
0.91075516 0.069575772 0.083970591 94 26
0.92792702 0.19253168 0.063508548 48 25
0.92624605 0.070715398 0.041692164 75 24
0.92505306 0.19142841 0.021121822 100 23
0.92473412 0.070441268 0 95 22
0.94465637 0.19536601 -0.021586038 31 21
0.93375468 0.070779093 -0.04204154 95 20
0.9451704 0.19546744 -0.064398475 31 19
0.96095055 0.072445057 -0.083380245 16 18
0.95604968 0.1975659 -0.10775296 20 17
0.96819991 0.072641157 -0.13004847 76 16
0.97473335 0.20181224 -0.16746323 14 15
1.0224096 0.075012207 -0.28338802 9 13
0.90195721 0.065613642 0.13599339 146 28
0.90852147 0.066062748 0.083732717 94 26
0.92374146 0.18812127 0.063161507 65 25
0.92400789 0.067144997 0.041575707 62 24
0.92571563 0.18819819 0.021121822 101 23
0.9299739 0.067401133 0 92 22
0.94781423 0.19240579 -0.021644065 11 21
0.93897855 0.067867652 -0.042274456 93 20
0.94588047 0.19200192 -0.064398475 33 19
0.97362971 0.069784462 -0.084497944 7 18
0.95916641 0.19472775 -0.10803726 19 17
0.96598929 0.068921462 -0.12970442 58 16
0.97784406 0.19890545 -0.16789262 16 15
1.0250633 0.071605101 -0.28407586 9 13
0.89478731 0.061971162 0.13483436 151 28
0.91370183 0.063382089 0.084208466 90 26
0.92683679 0.18539119 0.063335031 74 25
0.92672837 0.064085566 0.041692164 24 24
0.92146754 0.18397425 0.021005768 99 23
0.92770898 0.06398838 0 92 22
0.94599736 0.18876636 -0.021586038 9 21
0.9392097 0.064589597 -0.042274456 92 20
0.94898957 0.18919283 -0.064571127 35 19
0.96391749 0.065898798 -0.083603784 7 18
0.95740569 0.19088665 -0.10775296 21 17
0.96621251 0.065717749 -0.12970442 18 16
0.96646279 0.19304852 -0.16574566 16 15
1.0253069 0.068026528 -0.28407586 10 13
0.89745283 0.059159979 0.13522071 158 28
0.92136848 0.060664978 0.084922098 84 26
0.92010885 0.18085445 0.062814467 89 25
0.93192035 0.061328288 0.04192508 10 24
0.92452389 0.18140516 0.021063795 93 23
0.93290615 0.061227333 0 90 22
0.94419897 0.18497634 -0.021528009 7 21
0.93941873 0.061474711 -0.042274456 92 20
0.94961178 0.18604483 -0.064571127 40 19
0.96911192 0.062844649 -0.084050864 6 18
0.95559716 0.18722703 -0.10746864 21 17
0.96396458 0.062190875 -0.12936038 8 16
0.97192872 0.19080351 -0.16660444 16 15
1.0303252 0.064917907 -0.28545153 10 13
0.89272285 0.055731371 0.13444801 162 28
0.91909039 0.057299539 0.084684223 66 26
0.92073452 0.17764159 0.062814467 95 25
0.9271431 0.05777609 0.041692164 8 24
0.92763567 0.17849399 0.021121822 78 23
0.93061864 0.057821367 0 90 22
0.95465153 0.18359205 -0.021760119 6 21
0.94213057 0.058179256 -0.042390916 90 20
0.94291145 0.18129742 -0.06405317 57 19
0.96932542 0.059461437 -0.084050864 6 18
0.95871496 0.1841981 -0.10775296 21 17
0.96417582 0.058825634 -0.12936038 7 16
0.9653697 0.18582506 -0.16531627 17 15
1.0257568 0.060866937 -0.28407586 10 13
1.0561478 0.061524142 -0.3538563 10 12
0.90031934 0.052875221 0.13560705 151 28
0.92177898 0.054070313 0.084922098 26 26
0.926278 0.1752055 0.063161507 96 25
0.93233532 0.054658096 0.04192508 7 24
0.9233436 0.17431475 0.021005768 69 23
0.93332034 0.054550085 0 90 22
0.95040828 0.17915347 -0.021644065 6 21
0.94232792 0.054890253 -0.042390916 48 20
0.93867022 0.17690387 -0.063707873 63 19
0.96456444 0.0556329 -0.083603784 6 18
0.96667099 0.18224925 -0.10860588 22 17
0.96932989 0.055563495 -0.13004847 7 16
0.97085035 0.18338053 -0.16617505 16 15
1.0331632 0.057672169 -0.28613934 10 13
1.0516374 0.057588995 -0.35222185 12 12
0.89803183 0.049602069 0.13522071 143 28
0.91699171 0.050590146 0.084446348 18 26
0.91953117 0.17058711 0.06264095 97 25
0.92503899 0.051008604 0.041575707 7 24
0.92149013 0.17062916 0.020947741 68 23
0.92601544 0.050898027 0 88 22
0.94611478 0.1749136 -0.021528009 6 21
0.94001997 0.051469885 -0.042274456 24 20
0.9343794 0.17270695 -0.063362576 69 19
0.97221267 0.052652646 -0.084274404 7 18
0.96241874 0.17795831 -0.10803726 21 17
0.96704501 0.052052125 -0.12970442 7 16
0.97148448 0.1799905 -0.16617505 16 15
1.0261568 0.053704377 -0.28407586 10 13
1.051832 0.053917743 -0.35222185 12 12
0.8932656 0.046224009 0.13444801 127 28
0.92461967 0.047756251 0.08515998 13 26
0.91521597 0.16647075 0.062293906 99 25
0.93768269 0.048393615 0.042158 7 24
0.9220801 0.16741152 0.020947741 69 23
0.92868447 0.047787879 0 45 22
0.93934524 0.17025389 -0.021353928 7 21
0.94019389 0.048188291 -0.042274456 19 20
0.93742943 0.1698954 -0.063535221 71 19
0.96990347 0.049138334 -0.084050864 7 18
0.95814848 0.17369933 -0.10746864 22 17
0.96474743 0.04855739 -0.12936038 8 16
0.96726274 0.17570573 -0.16531627 18 15
1.0311399 0.050346021 -0.28545153 9 13
1.0520139 0.050245833 -0.35222185 12 12
0.89095414 0.042992745 0.13406166 115 28
0.92228687 0.044575647 0.084922098 15 26
0.91824561 0.16371925 0.062467426 101 25
0.93285656 0.044891886 0.04192508 7 24
0.92265886 0.16419184 0.020947741 72 23
0.92884558 0.044545878 0 24 22
0.9448238 0.16802573 -0.021469982 7 21
0.93536693 0.044679537 -0.04204154 21 20
0.93310785 0.16573709 -0.063189924 74 19
0.97006106 0.045921747 -0.084050864 7 18
0.95386022 0.16947232 -0.10690003 23 17
0.96737689 0.045468505 -0.12970442 10 16
0.96302295 0.17145263 -0.16445749 17 15
1.036112 0.046953533 -0.28682721 10 13
1.0545433 0.046672665 -0.35303906 13 12
0.90596771 0.040370744 0.20178777 112 30
0.89602727 0.040247444 0.13483436 103 28
0.92492324 0.041461509 0.08515998 12 26
0.9089613 0.15892905 0.061773345 102 25
0.92801023 0.04158641 0.041692164 8 24
0.92073733 0.16069514 0.020889714 74 23
0.92898822 0.041465465 0 22 22
0.94294351 0.16429135 -0.021411955 7 21
0.93800503 0.041682519 -0.042158 21 20
0.93856412 0.16351062 -0.063535221 73 19
0.97270334 0.042638723 -0.084274404 7 18
0.95441699 0.16630828 -0.10690003 23 17
0.95515919 0.041581623 -0.12798421 16 16
0.95873612 0.16739863 -0.1635987 18 15
1.0338602 0.043421779 -0.28613934 10 13
1.0499705 0.042992372 -0.35140461 12 12
0.88419867 0.036362767 0.19671489 113 30
0.9035666 0.037407808 0.13599339 98 28
0.92506242 0.038232669 0.08515998 10 26
0.9144246 0.15661019 0.062120385 103 25
0.9281497 0.038346794 0.041692164 9 24
0.9188301 0.15705264 0.020831687 75 23
0.92163301 0.037931915 0 23 22
0.9484365 0.16185227 -0.021528009 7 21
0.9381448 0.038408015 -0.042158 23 20
0.93667179 0.15980764 -0.063362576 73 19
0.97782266 0.039432529 -0.084721483 8 18
0.95988631 0.1638238 -0.10746864 22 17
0.9602474 0.038433898 -0.12867229 17 16
0.97144729 0.16615757 -0.16574566 16 15
1.0388093 0.039987139 -0.28751501 10 13
1.0453918 0.039160468 -0.34977016 12 12
0.88676023 0.033206776 0.19727854 120 30
0.9012292 0.03400876 0.13560705 96 28
0.92519629 0.034841891 0.08515998 15 26
0.91499245 0.15325762 0.062120385 105 25
0.93077981 0.035032727 0.041808624 9 24
0.91939956 0.15368389 0.020831687 77 23
0.93425804 0.034992129 0 62 22
0.95395172 0.15921032 -0.021644065 8 21
0.93578351 0.034882128 -0.04204154 23 20
0.93479228 0.1559567 -0.063189924 74 19
0.97049499 0.035591576 -0.084050864 9 18
0.96782684 0.16154976 -0.10832157 23 17
0.96038181 0.034914158 -0.12867229 19 16
0.96476549 0.16135865 -0.16445749 17 15
1.0293399 0.03586572 -0.28476366 9 13
1.0077959 0.16882998 -0.22604074 11 14
1.0549742 0.035627156 -0.35303906 11 12
0.88443631 0.030034697 0.19671489 127 30
0.89887363 0.030784227 0.13522071 96 28
0.91038239 0.031296797 0.083732717 20 26
0.91306186 0.14965287 0.061946865 107 25
0.92840034 0.031704169 0.041692164 12 24
0.9199304 0.15047365 0.020831687 77 23
0.92687827 0.031493861 0 92 22
0.94461215 0.15440805 -0.021411955 8 21
0.94089168 0.031772304 -0.042274456 65 20
0.94025171 0.1535091 -0.063535221 74 19
0.97309643 0.032450445 -0.084274404 9 18
0.961034 0.15695086 -0.10746864 25 17
0.96544242 0.031881329 -0.12936038 36 16
0.96532291 0.15799002 -0.16445749 17 15
1.0366665 0.032482576 -0.28682721 10 13
0.99873519 0.16388497 -0.22380823 13 14
1.0527304 0.031878009 -0.35222185 11 12
0.88453102 0.027101636 0.19671489 133 30
0.89897078 0.027803287 0.13522071 96 28
0.9104861 0.02811878 0.083732717 23 26
0.91109169 0.14622247 0.061773345 112 25
0.92850035 0.028625309 0.041692164 17 24
0.91795754 0.14702049 0.02077366 77 23
0.92447865 0.028349372 0 95 22
0.95007938 0.15191157 -0.021528009 8 21
0.93350297 0.02844153 -0.04192508 96 20
0.93829393 0.14999025 -0.063362576 73 19
0.96573675 0.028847544 -0.083603784 10 18
0.96400088 0.1541615 -0.10775296 29 17
0.96554786 0.028511114 -0.12936038 78 16
0.97070318 0.15557981 -0.16531627 18 15
1.0295602 0.028858447 -0.28476366 10 13
0.99689603 0.16000561 -0.22325012 12 14
1.0457445 0.028211204 -0.34977016 12 12
0.88949001 0.024133746 0.1978422 141 30
0.89659321 0.024603484 0.13483436 96 28
0.91057873 0.02494042 0.083732717 24 26
0.91405934 0.14343444 0.061946865 114 25
0.91860867 0.02513478 0.041226331 17 24
0.92095852 0.14404772 0.020831687 78 23
0.92457199 0.025122166 0 96 22
0.9431988 0.14741744 -0.021353928 9 21
0.94109058 0.025202923 -0.042274456 96 20
0.93634862 0.14632262 -0.063189924 75 19
0.96583158 0.025476318 -0.083603784 9 18
0.9596532 0.14984842 -0.10718434 34 17
0.963166 0.025081776 -0.12901634 85 16
0.97126687 0.15202096 -0.16531627 18 15
1.0392708 0.025297813 -0.28751501 10 13
0.99504209 0.15614109 -0.222692 13 14
1.0482031 0.024428062 -0.3505874 12 12
0.89444262 0.020975456 0.19896951 149 30
0.90161622 0.021422319 0.13560705 96 28
0.90525538 0.13894731 0.10754404 98 27
0.90319973 0.021443855 0.083019085 26 26
0.91211468 0.13969915 0.061773345 111 25
0.92368805 0.021874083 0.041459247 17 24
0.92392534 0.14121617 0.020889714 76 23
0.92715728 0.021786064 0 96 22
0.94867229 0.14472589 -0.021469982 9 21
0.93617928 0.02181315 -0.04204154 96 20
0.93441415 0.14250734 -0.063017271 75 19
0.95844996 0.021783665 -0.082933158 9 18
0.96262485 0.14687853 -0.10746864 38 17
0.96325141 0.021551428 -0.12901634 83 16
0.96692443 0.14787269 -0.16445749 18 15
1.0345466 0.021580162 -0.28613934 10 13
0.99801552 0.15286794 -0.22325012 13 14
1.0459195 0.020727355 -0.34977016 13 12
0.89451045 0.017853141 0.19896951 159 30
0.89921588 0.018230991 0.13522071 97 28
0.9008286 0.13503751 0.10693816 100 27
0.91073394 0.018423874 0.083732717 42 26
0.91259682 0.13651444 0.061773345 104 25
0.91876501 0.018560767 0.041226331 19 24
0.9219417 0.13761476 0.020831687 76 23
0.92472804 0.01850548 0 95 22
0.9392873 0.13991512 -0.021237876 34 21
0.93624979 0.01854514 -0.04204154 96 20
0.93490589 0.13924475 -0.063017271 74 19
0.96100986 0.018480072 -0.083156705 12 18
0.96804321 0.14426197 -0.10803726 54 17
0.96827251 0.018271033 -0.12970442 83 16
0.97230452 0.1452366 -0.16531627 17 15
1.0298091 0.017895799 -0.28476366 11 13
0.99854302 0.14938328 -0.22325012 11 14
1.0507104 0.017143089 -0.35140461 12 12
0.88726115 0.014628589 0.19727854 166 30
0.89927405 0.01509203 0.13522071 97 28
0.89147669 0.13042845 0.1057264 104 27
0.91825521 0.015511819 0.084446348 86 26
0.92046821 0.13442875 0.062293906 101 25
0.92881233 0.015496521 0.041692164 54 24
0.92488879 0.13476257 0.020889714 74 23
0.92478698 0.015277466 0 96 22
0.94469082 0.13753237 -0.021353928 31 21
0.93880582 0.015311774 -0.042158 96 20
0.93538618 0.13598049 -0.063017271 73 19
0.96355557 0.015327044 -0.083380245 40 18
0.96116978 0.13979092 -0.10718434 67 17
0.97080374 0.01509287 -0.13004847 78 16
0.9703694 0.14148022 -0.16488688 17 15
1.0226554 0.014216671 -0.28270018 13 13
1.0014433 0.14642967 -0.22380823 12 14
1.0531265 0.013500474 -0.35222185 11 12
0.88730472 0.011686244 0.19727854 161 30
0.89684933 0.012082689 0.13483436 97 28
0.89927131 0.12854488 0.10663522 105 27
0.91332668 0.012251688 0.083970591 94 26
0.91844088 0.13101691 0.062120385 98 25
0.92885858 0.012416383 0.041692164 84 24
0.92285705 0.13133615 0.020831687 72 23
0.92733246 0.012237729 0 96 22
0.95011228 0.13494949 -0.021469982 11 21
0.93885142 0.012198497 -0.042158 96 20
0.93583196 0.13287789 -0.063017271 70 19
0.95862347 0.011913102 -0.082933158 13 18
0.96162802 0.13660277 -0.10718434 72 17
0.96837443 0.011679839 -0.12970442 80 16
0.97327054 0.138615 -0.16531627 18 15
1.013083 0.010744803 -0.27994883 16 13
0.99230188 0.1415327 -0.22157575 13 14
1.0484402 0.0099734692 -0.3505874 11 12
0.88734013 0.0085889008 0.19727854 172 30
0.9018259 0.0089891013 0.13560705 97 28
0.89725763 0.12505585 0.10633228 106 27
