# .PCD v0.7 - Point Cloud Data file format
VERSION 0.7
FIELDS x y z intensity ring
SIZE 4 4 4 4 2
TYPE F F F F U
COUNT 1 1 1 1 1
WIDTH 1230
HEIGHT 1
VIEWPOINT 0 0 0 1 0 0 0
POINTS 1230
DATA ascii
1.1073618 -0.20139289 -0.097910315 52 18
1.1089447 -0.056309681 -0.12310562 10 17
1.1062303 -0.20157768 -0.15137917 96 16
1.0949887 -0.055267133 -0.18506834 31 15
1.1106114 -0.055649959 -0.24669139 36 14
1.0769625 -0.055370755 0.27843195 56 31
1.0717827 -0.056029834 0.2003309 88 29
1.0957848 -0.20221764 0.1688327 46 28
1.0781207 -0.057265416 0.12753814 10 27
1.1038121 -0.20372798 0.10395226 39 26
1.0858028 -0.058029868 0.073225707 9 25
1.1026084 -0.20350957 0.050659474 64 24
1.0855442 -0.058390509 0.02442936 9 23
1.0939034 -0.20208268 0 96 22
1.0905159 -0.059028428 -0.024545414 10 21
1.1049922 -0.20435339 -0.050775934 29 20
1.0857875 -0.058789212 -0.072858326 84 19
1.1090993 -0.20571594 -0.098133847 95 18
1.1062714 -0.059858069 -0.1228213 27 17
1.1103871 -0.20635231 -0.15206726 96 16
1.0947994 -0.058897942 -0.18506834 77 15
1.1128442 -0.059651364 -0.2472495 41 14
1.0767627 -0.059129722 0.27843195 58 31
1.0740316 -0.059901748 0.20080447 96 29
1.0974987 -0.20650297 0.16921906 53 28
1.0704805 -0.06062451 0.12662932 11 27
1.0957599 -0.20618461 0.10323863 45 26
1.0880839 -0.061955851 0.073399231 9 25
1.1043447 -0.20782381 0.050775934 44 24
1.0828274 -0.062231056 0.024371332 9 23
1.0931914 -0.20589988 0 96 22
1.0977895 -0.063249305 -0.024719493 10 21
1.0968765 -0.20699815 -0.050426558 92 20
1.0855756 -0.062578961 -0.072858326 91 19
1.113266 -0.21052104 -0.098580927 95 18
1.1060445 -0.063912354 -0.1228213 72 17
1.1072279 -0.20976132 -0.15172321 96 16
1.0945762 -0.062910184 -0.18506834 86 15
1.1077626 -0.06326858 -0.24613325 66 14
1.0717154 -0.062804505 0.27714291 56 31
1.073805 -0.063837864 0.20080447 98 29
1.0967344 -0.21052411 0.16921906 42 28
1.0801606 -0.065122463 0.12784109 13 27
1.0949968 -0.21019939 0.10323863 50 26
1.0903392 -0.066088766 0.073572747 9 25
1.1109302 -0.21329698 0.051125307 37 24
1.0826036 -0.066010453 0.024371332 9 23
1.0948836 -0.21038182 0 97 22
1.0950555 -0.067125127 -0.024661468 23 21
1.1084043 -0.21320824 -0.05100885 95 20
1.0878289 -0.066704415 -0.073030978 91 19
1.1100429 -0.21412356 -0.098357394 88 18
1.1033354 -0.06762635 -0.122537 86 17
1.1064516 -0.21381812 -0.15172321 96 16
1.0968086 -0.066874936 -0.18549772 87 15
1.1075232 -0.067328304 -0.24613325 77 14
1.0763119 -0.066833287 0.27843195 57 31
1.0686749 -0.067288607 0.19985728 103 29
1.0935698 -0.21387224 0.1688327 40 28
1.0675423 -0.068130724 0.12632638 12 27
1.0942564 -0.21402037 0.10323863 48 26
1.0876126 -0.069740355 0.073399231 9 25
1.1077291 -0.21668935 0.05100885 38 24
1.0873556 -0.070099428 0.024487386 10 23
1.0916899 -0.21371725 0 96 22
1.0998033 -0.071259297 -0.024777522 55 21
1.102754 -0.21610591 -0.050775934 31 20
1.0875894 -0.070501238 -0.073030978 91 19
1.119058 -0.21993671 -0.099251553 26 18
1.1105293 -0.071942568 -0.12338991 87 17
1.1105558 -0.21864522 -0.1524113 96 16
1.0941103 -0.070550174 -0.18506834 86 15
1.1024171 -0.070892096 -0.24501701 86 14
1.0712507 -0.070284896 0.27714291 56 31
1.0635343 -0.070704319 0.19891009 107 29
1.0879737 -0.21671349 0.16806002 39 28
1.0722506 -0.072178736 0.12693226 10 27
1.1057397 -0.22010098 0.10442802 37 26
1.0923399 -0.07386177 0.073746271 9 25
1.1069659 -0.22055472 0.05100885 39 24
1.0821164 -0.073566779 0.024371332 10 23
1.0958388 -0.2185141 0 97 22
1.0970671 -0.074741647 -0.024719493 83 21
1.0946487 -0.21847308 -0.050426558 9 20
1.0848479 -0.074132785 -0.072858326 92 19
1.1183226 -0.22364643 -0.099251553 9 18
1.1077932 -0.075654864 -0.12310562 86 17
1.1073978 -0.22183564 -0.15206726 95 16
1.096315 -0.074530415 -0.18549772 89 15
1.1070393 -0.074865356 -0.24613325 86 14
1.0806524 -0.074478917 0.27972099 57 31
1.0608449 -0.074065484 0.19843651 110 29
1.0848293 -0.21982475 0.16767366 39 28
1.0794327 -0.076241717 0.12784109 27 27
1.1049647 -0.22395942 0.10442802 36 26
1.0846246 -0.076970898 0.073225707 10 25
1.108675 -0.22472522 0.051125307 33 24
1.0843598 -0.077326976 0.02442936 10 23
1.0951082 -0.22214682 0 97 22
1.0992928 -0.078743711 -0.024777522 86 21
1.1037037 -0.22410874 -0.05089239 9 20
1.0920603 -0.078247875 -0.073376283 89 19
1.115096 -0.22704719 -0.099028006 9 18
1.1025805 -0.078984097 -0.122537 87 17
1.1114671 -0.22669899 -0.15275535 95 16
1.0960618 -0.078165509 -0.18549772 86 15
1.1067712 -0.07872919 -0.24613325 90 14
1.0755666 -0.077912815 0.27843195 53 31
1.0703741 -0.078463264 0.2003309 112 29
1.0864733 -0.224114 0.16806002 38 28
1.0692593 -0.079297736 0.12662932 52 27
1.1041763 -0.22781508 0.10442802 37 26
1.0893244 -0.081115708 0.073572747 31 25
1.1127734 -0.22961263 0.051358223 31 24
1.0890546 -0.081663445 0.024545414 29 23
1.1016681 -0.22749928 0 96 22
1.0940259 -0.082217015 -0.024661468 89 21
1.0930969 -0.22610977 -0.050426558 9 20
1.0917805 -0.082059413 -0.073376283 89 19
1.1191711 -0.2319583 -0.099475086 9 18
1.1072379 -0.083386809 -0.12310562 86 17
1.1130925 -0.23108543 -0.15309937 95 16
1.0933115 -0.082003593 -0.18506834 86 15
1.1113509 -0.082943931 -0.2472495 88 14
1.0800917 -0.08220993 0.27972099 56 31
1.0749751 -0.082751401 0.20127808 113 29
1.0977255 -0.23065808 0.16999175 40 28
1.071436 -0.083403163 0.12693226 77 27
1.1057684 -0.23237716 0.1046659 35 26
1.0815592 -0.084541544 0.07305219 60 25
1.1070385 -0.2326529 0.051125307 31 24
1.088763 -0.085464463 0.024545414 65 23
1.0934906 -0.2299775 0 96 22
1.0987011 -0.086608 -0.024777522 86 21
1.0947436 -0.23044321 -0.050543014 8 20
1.0914725 -0.086060427 -0.073376283 88 19
1.123184 -0.23709667 -0.099922165 8 18
1.1069402 -0.087251276 -0.12310562 85 17
1.1073948 -0.23412968 -0.1524113 95 16
1.0979302 -0.086193934 -0.18592712 85 15
1.1037498 -0.086462177 -0.24557514 87 14
1.0822067 -0.086165823 0.28036553 56 31
1.0673379 -0.085929304 0.19985728 119 29
1.0711384 -0.087142669 0.12693226 88 27
1.107383 -0.23676065 0.10490377 34 26
1.0812576 -0.088316381 0.07305219 81 25
1.1111017 -0.23756953 0.051358223 32 24
1.0934409 -0.089661837 0.024661468 78 23
1.0975684 -0.23484887 0 96 22
1.0959008 -0.090243086 -0.024719493 86 21
1.1012553 -0.2358464 -0.05089239 8 20
1.0911653 -0.089869857 -0.073376283 88 19
1.1174825 -0.23996094 -0.099475086 8 18
1.1066289 -0.091114692 -0.12310562 86 17
1.1089907 -0.23851919 -0.15275535 95 16
1.0951675 -0.089830093 -0.18549772 86 15
1.1058704 -0.090507768 -0.24613325 81 14
1.081915 -0.089754075 0.28036553 55 31
1.0694939 -0.089667693 0.2003309 123 29
1.0757899 -0.091101751 0.12753814 91 27
1.1041609 -0.23989843 0.1046659 36 26
1.0859298 -0.092312783 0.073399231 86 25
1.1127472 -0.24178775 0.051474687 30 24
1.0906467 -0.093080349 0.024603439 51 23
1.0943416 -0.23795125 0 95 22
1.0955955 -0.093876727 -0.024719493 86 21
1.0931495 -0.2378895 -0.050543014 8 20
1.0883759 -0.093280397 -0.073203623 88 19
1.1093855 -0.24205871 -0.098804474 9 18
1.1038454 -0.094577365 -0.1228213 83 17
1.1130297 -0.24326225 -0.15344343 90 16
1.0997722 -0.093869179 -0.1863565 81 15
1.1152784 -0.094979942 -0.24836574 47 14
1.0840021 -0.093732655 0.28101003 54 31
1.0716202 -0.093608335 0.20080447 124 29
1.0779378 -0.095068797 0.12784109 91 27
1.1057458 -0.24429281 0.10490377 35 26
1.085601 -0.096102819 0.073399231 41 25
1.1143339 -0.24621399 0.051591143 30 24
1.0927883 -0.097293258 0.024661468 23 23
1.0983845 -0.2428588 0 92 22
1.0977511 -0.09791702 -0.024777522 85 21
1.1020191 -0.24407358 -0.05100885 8 20
1.0905284 -0.097295046 -0.073376283 86 19
1.1182532 -0.24810579 -0.099698633 9 18
1.1059657 -0.098838136 -0.12310562 73 17
1.1049253 -0.24552041 -0.1524113 67 16
1.0945137 -0.097473554 -0.18549772 65 15
1.1076566 -0.098242886 -0.24669139 26 14
1.0812449 -0.09749373 0.28036553 59 31
1.0712699 -0.097535394 0.20080447 120 29
1.0825255 -0.099461921 0.12844697 93 27
1.1072701 -0.24889447 0.10514165 32 26
1.0902094 -0.10052796 0.073746271 15 25
1.1134239 -0.25029656 0.051591143 31 24
1.0874635 -0.10065763 0.024545414 10 23
1.0950489 -0.24632949 0 74 22
1.0948956 -0.10171417 -0.024719493 75 21
1.0987251 -0.24736559 -0.05089239 8 20
1.0926483 -0.10151654 -0.073548928 85 19
1.1124808 -0.2510969 -0.099251553 9 18
1.1080877 -0.10292232 -0.12338991 38 17
1.1185031 -0.25287277 -0.15447555 37 16
1.1039783 -0.10217954 -0.18721531 35 15
1.1121432 -0.10273946 -0.24780764 15 14
1.0808982 -0.10126738 0.28036553 55 31
1.0733671 -0.1014997 0.20127808 117 29
1.074759 -0.10254978 0.12753814 92 27
1.1039695 -0.25219905 0.10490377 33 26
1.094818 -0.1047971 0.074093312 9 25
1.1125433 -0.25418162 0.051591143 31 24
1.0945706 -0.10515338 0.024719493 9 23
1.1014905 -0.2518363 0 37 22
1.0995107 -0.10600413 -0.024835547 35 21
1.1075881 -0.25344643 -0.051358223 9 20
1.0898042 -0.10509614 -0.073376283 84 19
1.118875 -0.25666279 -0.099922165 9 18
1.1126673 -0.10725541 -0.12395855 16 17
1.1176137 -0.25677553 -0.15447555 32 16
1.1036149 -0.10603252 -0.18721531 16 15
1.121483 -0.1075298 -0.25004014 9 14
1.0733238 -0.10435532 0.27843195 52 31
1.0681193 -0.10477784 0.2003309 112 29
1.0818048 -0.10701689 0.12844697 86 27
1.103127 -0.25585854 0.10490377 31 26
1.0969276 -0.10885885 0.074266829 9 25
1.114081 -0.25863299 0.051707603 30 24
1.0966846 -0.10921566 0.024777522 9 23
1.1006047 -0.25567967 0 34 22
1.0966655 -0.10940707 -0.024777522 13 21
1.1115594 -0.25845158 -0.051591143 9 20
1.0894307 -0.10889963 -0.073376283 81 19
1.1180177 -0.26037171 -0.099922165 9 18
1.1122863 -0.11113869 -0.12395855 9 17
1.116756 -0.26048025 -0.15447555 19 16
1.1154943 -0.1110773 -0.18936226 10 15
1.1162692 -0.11077767 -0.24892388 9 14
1.0777797 -0.10838628 0.27972099 56 31
1.0750942 -0.10904557 0.20175166 108 29
1.0765054 -0.1101099 0.12784109 86 27
1.1070696 -0.26085857 0.10537952 29 26
1.0915978 -0.11199781 0.073919788 9 25
1.1107876 -0.26174852 0.051591143 33 24
1.0963163 -0.1128518 0.024777522 9 23
1.1167758 -0.26337764 0 23 22
1.1087102 -0.11449083 -0.025067655 9 21
1.1009785 -0.25982296 -0.051125307 10 20
1.091545 -0.11276244 -0.073548928 55 19
1.1146802 -0.26369488 -0.099698633 69 18
1.1143827 -0.11507626 -0.12424285 9 17
1.1182483 -0.26495242 -0.15481961 15 16
1.1077685 -0.11403557 -0.1880741 10 15
1.1158757 -0.1146735 -0.24892388 9 14
1.0773947 -0.11214776 0.27972099 50 31
1.0698233 -0.11229643 0.20080447 105 29
1.0761145 -0.11386693 0.12784109 87 27
1.1061523 -0.26472139 0.10537952 29 26
1.086239 -0.11529219 0.073572747 9 25
1.1171498 -0.26738214 0.051940519 28 24
1.0958954 -0.11686924 0.024777522 9 23
1.1207098 -0.26844832 0 22 22
1.0983608 -0.11732046 -0.024835547 9 21
1.1048733 -0.26503095 -0.051358223 18 20
1.0886642 -0.11631257 -0.073376283 68 19
1.1113329 -0.26699787 -0.099475086 95 18
1.109013 -0.11864237 -0.12367423 9 17
1.1197231 -0.26943815 -0.15516363 14 16
1.1073432 -0.11809498 -0.1880741 33 15
1.1106209 -0.11806356 -0.24780764 24 14
1.0745744 -0.11584255 0.27907649 48 31
1.0718454 -0.11647635 0.20127808 102 29
1.0781573 -0.11807489 0.12814403 77 27
1.1051747 -0.26877385 0.10537952 29 26
1.0957277 -0.12033967 0.074266829 9 25
1.1113116 -0.27028525 0.051707603 27 24
1.0979657 -0.12096211 0.024835547 9 23
1.1245742 -0.27374595 0 22 22
1.102893 -0.12188348 -0.024951601 9 21
1.1039414 -0.26888606 -0.051358223 81 20
1.0956693 -0.1211074 -0.073894225 82 19
1.107929 -0.27047411 -0.099251553 93 18
1.1160001 -0.12331498 -0.12452716 20 17
1.1211323 -0.27413309 -0.15550768 13 16
1.0946809 -0.12063821 -0.18592712 76 15
1.1150266 -0.12265554 -0.24892388 71 14
1.0741634 -0.1195928 0.27907649 49 31
1.0738723 -0.12048516 0.20175166 102 29
1.0777386 -0.12183764 0.12814403 76 27
1.1066923 -0.27303806 0.1056174 29 26
1.0928223 -0.12388835 0.074093312 9 25
1.1176312 -0.27597266 0.052056976 28 24
1.0950528 -0.12451712 0.024777522 9 23
1.1236118 -0.27766976 0 21 22
1.095031 -0.12470825 -0.024777522 10 21
1.1029961 -0.27273789 -0.051358223 96 20
1.0902827 -0.12437698 -0.073548928 85 19
1.1118577 -0.27535307 -0.099698633 95 18
1.1056892 -0.12610579 -0.12338991 63 17
1.1178148 -0.27724868 -0.15516363 15 16
1.1040438 -0.12554991 -0.18764469 81 15
1.1097696 -0.12581421 -0.24780764 81 14
1.0761613 -0.12342386 0.27972099 51 31
1.0759062 -0.12432178 0.20222527 100 29
1.0773287 -0.12541087 0.12814403 70 27
1.1081454 -0.27750868 0.10585528 28 26
1.0924054 -0.12751161 0.074093312 8 25
1.1167098 -0.2796773 0.052056976 25 24
1.0847019 -0.12700738 0.024545414 9 23
1.1178372 -0.28016943 0 22 22
1.0995549 -0.1291018 -0.024893576 37 21
1.0996646 -0.2757819 -0.05124177 95 20
1.0972973 -0.1288479 -0.074066877 85 19
1.1157171 -0.28045586 -0.10014571 91 18
1.1126673 -0.13062425 -0.12424285 81 17
1.1168401 -0.28114885 -0.15516363 11 16
1.1011748 -0.12892945 -0.18721531 83 15
1.1069027 -0.12940972 -0.2472495 81 14
1.0757239 -0.12717962 0.27972099 51 31
1.0779037 -0.12836133 0.20269886 99 29
1.0719552 -0.12859078 0.12753814 58 27
1.1023484 -0.28013989 0.10537952 27 26
1.0919538 -0.13132402 0.074093312 8 25
1.1157267 -0.28357369 0.052056976 24 24
1.0916749 -0.13186473 0.024719493 9 23
1.1168524 -0.28406969 0 23 22
1.0990976 -0.13293917 -0.024893576 73 21
1.1010653 -0.28043157 -0.051358223 94 20
1.0918875 -0.13208938 -0.07372158 89 19
1.1171428 -0.28496876 -0.10036924 88 18
1.1121811 -0.13470151 -0.12424285 84 17
1.1158519 -0.28504565 -0.15516363 11 16
1.1006949 -0.13296458 -0.18721531 86 15
1.1088642 -0.13355874 -0.24780764 80 14
1.0848444 -0.13226888 0.28229907 59 31
1.077426 -0.13231118 0.20269886 99 29
1.0764036 -0.1331168 0.12814403 68 27
1.1037227 -0.28480479 0.1056174 28 26
1.091465 -0.13532536 0.074093312 9 25
1.1195138 -0.28891844 0.052289892 25 24
1.0862461 -0.13506886 0.024603439 10 23
1.1182232 -0.28879103 0 23 22
1.1010838 -0.13727041 -0.024951601 82 21
1.1024963 -0.28490275 -0.051474687 93 20
1.091396 -0.13609046 -0.07372158 88 19
1.1136817 -0.28843251 -0.10014571 90 18
1.1092389 -0.13828109 -0.12395855 84 17
1.112404 -0.28850728 -0.15481961 11 16
1.1026686 -0.13710433 -0.18764469 85 15
1.1083672 -0.13762204 -0.24780764 78 14
1.0793937 -0.13637342 0.20317246 98 29
1.0783949 -0.13718092 0.12844697 80 27
1.1027218 -0.28865576 0.1056174 25 26
1.0909861 -0.13913445 0.074093312 9 25
1.1233276 -0.29409865 0.052522808 23 24
1.0907277 -0.1394828 0.024719493 22 23
1.1196254 -0.29333079 0 22 22
1.100598 -0.14111306 -0.024951601 83 21
1.1087383 -0.29066321 -0.051824059 88 20
1.0958632 -0.14052275 -0.074066877 86 19
1.112668 -0.2923182 -0.10014571 87 18
1.1161422 -0.14308351 -0.12481146 83 17
1.1113901 -0.29238853 -0.15481961 12 16
1.0948523 -0.14003162 -0.1863565 88 15
1.1102979 -0.14179343 -0.24836574 78 14
1.076476 -0.13982974 0.20269886 97 29
1.0754482 -0.14062822 0.12814403 72 27
1.0880202 -0.14262325 0.073919788 15 25
1.1174694 -0.296727 0.052289892 24 24
1.0976704 -0.1442498 0.024893576 58 23
1.1210097 -0.29788387 0 20 22
1.1001239 -0.14476201 -0.024951601 78 21
1.1101292 -0.295178 -0.051940519 74 20
1.095366 -0.14434716 -0.074066877 86 19
1.1189072 -0.29794219 -0.10081632 88 18
1.1107095 -0.14634064 -0.12424285 83 17
1.1065698 -0.14543 -0.18850347 84 15
1.1146556 -0.14609721 -0.24948199 61 14
1.0784404 -0.14371739 0.20317246 96 29
1.0749758 -0.14419375 0.12814403 61 27
1.0900137 -0.14655729 0.074093312 39 25
1.1212996 -0.30173799 0.052522808 24 24
1.0897273 -0.14709406 0.024719493 82 23
1.1176028 -0.30094495 0 19 22
1.1045669 -0.14925975 -0.025067655 80 21
1.1115019 -0.29970601 -0.052056976 37 20
1.0899367 -0.14732163 -0.07372158 88 19
1.1154578 -0.30119243 -0.10059278 88 18
1.112654 -0.15054448 -0.12452716 82 17
1.1011724 -0.14864375 -0.18764469 85 15
1.1238021 -0.15126623 -0.2517145 36 14
1.073041 -0.14701387 0.20222527 95 29
1.0818174 -0.14913282 0.12905285 50 27
1.0944117 -0.15122317 0.074440353 75 25
1.1177785 -0.30518344 0.052406352 25 24
1.0916837 -0.15123448 0.024777522 83 23
1.1237234 -0.30702958 0 19 22
1.1040124 -0.15330721 -0.025067655 80 21
1.117672 -0.30557361 -0.052406352 30 20
1.0968025 -0.15232828 -0.074239522 85 19
1.1191468 -0.30660373 -0.10103986 60 18
1.1121217 -0.15442745 -0.12452716 80 17
1.1030873 -0.15281919 -0.1880741 81 15
1.1256549 -0.1557128 -0.25227264 25 14
1.0773844 -0.15143082 0.20317246 86 29
1.08129 -0.15290816 0.12905285 46 27
1.086467 -0.15400892 0.073919788 88 25
1.1215174 -0.31042483 0.052639272 23 24
1.0936244 -0.15539037 0.024835547 67 23
1.1154208 -0.30893457 0 21 22
1.0985477 -0.15627432 -0.024951601 80 21
1.1262196 -0.31215945 -0.052872188 20 20
1.0962641 -0.15615591 -0.074239522 86 19
1.1157259 -0.30964285 -0.10081632 36 18
1.111576 -0.15830855 -0.12452716 79 17
1.102547 -0.15666877 -0.1880741 78 15
1.1203052 -0.1587715 -0.25115639 16 14
1.0793067 -0.1553469 0.20364605 83 29
1.083234 -0.1568431 0.12935579 50 27
1.0884193 -0.15796363 0.074093312 87 25
1.1324984 -0.31753573 0.053221561 20 24
1.0955772 -0.15937041 0.024893576 31 23
1.1216075 -0.31467134 0 20 22
1.1054174 -0.16117357 -0.025125684 80 21
1.1347904 -0.31861058 -0.053338021 16 20
1.0932716 -0.159436 -0.074066877 86 19
1.1290123 -0.31760842 -0.10215756 33 18
1.115962 -0.16269973 -0.12509578 48 17
1.1044594 -0.1606732 -0.18850347 45 15
1.1269811 -0.16371626 -0.25283074 13 14
1.0787579 -0.15911342 0.20364605 78 29
1.0851353 -0.160982 0.12965873 51 27
1.0952641 -0.16284588 0.074613869 85 25
1.1265811 -0.32011274 0.052988645 20 24
1.092513 -0.16302145 0.024835547 10 23
1.1205022 -0.31858456 0 19 22
1.104848 -0.16503121 -0.025125684 74 21
1.1264133 -0.32070258 -0.052988645 16 20
1.0951759 -0.16361427 -0.074239522 83 19
1.13029 -0.32223463 -0.1023811 23 18
1.1104436 -0.16606487 -0.12452716 24 17
1.1136098 -0.16615249 -0.19022106 23 15
1.1239917 -0.16729569 -0.25227264 14 14
1.0830234 -0.16378933 0.20459324 73 29
1.0771755 -0.16385517 0.12874991 50 27
1.0921936 -0.1664888 0.074440353 81 25
1.1277988 -0.32493564 0.053105105 20 24
1.1018231 -0.16832209 0.025067655 8 23
1.1169262 -0.32199219 0 17 22
1.099293 -0.1683338 -0.02500963 36 21
1.1300834 -0.32602599 -0.053221561 15 20
1.0995011 -0.16837135 -0.074584827 83 19
1.143446 -0.33055082 -0.10372234 12 18
1.1172252 -0.1710517 -0.12538008 9 17
1.1057168 -0.16893896 -0.18893288 10 15
1.1185515 -0.17068963 -0.25115639 13 14
1.0800184 -0.16719878 0.20411965 68 29
1.0864086 -0.1691191 0.12996167 42 27
1.0965359 -0.17105818 0.074787393 72 25
1.1242615 -0.3281661 0.052988645 17 24
1.1036991 -0.17254779 0.025125684 8 23
1.1205922 -0.32729989 0 17 22
1.113519 -0.17445903 -0.025357792 10 21
1.1361256 -0.332084 -0.053570937 16 20
1.093977 -0.17144692 -0.074239522 62 19
1.1398969 -0.33383593 -0.1034988 11 18
1.1141666 -0.17457137 -0.12509578 8 17
1.1124228 -0.17392285 -0.19022106 9 15
1.1299914 -0.17644659 -0.25394699 15 14
1.0867043 -0.17210321 0.20554042 60 29
1.088263 -0.17329511 0.13026461 43 27
1.0934683 -0.17449716 0.074613869 69 25
1.1183224 -0.33066332 0.052755725 18 24
1.10309 -0.17639938 0.025125684 8 23
1.1122552 -0.32906809 0 21 22
1.1079968 -0.17737125 -0.025241738 9 21
1.1253866 -0.33319402 -0.053105105 15 20
1.0958354 -0.17565387 -0.074412182 46 19
1.1363976 -0.3369019 -0.10327526 12 18
1.1160036 -0.17884718 -0.12538008 8 17
1.1069432 -0.17703772 -0.18936226 12 15
1.1269929 -0.17981412 -0.25338888 14 14
1.0861275 -0.17570589 0.20554042 58 29
1.0827819 -0.17611715 0.12965873 45 27
1.0904213 -0.17772658 0.074440353 47 25
1.1172197 -0.33436999 0.052755725 17 24
1.1000314 -0.17965892 0.025067655 8 23
1.1183385 -0.3349199 0 20 22
1.1098384 -0.18163612 -0.025299765 9 21
1.129057 -0.33836684 -0.053338021 14 20
1.0952469 -0.17928682 -0.074412182 72 19
1.1399815 -0.34230766 -0.10372234 11 18
1.1154046 -0.18254697 -0.12538008 8 17
1.1087816 -0.18109915 -0.18979166 56 15
1.1335763 -0.18490826 -0.25506324 13 14
1.0879304 -0.17989114 0.20601404 50 29
1.0895073 -0.18110009 0.13056755 39 27
1.0922552 -0.18193609 0.074613869 37 25
1.1160457 -0.33826777 0.052755725 13 24
1.1067959 -0.18471579 0.025241738 8 23
1.1219447 -0.34028178 0 17 22
1.1042656 -0.18469523 -0.025183709 9 21
1.1278691 -0.34230596 -0.053338021 14 20
1.1019967 -0.18432701 -0.074930124 80 19
1.131637 -0.34409836 -0.10305172 10 18
1.1147605 -0.18643937 -0.12538008 34 17
1.1057125 -0.18456827 -0.18936226 76 15
1.1305193 -0.18846855 -0.25450513 11 14
1.0848424 -0.1834735 0.20554042 49 29
1.093731 -0.18591298 0.13117343 38 27
1.0940406 -0.18635154 0.074787393 35 25
1.1085763 -0.1891863 0.025299765 8 23
1.1254665 -0.34586933 0 14 22
1.1060456 -0.18915726 -0.025241738 35 21
1.1361493 -0.34939137 -0.053803854 13 20
1.0963951 -0.18753466 -0.074584827 81 19
1.1327465 -0.34898126 -0.10327526 10 18
1.1116205 -0.19011056 -0.12509578 71 17
1.1050287 -0.18861969 -0.18936226 78 15
1.1322241 -0.19301513 -0.25506324 10 14
1.0866153 -0.18767154 0.20601404 44 29
1.0955212 -0.19014865 0.13147637 36 27
1.1007575 -0.19143507 0.07530795 35 25
1.1029828 -0.19220738 0.025183709 8 23
1.1314096 -0.3520374 0 13 22
1.1054122 -0.19282402 -0.025241738 67 21
1.13254 -0.35260838 -0.053687397 13 20
1.0981916 -0.19178432 -0.074757479 81 19
1.1315829 -0.35273567 -0.10327526 10 18
1.1158456 -0.19483352 -0.1256644 78 17
1.1043636 -0.1924758 -0.18936226 76 15
1.1435866 -0.19883001 -0.2578539 13 14
1.090824 -0.19211456 0.20696121 39 29
1.0948846 -0.19378047 0.13147637 36 27
1.1001166 -0.19508426 0.07530795 33 25
1.1072628 -0.19672771 0.025299765 8 23
1.1373857 -0.35805267 0 13 22
1.1071942 -0.19711418 -0.025299765 78 21
1.1313643 -0.35636207 -0.053687397 17 20
1.100006 -0.19585676 -0.074930124 79 19
1.1327178 -0.35743722 -0.1034988 13 18
1.1151934 -0.1985327 -0.1256644 81 17
1.106145 -0.1965625 -0.18979166 74 15
1.0973977 -0.19720744 0.20838203 39 29
1.0990878 -0.19847241 0.13208227 33 27
1.101884 -0.19936185 0.075481474 31 25
1.0966936 -0.19902116 0.025067655 24 23
1.1313677 -0.3604939 0 14 22
1.1064994 -0.20097782 -0.025299765 78 21
1.1205395 -0.35745263 -0.053221561 23 20
1.0993155 -0.19969532 -0.074930124 78 19
1.1169028 -0.20305774 -0.1259487 80 17
1.1054171 -0.20061539 -0.18979166 71 15
1.1007944 -0.202944 0.13238519 33 27
1.106053 -0.20429438 0.075828515 31 25
1.098451 -0.20329762 0.025125684 58 23
1.1324166 -0.36541024 0 11 22
1.1082135 -0.20548229 -0.025357792 77 21
1.1264102 -0.36367702 -0.053570937 13 20
1.0985763 -0.20372318 -0.074930124 79 19
1.1137441 -0.2065077 -0.1256644 80 17
1.1047101 -0.20447281 -0.18979166 58 15
1.104959 -0.2076914 0.13299108 32 27
1.107785 -0.20861021 0.076002039 30 25
1.0952775 -0.20667261 0.025067655 77 23
1.1240089 -0.36701959 0 17 22
1.1050328 -0.20889054 -0.025299765 77 21
1.1251339 -0.36760673 -0.053570937 12 20
1.0978584 -0.20755668 -0.074930124 79 19
1.115458 -0.21085018 -0.1259487 80 17
1.1039896 -0.20832773 -0.18979166 34 15
1.0993508 -0.21062398 0.13238519 32 27
1.1045997 -0.21201105 0.075828515 30 25
1.097005 -0.21096122 0.025125684 78 23
1.1250933 -0.37172961 0 12 22
1.1092447 -0.21348789 -0.025415819 76 21
1.1285831 -0.37310842 -0.053803854 13 20
1.0995773 -0.21185416 -0.075102776 77 19
1.1171552 -0.21520714 -0.12623301 77 17
1.1105143 -0.21355948 -0.19107984 29 15
1.0962095 -0.21379873 0.13208227 32 27
1.1014419 -0.21520001 0.075654998 31 25
1.1011693 -0.21573955 0.025241738 74 23
1.1214848 -0.37466192 0 14 22
1.1035855 -0.21640737 -0.025299765 78 21
1.1272738 -0.37704566 -0.053803854 15 20
1.1013173 -0.21597394 -0.075275436 78 19
1.1115206 -0.21815927 -0.1256644 77 17
1.109762 -0.2174346 -0.19107984 15 15
1.1075934 -0.22020812 0.13359696 31 27
1.1006458 -0.21923555 0.075654998 31 25
1.0979574 -0.21909828 0.025183709 67 23
1.1177373 -0.37796462 0 10 22
1.1076885 -0.22141995 -0.025415819 76 21
1.128315 -0.38178307 -0.053920317 13 20
1.0980716 -0.21952543 -0.075102776 80 19
1.1180621 -0.22348262 -0.12651731 49 17
1.1210778 -0.22369049 -0.19322681 10 15
1.1043848 -0.22358592 0.13329403 30 27
1.1072096 -0.22454734 0.076175556 28 25
1.097186 -0.22292954 0.025183709 43 23
1.1116831 -0.38023692 0 10 22
1.1044587 -0.22479199 -0.025357792 77 21
1.1269753 -0.38571933 -0.053920317 13 20
1.0997436 -0.22384921 -0.075275436 76 19
1.1099705 -0.22591379 -0.1256644 25 17
1.1202902 -0.22760242 -0.19322681 10 15
1.0987345 -0.22644837 0.13268815 29 27
1.1113061 -0.22940871 0.076522596 27 25
1.0988497 -0.22725894 0.025241738 33 23
1.1127102 -0.38493687 0 10 22
1.1110529 -0.2299571 -0.025531873 62 21
1.1232636 -0.38882956 -0.053803854 14 20
1.1062853 -0.22918858 -0.075793378 76 19
1.1189079 -0.23178126 -0.12680162 9 17
1.1243147 -0.23249868 -0.1940856 10 15
1.1076972 -0.23210528 0.13389991 28 27
1.1080974 -0.23258565 0.07634908 26 25
1.105431 -0.23242851 0.025415819 27 23
1.1232194 -0.39277253 0 23 22
1.1126901 -0.23434381 -0.0255899 27 21
1.1266793 -0.39421043 -0.05403677 16 20
1.100636 -0.23183839 -0.075448081 52 19
1.1132702 -0.2344771 -0.12623301 8 17
1.1211261 -0.2357242 -0.19365619 10 15
1.102024 -0.23494619 0.13329403 26 27
1.1097189 -0.23696776 0.076522596 26 25
1.1119069 -0.23803233 0.0255899 21 23
1.1289079 -0.39920434 0 30 22
1.1143104 -0.23874477 -0.025647927 9 21
1.1275797 -0.39917508 -0.054153234 15 20
1.0973804 -0.23516166 -0.075275436 34 19
1.1196922 -0.24010254 -0.12708594 8 17
1.1226641 -0.24034214 -0.1940856 10 15
1.1011554 -0.23898374 0.13329403 25 27
1.1088428 -0.24103349 0.076522596 26 25
1.1110692 -0.24191216 0.0255899 20 23
1.1344942 -0.4058786 0 24 22
1.1183139 -0.24388194 -0.025763981 8 21
1.1238296 -0.40226266 -0.05403677 22 20
1.1013868 -0.2402346 -0.075620733 53 19
1.1164194 -0.24348551 -0.12680162 8 17
1.1266334 -0.24529704 -0.19494438 10 15
1.1027389 -0.2433555 0.13359696 27 27
1.1104311 -0.2454356 0.07669612 25 25
1.1199836 -0.24792899 0.025822006 19 23
1.1260223 -0.40727234 0 24 22
1.1126165 -0.24651824 -0.025647927 13 21
1.1106851 -0.40191248 -0.053454477 54 20
1.1029775 -0.24461237 -0.075793378 73 19
1.1228408 -0.24897859 -0.12765455 32 17
1.1305819 -0.25028259 -0.19580317 10 15
1.0995033 -0.24647346 0.13329403 26 27
1.1047419 -0.24803443 0.07634908 24 25
1.1215949 -0.25218472 0.025880035 19 23
1.122319 -0.41014168 0 18 22
1.1190673 -0.25203228 -0.025822006 40 21
1.1140341 -0.40731728 -0.053687397 39 20
1.1021603 -0.24826865 -0.075793378 77 19
1.112312 -0.25053847 -0.12651731 67 17
1.1153216 -0.25081941 -0.19322681 11 15
1.0986362 -0.25030994 0.13329403 23 27
1.1111674 -0.25353786 0.076869637 23 25
1.1182255 -0.25574186 0.025822006 19 23
1.1108683 -0.2542797 -0.025647927 69 21
1.1101929 -0.41052717 -0.053570937 37 20
1.1037192 -0.25266567 -0.07596603 74 19
1.1089641 -0.2540642 -0.12623301 77 17
1.126405 -0.25762543 -0.19537376 13 15
1.0952926 -0.25378007 0.13299108 23 27
1.1078001 -0.25705034 0.07669612 23 25
1.1270685 -0.26188573 0.026054114 21 23
1.1099288 -0.25834954 -0.025647927 75 21
1.1134284 -0.41615728 -0.053803854 30 20
1.1003555 -0.25614911 -0.075793378 79 19
1.1153313 -0.25960732 -0.12708594 73 17
1.0919832 -0.25703856 0.13268815 23 27
1.106896 -0.26091573 0.07669612 21 25
1.1164128 -0.26354223 0.025822006 20 23
1.1065867 -0.26165244 -0.0255899 73 21
1.1236416 -0.42447534 -0.05438615 19 20
1.1018831 -0.2605572 -0.07596603 77 19
1.1144184 -0.26349893 -0.12708594 71 17
1.1007388 -0.26313564 0.13389991 25 27
1.1084052 -0.26535332 0.076869637 21 25
1.1227812 -0.26917022 0.025996089 18 23
1.1105763 -0.26647645 -0.025705952 66 21
1.1033931 -0.264979 -0.076138675 76 19
1.1159083 -0.26796219 -0.12737025 69 17
1.1075191 -0.26902747 0.076869637 20 25
1.1170229 -0.27172086 0.025880035 18 23
1.1072098 -0.26976505 -0.025647927 43 21
1.1000841 -0.26805139 -0.07596603 77 19
1.1174278 -0.27224395 -0.12765455 61 17
1.1065733 -0.27289182 0.076869637 19 25
1.1257784 -0.27799457 0.026112143 17 23
1.1159713 -0.27600789 -0.025880035 30 21
1.1015639 -0.27248338 -0.076138675 76 19
1.1212956 -0.27732524 -0.12822317 36 17
1.1104554 -0.27795359 0.077216677 19 25
1.1247519 -0.28211889 0.026112143 17 23
1.1198518 -0.28110844 -0.025996089 24 21
1.1030264 -0.27692902 -0.076311335 75 19
1.1275023 -0.28323328 -0.12907609 29 17
1.1118475 -0.28263101 0.077390201 19 25
1.1189135 -0.28482047 0.025996089 18 23
1.1236604 -0.28643554 -0.026112143 17 21
1.0995859 -0.28035894 -0.076138675 73 19
1.1240987 -0.28655881 -0.12879178 25 17
1.1156868 -0.28774574 0.077737242 18 25
1.1227549 -0.2899642 0.026112143 16 23
1.1372311 -0.29388186 -0.026460305 14 21
1.1058482 -0.28605369 -0.076656632 70 19
1.1351212 -0.29356512 -0.13021334 14 17
1.109898 -0.29019248 0.077390201 18 25
1.119368 -0.29305789 0.026054114 16 23
1.1361984 -0.29784977 -0.026460305 15 21
1.1048934 -0.28971925 -0.076656632 64 19
1.1317375 -0.29670286 -0.12992902 10 17
1.1137023 -0.29533327 0.077737242 18 25
1.1231201 -0.29843208 0.026170168 17 23
1.1351519 -0.30181402 -0.026460305 12 21
1.1038755 -0.29357427 -0.076656632 65 19
1.140249 -0.3033835 -0.13106626 10 17
1.1150218 -0.30005613 0.077910759 16 25
1.1244862 -0.30299589 0.026228197 16 23
1.1436954 -0.30855665 -0.026692413 13 21
1.1052012 -0.29826286 -0.076829277 69 19
1.1415824 -0.30800384 -0.13135056 9 17
1.1115605 -0.30329511 0.077737242 17 25
1.1234217 -0.30691925 0.026228197 17 23
1.1450782 -0.3130016 -0.02675044 13 21
1.1065606 -0.30277199 -0.077001929 68 19
1.1476917 -0.31393796 -0.13220349 9 17
1.1081432 -0.30632013 0.077563718 15 25
1.1248078 -0.31130457 0.026286222 16 23
1.1415687 -0.31633431 -0.026692413 12 21
1.11036 -0.30776194 -0.077347234 65 19
1.1370645 -0.31510884 -0.13106626 9 17
1.111873 -0.31152192 0.077910759 13 25
1.1236594 -0.3154251 0.026286222 15 23
1.1452729 -0.32165894 -0.026808467 13 21
1.1068764 -0.31096649 -0.077174574 59 19
1.140687 -0.32060847 -0.13163488 9 17
1.1273621 -0.32070312 0.026402276 14 23
1.141681 -0.32517472 -0.02675044 13 21
1.1081294 -0.31569955 -0.077347234 38 19
1.1347806 -0.32323736 -0.13106626 9 17
1.1334448 -0.32669812 0.026576359 13 23
1.1381361 -0.32846987 -0.026692413 11 21
1.1118158 -0.32093894 -0.077692531 28 19
1.1312574 -0.32651269 -0.13078195 9 17
1.1274964 -0.32926139 0.026460305 11 23
1.1394411 -0.33293831 -0.02675044 10 21
1.1154794 -0.32620791 -0.078037828 25 19
1.1287965 -0.33370203 0.02651833 11 23
1.1454661 -0.3390269 -0.026924521 10 21
1.1167845 -0.3306081 -0.078210473 25 19
1.1348121 -0.33977604 0.026692413 10 23
1.1394845 -0.34159774 -0.026808467 11 21
1.1156235 -0.3345044 -0.078210473 26 19
1.1311661 -0.34321237 0.026634384 10 23
1.1406178 -0.34649339 -0.026866494 10 21
1.1191657 -0.34003112 -0.078555778 24 19
1.1347424 -0.3486169 0.02675044 10 23
1.146634 -0.35246235 -0.027040575 10 21
1.1203574 -0.34466407 -0.07872843 16 19
1.1264155 -0.35016698 0.026576359 10 23
1.1430088 -0.3557249 -0.026982548 10 21
1.1287397 -0.35132241 -0.079419032 10 19
1.1204152 -0.35260612 0.026460305 10 23
1.1441454 -0.3604587 -0.027040575 10 21
1.1251261 -0.3545157 -0.079246379 10 19
1.1191152 -0.35671031 0.026460305 9 23
1.1428802 -0.36445031 -0.027040575 10 21
1.1310148 -0.36069962 -0.079764329 9 19
1.1202434 -0.36137688 0.02651833 9 23
1.1391569 -0.36787358 -0.026982548 10 21
1.1225604 -0.3625578 -0.079246379 10 19
1.1426854 -0.37319127 -0.027098602 10 21
1.1260326 -0.36801383 -0.079591684 11 19
1.1390011 -0.37639832 -0.027040575 10 21
1.1176971 -0.36941269 -0.079073727 18 19
1.1353084 -0.37958425 -0.026982548 10 21
1.1140337 -0.3725259 -0.078901075 28 19
1.1386476 -0.38533551 -0.027098602 10 21
1.1126609 -0.37660652 -0.078901075 30 19
1.1420964 -0.39071769 -0.027214656 11 21
1.1089784 -0.37968525 -0.07872843 27 19
1.1336347 -0.39226457 -0.027040575 12 21
1.102996 -0.38173917 -0.078383133 28 19
1.1298978 -0.39539862 -0.026982548 10 21
1.1110797 -0.38886291 -0.079073727 21 19
1.128511 -0.3993403 -0.026982548 9 21
1.1247549 -0.40243989 -0.026924521 9 21
1.1256955 -0.40720901 -0.026982548 9 21
1.0875269 0.27766064 0 31 22
1.0715101 0.26962614 0 76 22
1.0603061 0.26290047 0 116 22
1.0587424 0.25879422 0 112 22
1.0770917 0.26304105 -0.050077178 4 20
1.0523442 0.25335628 0 101 22
1.097483 0.2637215 -0.05100885 8 20
1.063001 0.25178275 0 96 22
1.083809 0.25646737 -0.050310094 31 20
1.0590018 0.24694505 0 97 22
1.0700979 0.24931203 -0.049611345 44 20
1.0598148 0.24343191 0 97 22
1.0660485 0.24465467 -0.049378429 49 20
1.0606581 0.23973098 0 97 22
1.0620638 0.23965625 -0.049145512 51 20
1.0542048 0.23423007 0 98 22
1.0702109 0.23755626 -0.049494889 78 20
1.0574596 0.23107754 0 100 22
1.0539476 0.23012491 -0.048679676 102 20
1.0509239 0.22582427 0 102 22
1.0571871 0.22696376 -0.04879614 106 20
1.054114 0.22285013 0 101 22
1.0554895 0.22294565 -0.048679676 108 20
1.059783 0.22017634 0 105 22
1.0587459 0.21957774 -0.04879614 108 20
1.0765654 0.21971175 0.049611345 5 24
1.0556816 0.21530142 0 103 22
1.0570579 0.21538708 -0.048679676 110 20
1.0846744 0.21741022 0.049960721 35 24
1.058879 0.2121011 0 104 22
1.0578033 0.21169595 -0.048679676 113 20
1.0657802 0.20998982 0.049029056 98 24
1.0546688 0.20763279 0 107 22
1.056048 0.20771004 -0.048563223 116 20
1.0640538 0.20579903 0.048912596 102 24
1.0602982 0.20488869 0 105 22
1.0568023 0.20383804 -0.048563223 121 20
1.06971 0.20281819 0.049145512 100 24
1.0610421 0.20100112 0 107 22
1.0624168 0.20106663 -0.04879614 125 20
1.0839908 0.2045227 -0.095898457 9 18
1.0728676 0.19953462 0.049261972 97 24
1.064196 0.1977479 0 110 22
1.0581995 0.19645526 -0.048563223 106 20
1.0700023 0.19804837 -0.094557218 99 18
1.0735576 0.1957884 0.049261972 98 24
1.0599591 0.19314566 0 106 22
1.0687101 0.19452919 -0.049029056 134 20
1.0706531 0.19449903 -0.094557218 110 18
1.0717418 0.19179234 0.049145512 98 24
1.0655174 0.19049962 0 114 22
1.0693494 0.19098414 -0.049029056 146 20
1.0713255 0.19076058 -0.094557218 106 18
1.0650229 0.18677105 0.04879614 104 24
1.0686392 0.18720548 0 118 22
1.0651205 0.18621337 -0.04879614 164 20
1.0719849 0.18701978 -0.094557218 107 18
1.0632381 0.18244897 0.048679676 106 24
1.0693182 0.18328747 0 119 22
1.0682262 0.18291073 -0.048912596 173 20
1.0751184 0.18350346 -0.094780758 105 18
1.0687956 0.17955391 0.048912596 108 24
1.0699515 0.17955373 0 120 22
1.0688581 0.17918083 -0.048912596 164 20
1.0732957 0.17934409 -0.094557218 104 18
1.0619904 0.174807 0.048563223 111 24
1.0656056 0.17520353 0 122 22
1.0694466 0.17563537 -0.048912596 156 20
1.0738845 0.17578393 -0.094557218 103 18
1.0625941 0.17109889 0.048563223 110 24
1.0662106 0.17148282 0 124 22
1.0700831 0.17171447 -0.048912596 144 20
1.0744916 0.17203431 -0.094557218 103 18
1.0681496 0.16796897 0.04879614 110 24
1.0717731 0.1683396 0 125 22
1.0731438 0.16836019 -0.049029056 139 20
1.075115 0.16809493 -0.094557218 102 18
1.0662603 0.16386509 0.048679676 111 24
1.0674105 0.16384883 0 131 22
1.0687867 0.16386634 -0.04879614 134 20
1.0732329 0.16397001 -0.094333678 102 18
1.0632286 0.15980557 0.099432595 21 26
1.061885 0.15941082 0.04844676 113 24
1.067976 0.16012189 0 119 22
1.0718226 0.16049938 -0.048912596 129 20
1.0713074 0.16004725 -0.094110139 98 18
1.0876745 0.16207644 -0.14793873 7 16
1.061317 0.15573698 0.099194728 99 26
1.0624077 0.15588859 0.04844676 104 24
1.0660268 0.15622203 0 109 22
1.0698774 0.1565876 -0.04879614 129 20
1.0693948 0.15595242 -0.093886599 100 18
1.0906848 0.15863025 -0.14828277 6 16
1.0593899 0.15168372 0.098956846 109 26
1.070364 0.15322572 0.04879614 103 24
1.0616145 0.15180238 0 100 22
1.067971 0.15231769 -0.048679676 126 20
1.0723985 0.15256429 -0.094110139 102 18
1.0814226 0.15345046 -0.1469066 22 16
1.0624043 0.14813843 0.099194728 110 26
1.0733924 0.14964138 0.048912596 99 24
1.0671175 0.14858976 0 96 22
1.066022 0.14824992 -0.048563223 122 20
1.0704834 0.14829609 -0.093886599 100 18
1.0770705 0.14881797 -0.14621851 75 16
1.060423 0.14428413 0.098956846 111 26
1.0788587 0.14655593 0.049145512 95 24
1.0651516 0.14453286 0 97 22
1.0640576 0.14419763 -0.04844676 122 20
1.0734376 0.14507388 -0.094110139 100 18
1.0824674 0.14589702 -0.1469066 92 16
1.063388 0.1409035 0.099194728 111 26
1.0694335 0.14168575 0.048679676 95 24
1.065625 0.14099988 0 98 22
1.0771073 0.28668174 -0.025067655 7 21
1.06453 0.14066829 -0.04844676 121 20
1.071468 0.14100614 -0.093886599 100 18
1.0780585 0.14148319 -0.14621851 82 16
1.0663421 0.13750394 0.099432595 114 26
1.0773538 0.13889474 0.049029056 95 24
1.0661106 0.1372793 0 98 22
1.0829337 0.2841996 -0.025183709 19 21
1.0625609 0.13645266 -0.048330303 120 20
1.0719538 0.13726516 -0.093886599 102 18
1.0760888 0.13741055 -0.14587446 79 16
1.0618989 0.13298637 0.098956846 120 26
1.075377 0.13463989 0.048912596 96 24
1.0641254 0.13306579 0 98 22
1.0767128 0.27833602 -0.02500963 31 21
1.0655093 0.13304713 -0.04844676 118 20
1.0749213 0.1336375 -0.094110139 103 18
1.0790433 0.13376519 -0.14621851 87 16
1.0648278 0.12957436 0.099194728 122 26
1.0832794 0.13177498 0.049261972 50 24
1.0670657 0.12964693 0 98 22
1.0704161 0.27270868 -0.024835547 34 21
1.0634876 0.12903133 -0.048330303 119 20
1.0753812 0.12988451 -0.094110139 102 18
1.0795037 0.12999782 -0.14621851 78 16
1.0652516 0.12604256 0.099194728 124 26
1.0713296 0.12655334 0.048679676 25 24
1.0785352 0.27118891 0.02500963 4 23
1.0650284 0.12563361 0 95 22
1.0713145 0.26915759 -0.024835547 34 21
1.0639315 0.12531827 -0.048330303 116 20
1.0733324 0.12603237 -0.093886599 103 18
1.0873088 0.12726602 -0.14725064 86 16
1.0632122 0.12204467 0.098956846 128 26
1.0717434 0.12299999 0.048679676 24 24
1.0721548 0.26579061 0.024835547 13 23
1.0728921 0.12293977 0 36 22
1.0722475 0.26541635 -0.024835547 46 21
1.0643412 0.12178946 -0.048330303 114 20
1.0762404 0.12256167 -0.094110139 101 18
1.0803635 0.12264692 -0.14621851 77 16
1.0685796 0.11887275 0.099432595 119 26
1.0746487 0.11952916 0.04879614 22 24
1.0609879 0.25886986 0.024545414 32 23
1.0683441 0.1186522 0 95 22
1.0731674 0.26167187 -0.024835547 85 21
1.0622977 0.11761793 -0.048213843 110 20
1.0741861 0.11853608 -0.093886599 99 18
1.0807849 0.118875 -0.14621851 72 16
1.069008 0.1149554 0.099432595 120 26
1.0750797 0.11558957 0.04879614 20 24
1.0691717 0.25693288 0.024719493 29 23
1.0687718 0.11473572 0 98 22
1.0716903 0.25714824 -0.024777522 92 21
1.0627019 0.11390911 -0.048213843 99 20
1.0746133 0.11459821 -0.093886599 99 18
1.0886019 0.11568297 -0.14725064 70 16
1.0669076 0.11115703 0.099194728 121 26
1.0779608 0.11208937 0.048912596 58 24
1.0773546 0.25494197 0.024893576 24 23
1.0666788 0.11075125 0 98 22
1.0725372 0.25359294 -0.024777522 92 21
1.0705465 0.11095598 -0.048563223 98 20
1.0725101 0.11078327 -0.093663067 101 18
1.0791248 0.11107834 -0.14587446 73 16
1.0672892 0.10743215 0.099194728 120 26
1.0783267 0.1085141 0.048912596 96 24
1.068463 0.24907658 0.024661468 20 23
1.0670401 0.10721341 0 98 22
1.0709827 0.24927555 -0.024719493 92 21
1.0758792 0.10789358 -0.04879614 96 20
1.0753685 0.10728094 -0.093886599 101 18
1.0844351 0.10779064 -0.14656255 68 16
1.0651802 0.10347047 0.098956846 114 26
1.0786989 0.10474938 0.048912596 97 24
1.0718035 0.24572268 0.024719493 31 23
1.067408 0.10348809 0 98 22
1.0718464 0.24553561 -0.024719493 86 21
1.0737813 0.10371453 -0.048679676 96 20
1.0806944 0.10399348 -0.094333678 100 18
1.0798739 0.10354199 -0.14587446 77 16
1.0581173 0.098886438 0.098243214 106 26
1.0790756 0.10079505 0.048912596 97 24
1.0653442 0.24031363 0.024545414 60 23
1.06778 0.099575147 0 98 22
1.0751761 0.24216002 -0.024777522 94 21
1.0766237 0.10019204 -0.04879614 97 20
1.0736288 0.099358715 -0.093663067 100 18
1.090111 0.10047244 -0.14725064 54 16
1.0584561 0.095192321 0.098243214 106 26
1.0769331 0.096809246 0.04879614 96 24
1.0686152 0.23714033 0.024603439 86 23
1.0656306 0.095628962 0 98 22
1.073576 0.23785941 -0.024719493 94 21
1.0744792 0.096215665 -0.048679676 97 20
1.0764496 0.095826156 -0.093886599 98 18
1.0855212 0.096239299 -0.14656255 76 16
1.0757008 0.092935927 0.16342388 25 28
1.0662054 0.092310451 0.098956846 99 26
1.0797529 0.093259282 0.048912596 97 24
1.0572335 0.23071675 0.024313306 90 23
1.0684493 0.092118271 0 98 22
1.0621551 0.23160815 -0.02442936 95 21
1.0748084 0.09246444 -0.048679676 97 20
1.0742803 0.092048511 -0.093663067 100 18
1.0833668 0.092433587 -0.14621851 76 16
1.0612315 0.088172004 0.16110581 97 28
1.0590795 0.087985486 0.098243214 97 26
1.0725889 0.089073434 0.048563223 96 24
1.0579927 0.22720958 0.024313306 90 23
1.0687488 0.088574663 0 98 22
1.0678424 0.22895804 -0.024545414 97 21
1.0751091 0.088899739 -0.048679676 97 20
1.0770769 0.088496841 -0.093886599 99 18
1.0836829 0.088651367 -0.14621851 77 16
1.0492198 0.083513141 0.15917408 107 28
1.0643426 0.084672526 0.098718971 96 26
1.0803627 0.085907526 0.048912596 96 24
1.0612626 0.22385164 0.024371332 95 23
1.0690514 0.084843487 0 98 22
1.0661906 0.22470826 -0.024487386 97 21
1.0729378 0.084767081 -0.048563223 96 20
1.0713239 0.22579592 -0.073376283 49 19
1.0748967 0.084546439 -0.093663067 100 18
1.0815165 0.084679812 -0.14587446 75 16
1.0519822 0.079848766 0.15956043 106 28
1.0646458 0.080770947 0.098718971 97 26
1.0806704 0.08194723 0.048912596 96 24
1.0620376 0.22014578 0.024371332 96 23
1.0718485 0.081108183 0 98 22
1.0694535 0.22131091 -0.024545414 98 21
1.0707365 0.080838412 -0.04844676 70 20
1.0623796 0.21982431 -0.072685681 103 19
1.0826495 0.081149362 -0.094333678 98 18
1.0867591 0.081073679 -0.14656255 70 16
1.0522544 0.076176174 0.15956043 107 28
1.0649078 0.077240005 0.098718971 95 26
1.0784587 0.077999428 0.04879614 96 24
1.0627995 0.21643722 0.024371332 97 23
1.0671372 0.077016585 0 98 22
1.0701814 0.21776326 -0.024545414 100 21
1.0759947 0.077448756 -0.048679676 24 20
1.0753551 0.21862632 -0.073548928 113 19
1.0829126 0.077558711 -0.094333678 98 18
1.0870221 0.077469416 -0.14656255 71 16
1.0574301 0.073016323 0.16033313 107 28
1.07262 0.074021012 0.099432595 33 26
1.0762197 0.074255884 0.048679676 96 24
1.061062 0.21241555 0.024313306 99 23
1.0673869 0.07347741 0 97 22
1.0684853 0.21353102 -0.024487386 101 21
1.0687703 0.073382385 -0.048330303 21 20
1.0736296 0.21456489 -0.073376283 120 19
1.0856614 0.073942333 -0.094557218 94 18
1.0872858 0.07367453 -0.14656255 72 16
1.0527487 0.069011994 0.15956043 108 28
1.0703882 0.070118852 0.099194728 17 26
1.0789647 0.070656836 0.04879614 96 24
1.0593818 0.20803793 0.024255278 100 23
1.0701318 0.069908932 0 97 22
1.0692241 0.2098 -0.024487386 103 21
1.0715244 0.069621459 -0.04844676 21 20
1.0719256 0.21033019 -0.073203623 124 19
1.0784575 0.069685772 -0.093886599 95 18
1.0850649 0.069724992 -0.14621851 70 16
1.05546 0.065300353 0.15994677 108 28
1.0706381 0.066195212 0.099194728 16 26
1.0767236 0.066552781 0.048679676 44 24
1.0650078 0.20529595 0.024371332 100 23
1.0703809 0.065986231 0 53 22
1.0748923 0.20683517 -0.024603439 104 21
1.0767467 0.066176929 -0.048679676 23 20
1.0800335 0.20783019 -0.07372158 129 19
1.0787057 0.065732554 -0.093886599 95 18
1.0828412 0.065602861 -0.14587446 70 16
1.0507494 0.061338238 0.15917408 107 28
1.0634085 0.062038224 0.098481089 17 26
1.0819359 0.063074447 0.048912596 27 24
1.0608084 0.20063704 0.024255278 100 23
1.0805889 0.06280946 0 25 22
1.0706979 0.20214349 -0.024487386 105 21
1.0769711 0.062417977 -0.048679676 23 20
1.0709536 0.20218615 -0.073030978 130 19
1.0789284 0.061966777 -0.093886599 96 18
1.0880084 0.062094774 -0.14656255 68 16
1.0558901 0.057930328 0.15994677 110 28
1.0710639 0.058906134 0.099194728 19 26
1.0771619 0.059034273 0.048679676 25 24
1.0639588 0.1973944 0.024313306 101 23
1.0708154 0.058512017 0 31 22
1.0713624 0.19859181 -0.024487386 106 21
1.0796763 0.058788966 -0.04879614 23 20
1.0741041 0.19890621 -0.073203623 129 19
1.0816147 0.058518026 -0.094110139 97 18
1.0882084 0.058486462 -0.14656255 68 16
1.0536096 0.054306604 0.15956043 111 28
1.0662918 0.054921325 0.098718971 20 26
1.0848345 0.055831842 0.049029056 26 24
1.0597254 0.19277351 0.024197252 101 23
1.0735005 0.055083733 0 95 22
1.0646751 0.19349347 -0.024313306 108 21
1.079875 0.055019837 -0.04879614 25 20
1.0698521 0.19444025 -0.072858326 126 19
1.0818124 0.054742131 -0.094110139 97 18
1.0859327 0.054568321 -0.14621851 68 16
1.051334 0.050331656 0.15917408 108 28
1.068972 0.051126562 0.098956846 24 26
1.0654911 0.19037211 0.072878659 53 25
1.0750531 0.051398732 0.048563223 88 24
1.0628513 0.18951748 0.024255278 99 23
1.0687003 0.050921105 0 97 22
1.0653771 0.18958993 -0.024313306 110 21
1.0825552 0.051363312 -0.048912596 24 20
1.077921 0.19184528 -0.073376283 123 19
1.0844932 0.050888371 -0.094333678 97 18
1.0861254 0.050587811 -0.14621851 64 16
1.0515034 0.046661511 0.15917408 107 28
1.0716304 0.047499921 0.099194728 23 26
1.0612378 0.18578039 0.072531618 96 25
1.077721 0.047751226 0.048679676 96 24
1.0585843 0.18493487 0.024139225 96 23
1.0713694 0.047295462 0 98 22
1.0660324 0.18586995 -0.024313306 115 21
1.0752426 0.047270454 -0.048563223 49 20
1.0785842 0.18808147 -0.073376283 121 19
1.0846641 0.04710247 -0.094333678 97 18
1.0887694 0.046897747 -0.14656255 63 16
1.0590641 0.04327783 0.16033313 107 28
1.0693029 0.043662541 0.098956846 23 26
1.0594229 0.18164781 0.072358102 99 25
1.0778812 0.043988988 0.048679676 96 24
1.0715362 0.18337423 0.02442936 75 23
1.0715281 0.043555394 0 98 22
1.0691373 0.1825739 -0.024371332 118 21
1.0729055 0.043421 -0.04844676 96 20
1.0743191 0.18346463 -0.073030978 116 19
1.0823338 0.043221723 -0.094110139 96 18
1.0914011 0.043189853 -0.1469066 67 16
1.059202 0.039765608 0.16033313 107 28
1.0694418 0.040116366 0.098956846 79 26
1.0575607 0.17771469 0.072184578 100 25
1.0805168 0.040502828 0.04879614 96 24
1.0696744 0.17940091 0.024371332 66 23
1.0716666 0.040001839 0 97 22
1.0672729 0.17860943 -0.024313306 121 21
1.0730436 0.039862879 -0.04844676 96 20
1.0749216 0.17990106 -0.073030978 115 19
1.0849596 0.039718363 -0.094333678 96 18
1.0828913 0.18124714 -0.12168407 43 17
1.0890634 0.039485704 -0.14656255 68 16
1.0543969 0.035910305 0.15956043 106 28
1.0670879 0.036303602 0.098718971 97 26
1.0606347 0.1744324 0.072358102 100 25
1.0806516 0.036730871 0.04879614 96 24
1.0703248 0.17547916 0.024371332 66 23
1.0742984 0.036340177 0 98 22
1.0728209 0.17570184 -0.02442936 127 21
1.0731825 0.03592971 -0.04844676 97 20
1.075543 0.17614779 -0.073030978 112 19
1.0850916 0.035930905 -0.094333678 78 18
1.0908992 0.17849649 -0.122537 81 17
1.0842445 0.035531815 -0.14587446 77 16
1.0619284 0.032254994 0.16071945 106 28
1.0672138 0.032392286 0.098718971 97 26
1.0588052 0.17014246 0.072184578 101 25
1.0807791 0.032769836 0.04879614 97 24
1.065997 0.1709393 0.024255278 69 23
1.0719254 0.032332197 0 98 22
1.0759248 0.17216903 -0.024487386 136 21
1.0757977 0.032253116 -0.048563223 97 20
1.0737196 0.1718049 -0.072858326 109 19
1.0877051 0.032021828 -0.094557218 20 18
1.0866122 0.17389153 -0.12196838 93 17
1.0818923 0.031490646 -0.14553043 89 16
1.0620345 0.028547974 0.16071945 100 28
1.0648324 0.028605143 0.098481089 97 26
1.0593928 0.16644549 0.072184578 103 25
1.0783902 0.028935129 0.048679676 96 24
1.0641189 0.16682456 0.024197252 77 23
1.0645339 0.02840573 0 98 22
1.076519 0.16841231 -0.024487386 144 21
1.0734072 0.02843667 -0.04844676 96 20
1.0743127 0.16805589 -0.072858326 107 19
1.0902995 0.028284363 -0.094780758 12 18
1.0847595 0.16970807 -0.12168407 96 17
1.0894221 0.027888959 -0.14656255 74 16
1.0571889 0.02473543 0.15994677 98 28
1.0674096 0.025127297 0.098718971 97 26
1.0624317 0.16313066 0.072358102 104 25
1.0834782 0.025277011 0.048912596 97 24
1.0671644 0.16349314 0.024255278 80 23
1.072125 0.024848018 0 97 22
1.0795414 0.16522518 -0.024545414 155 21
1.0710032 0.02463731 -0.048330303 96 20
1.0748928 0.16430482 -0.072858326 107 19
1.0978558 0.024822477 -0.095451377 10 18
1.0853454 0.16592053 -0.12168407 94 17
1.0895087 0.024276152 -0.14656255 75 16
1.0622041 0.021318329 0.16071945 95 28
1.0650024 0.02135645 0.098481089 97 26
1.0580359 0.15885471 0.072011061 105 25
1.0810592 0.021639038 0.04879614 96 24
1.0677006 0.1599534 0.024255278 80 23
1.0747011 0.021337088 0 98 22
1.0825826 0.16183089 -0.024603439 175 21
1.0785697 0.021217655 -0.048679676 34 20
1.0778977 0.16111369 -0.073030978 107 19
1.095446 0.020947507 -0.09522783 10 18
1.083434 0.16194779 -0.12139977 96 17
1.0871109 0.020431425 -0.14621851 82 16
1.064742 0.017646195 0.16110581 93 28
1.067559 0.01767482 0.098718971 97 26
1.0635175 0.15589519 0.072358102 109 25
1.0811281 0.017865306 0.04879614 97 24
1.0707521 0.15640587 0.024313306 79 23
1.074769 0.017585551 0 97 22
1.0856133 0.15841739 -0.024661468 188 21
1.0711492 0.017159756 -0.048330303 16 20
1.0710522 0.15625325 -0.072513029 107 19
1.1029818 0.017225249 -0.095898457 10 18
1.0913913 0.1590668 -0.12225268 89 17
