# .PCD v0.7 - Point Cloud Data file format
VERSION 0.7
FIELDS x y z intensity ring
SIZE 4 4 4 4 2
TYPE F F F F U
COUNT 1 1 1 1 1
WIDTH 1278
HEIGHT 1
VIEWPOINT 0 0 0 1 0 0 0
POINTS 1278
DATA ascii
0.44166946 -0.94973767 0 59 22
0.76990277 -1.2163312 -0.032611165 31 21
0.44418615 -0.95561743 -0.047515094 59 20
0.76562661 -1.2096123 -0.096684039 29 19
0.44557366 -0.959925 -0.091874748 55 18
0.7678709 -1.2131559 -0.16035004 29 17
0.44391033 -0.9571861 -0.14174594 58 16
0.75930047 -1.1987772 -0.24131881 29 15
0.43110818 -0.93275273 -0.28407586 44 13
0.76213098 -1.2027994 -0.31813142 31 14
0.43198684 -0.93717998 -0.34486684 54 12
nan nan nan 0 11
nan nan nan 0 9
nan nan nan 0 10
0.29338738 -0.64293754 -0.40606505 3 8
0.38097095 -0.59401137 -0.45400053 9 7
0.26071939 -0.57525152 -0.45438719 12 6
0.31164017 -0.48304754 -0.45713273 9 5
0.20914663 -0.46531224 -0.4543381 8 4
nan nan nan 0 3
0.10078733 -0.22316766 -0.24805054 5 2
nan nan nan 0 1
nan nan nan 0 0
0.78257865 -1.2383027 0.38155493 27 31
0.43953291 -0.9542039 0.2350433 44 30
0.76768339 -1.2171211 0.27089661 27 29
0.44272894 -0.96033901 0.15994677 60 28
0.74700665 -1.1867063 0.16692047 22 27
0.43971997 -0.95380521 0.097053826 60 26
0.76489073 -1.2159343 0.097518593 28 25
0.44430411 -0.96381855 0.047864471 57 24
0.76207668 -1.2124026 0.032437082 29 23
0.43731007 -0.94900101 0 57 22
0.75898761 -1.2084402 -0.032321028 31 21
0.43876779 -0.95262128 -0.047282174 60 20
0.75341892 -1.1996189 -0.09564814 30 19
0.44222018 -0.96147454 -0.091874748 53 18
0.7556836 -1.2032225 -0.15864418 30 17
0.4364495 -0.9497211 -0.14036977 58 16
0.74985451 -1.1930887 -0.23960124 30 15
0.42187387 -0.92112708 -0.27994883 46 13
0.75012338 -1.1930883 -0.31478265 31 14
0.42480573 -0.93007702 -0.34159797 57 12
nan nan nan 0 11
nan nan nan 0 9
0.45723611 -0.72398907 -0.38582134 27 10
0.292016 -0.64591032 -0.40735826 3 8
0.37889513 -0.59533757 -0.45400053 9 7
0.25709504 -0.5725227 -0.45135793 13 6
0.30891517 -0.48253071 -0.45551741 9 5
0.21115296 -0.47431299 -0.46297571 8 4
nan nan nan 0 3
0.093582198 -0.208698 -0.22896972 5 2
nan nan nan 0 1
nan nan nan 0 0
0.77288896 -1.2329849 0.37897682 27 31
0.43502641 -0.95359033 0.23447964 44 30
0.75668967 -1.209533 0.26852864 27 29
0.43307936 -0.94846123 0.1576287 59 28
0.73738015 -1.1810255 0.16570871 41 27
0.4331345 -0.94861221 0.096340194 62 26
0.75248605 -1.2060479 0.096477471 28 25
0.43767121 -0.95861876 0.047515094 56 24
0.74834651 -1.2003572 0.032030895 29 23
0.42969626 -0.94149137 0 59 22
0.74660224 -1.1984993 -0.031972867 32 21
0.42908347 -0.94057769 -0.046583425 63 20
0.74108273 -1.1896846 -0.094612241 30 19
0.43458346 -0.95401627 -0.090980582 56 18
0.74073297 -1.1891367 -0.15636972 31 17
0.42990273 -0.94454646 -0.13933763 59 16
0.73633057 -1.181215 -0.23659548 32 15
0.41849491 -0.92266715 -0.27994883 48 13
0.73927963 -1.1855021 -0.31199202 31 14
0.41461185 -0.9165439 -0.33587745 58 12
nan nan nan 0 11
nan nan nan 0 9
nan nan nan 0 10
nan nan nan 0 8
0.37559846 -0.59497601 -0.45259929 9 7
0.2549949 -0.57346117 -0.45135793 13 6
0.30611342 -0.4820542 -0.4539021 9 5
0.20797251 -0.47176901 -0.45952067 9 4
nan nan nan 0 3
0.099824935 -0.22536749 -0.24995862 4 2
nan nan nan 0 1
nan nan nan 0 0
0.75834596 -1.2192842 0.37382066 28 31
0.42670307 -0.94399524 0.23166139 46 30
0.74467343 -1.199667 0.26568705 28 29
0.42976597 -0.94996721 0.1576287 55 28
0.7214576 -1.1646271 0.16298224 33 27
0.42777875 -0.94557929 0.095864438 62 26
0.74037302 -1.1959578 0.09543635 29 25
0.43124887 -0.95330834 0.047165714 60 24
0.73887789 -1.1944693 0.031798787 30 23
0.42538202 -0.94070542 0 60 22
0.73714304 -1.1926033 -0.031740759 31 21
0.42579764 -0.94206977 -0.046583425 61 20
0.73166561 -1.1837876 -0.093921639 30 19
0.42615315 -0.94416898 -0.089862891 57 18
0.73264885 -1.1853838 -0.15551679 31 17
0.42660302 -0.94604135 -0.13933763 58 16
0.72700584 -1.1754092 -0.23487791 32 15
0.41037026 -0.91314977 -0.27650967 52 13
0.72613531 -1.1735855 -0.30808517 32 14
0.40756452 -0.90935248 -0.33260855 60 12
nan nan nan 0 11
0.24991409 -0.56017464 -0.307201 3 9
0.47605267 -0.76560515 -0.40707871 13 10
nan nan nan 0 8
0.37462536 -0.59803361 -0.45400053 9 7
0.2506085 -0.56887752 -0.44681406 13 6
0.30545434 -0.4847289 -0.45551741 9 5
0.20560996 -0.47083223 -0.45779315 9 4
nan nan nan 0 3
0.1003015 -0.22868772 -0.25377479 4 2
nan nan nan 0 1
nan nan nan 0 0
0.74645239 -1.2096038 0.36995357 27 31
0.41845196 -0.93435353 0.22884311 46 30
0.73144442 -1.1876442 0.2623719 28 29
0.42443651 -0.94694948 0.15685602 57 28
0.71087152 -1.1565793 0.16146754 13 27
0.42464072 -0.94699258 0.095864438 59 26
0.73357576 -1.1942893 0.095089309 29 25
0.4258855 -0.9502458 0.046932798 59 24
0.72683728 -1.1842742 0.031450626 30 23
0.42006126 -0.93761712 0 59 22
0.72400916 -1.1801449 -0.031334572 32 21
0.4194594 -0.93670613 -0.046234049 63 20
0.7170682 -1.1693439 -0.092540428 31 19
0.42099586 -0.94102693 -0.089415811 55 18
0.72069335 -1.1752436 -0.15381095 31 17
0.41944119 -0.93839949 -0.13796146 58 16
0.71643871 -1.1674559 -0.23273095 32 15
0.40523508 -0.91018081 -0.275134 49 13
0.71456516 -1.1635416 -0.30473641 33 14
0.40248016 -0.90644646 -0.3309741 60 12
nan nan nan 0 11
0.24628508 -0.55695462 -0.30485597 3 9
0.50322086 -0.81532001 -0.43365043 8 10
0.25704867 -0.58419877 -0.36468264 3 8
0.37363541 -0.60109174 -0.45540178 9 7
0.25187391 -0.57700962 -0.45287254 13 6
0.30180493 -0.4825142 -0.45228681 10 5
0.20830148 -0.48148489 -0.4681583 9 4
nan nan nan 0 3
0.10142358 -0.23348504 -0.25949904 5 2
nan nan nan 0 1
nan nan nan 0 0
0.73484522 -1.1997271 0.36608645 29 31
0.41338468 -0.93127936 0.22771581 46 30
0.71979761 -1.1775107 0.25953034 29 29
0.41730228 -0.93931413 0.15531063 56 28
0.70443976 -1.154698 0.16086164 24 27
0.41831607 -0.94163966 0.095150813 61 26
0.72179949 -1.1839526 0.094048187 29 25
0.41768724 -0.94023097 0.046350509 63 24
0.71508187 -1.1738849 0.031102462 30 23
0.41392073 -0.93214381 0 63 22
0.71336877 -1.1720018 -0.031044437 32 21
0.41534266 -0.93580717 -0.046117589 61 20
0.70798445 -1.163203 -0.091849834 31 19
0.41469643 -0.935655 -0.088745192 60 18
0.71031624 -1.1670302 -0.15238939 31 17
0.41516533 -0.93759167 -0.13761742 55 16
0.70356828 -1.155118 -0.2297252 32 15
0.39931864 -0.90491617 -0.27307048 50 13
0.70414013 -1.1556354 -0.30194578 33 14
0.39757878 -0.90344673 -0.32933965 61 12
nan nan nan 0 11
0.24346147 -0.555785 -0.30368343 3 9
0.4933902 -0.80542672 -0.42727324 9 10
0.25924441 -0.59491551 -0.37114862 3 8
0.37273416 -0.60408515 -0.45680299 9 7
0.25064015 -0.57971412 -0.45438719 13 6
0.30316237 -0.48841283 -0.45713273 10 5
0.20521313 -0.47887966 -0.46470326 9 4
nan nan nan 0 3
0.11055671 -0.25769106 -0.29002833 5 2
nan nan nan 0 1
nan nan nan 0 0
0.72310406 -1.1899129 0.36221936 29 31
0.41013139 -0.93271667 0.22771581 48 30
0.70929921 -1.169533 0.25716233 29 29
0.4110508 -0.93397647 0.1541516 53 28
0.69138283 -1.1423055 0.15874106 53 27
0.40904143 -0.92941415 0.09372355 63 26
0.71118951 -1.1758065 0.093180574 29 25
0.41139972 -0.93481952 0.046001129 60 24
0.70299733 -1.1636764 0.0307543 31 23
0.40765941 -0.92671132 0 63 22
0.70409006 -1.1659362 -0.030812329 32 21
0.40791082 -0.92816949 -0.045651756 62 20
0.69616133 -1.1528715 -0.090813935 31 19
0.41043174 -0.93481469 -0.088521652 58 18
0.69959712 -1.1590054 -0.15096785 30 17
0.40793088 -0.92995584 -0.13624124 58 16
0.69549793 -1.1513716 -0.22843701 31 15
0.39408478 -0.90196431 -0.27169481 55 13
0.69757277 -1.1539199 -0.30082953 33 14
0.39238739 -0.90056151 -0.32770523 60 12
nan nan nan 0 11
0.23803644 -0.54851556 -0.29899335 3 9
0.49869689 -0.8207438 -0.43471327 9 10
0.25706223 -0.59586161 -0.37114862 4 8
0.3672547 -0.60016209 -0.45259929 9 7
0.24541283 -0.57330227 -0.44832867 12 6
0.30036163 -0.487901 -0.45551741 10 5
0.20345658 -0.47962859 -0.46470326 9 4
nan nan nan 0 3
0.10842335 -0.2550894 -0.28621218 5 2
nan nan nan 0 1
nan nan nan 0 0
0.71248513 -1.1822225 0.35899675 30 31
0.40380812 -0.92750764 0.22602484 48 30
0.69993174 -1.16372 0.25526795 30 29
0.40369791 -0.92641079 0.15260622 55 28
0.68078601 -1.1342052 0.15722635 61 27
0.40464303 -0.92862344 0.093485668 61 26
0.69658136 -1.1613139 0.091792412 30 25
0.40400031 -0.92715496 0.045535296 63 24
0.69248736 -1.155416 0.030464167 31 23
0.40227354 -0.92361075 0 63 22
0.69079584 -1.1535157 -0.030406138 32 21
0.40268487 -0.92500401 -0.045418836 63 20
0.68421948 -1.1425912 -0.089778036 32 19
0.40502736 -0.9317413 -0.088074572 58 18
0.69042718 -1.1529262 -0.14983062 31 17
0.40353826 -0.92917132 -0.1358972 55 16
0.68258512 -1.1390212 -0.22543128 32 15
0.38903481 -0.89891845 -0.27031913 55 13
0.68705416 -1.1460302 -0.2980389 34 14
0.385517 -0.89324003 -0.32443637 62 12
nan nan nan 0 11
0.24206847 -0.56360942 -0.307201 3 9
nan nan nan 0 10
0.26164657 -0.61252034 -0.38149425 5 8
0.36732042 -0.60497141 -0.45540178 9 7
0.24494779 -0.57782412 -0.45135793 12 6
0.30066258 -0.49219292 -0.45874804 10 5
0.20039856 -0.47699645 -0.46124819 9 4
nan nan nan 0 3
0.11359879 -0.27043754 -0.30529296 5 2
nan nan nan 0 1
nan nan nan 0 0
0.70089406 -1.172277 0.35512963 30 31
0.39577058 -0.91771817 0.22320658 50 30
0.6920802 -1.1598392 0.25384715 30 29
0.39656642 -0.91873479 0.15106083 54 28
0.67172825 -1.1280556 0.15601459 29 27
0.39861667 -0.92309952 0.092772037 62 26
0.68484783 -1.1508932 0.09075129 30 25
0.39977688 -0.92626446 0.045418836 61 24
0.67948103 -1.1428046 0.030057976 32 23
0.39412084 -0.91352105 0 65 22
0.68056256 -1.1450695 -0.030116005 33 21
0.39551836 -0.91722256 -0.044953004 62 20
0.67639363 -1.1385472 -0.089260086 32 19
0.39997515 -0.92850131 -0.087627493 59 18
0.68130839 -1.1467972 -0.1486934 30 17
0.39948091 -0.92822772 -0.13555315 55 16
0.67229217 -1.1308237 -0.2232843 32 15
0.38589466 -0.90027094 -0.27031913 55 13
0.67575008 -1.135751 -0.29469013 34 14
0.38147309 -0.89240557 -0.32361913 62 12
nan nan nan 0 11
0.24276824 -0.57051408 -0.31071857 3 9
nan nan nan 0 10
0.26126733 -0.61733145 -0.38408065 6 8
0.36628175 -0.60801911 -0.45680299 9 7
0.24226755 -0.57679635 -0.44984332 12 6
0.30102381 -0.49644038 -0.46197864 10 5
0.19744426 -0.47431445 -0.45779315 12 4
nan nan nan 0 3
0.11694442 -0.28129363 -0.31864956 5 2
nan nan nan 0 1
nan nan nan 0 0
0.68958384 -1.1621445 0.35126254 30 31
0.3917731 -0.91678375 0.22264293 51 30
0.67944717 -1.147359 0.250532 30 29
0.39061877 -0.91322541 0.14990181 52 28
0.66165084 -1.1196067 0.15449989 24 27
0.39247125 -0.9176144 0.092058413 62 26
0.67593896 -1.1445774 0.090057209 31 25
0.39474916 -0.92298853 0.04518592 61 24
0.67059112 -1.136451 0.02982587 32 23
0.39108932 -0.914823 0 64 22
0.67146778 -1.1388355 -0.029883897 32 21
0.39052227 -0.91393197 -0.044720087 62 20
0.66499019 -1.1279075 -0.08822418 32 19
0.39381531 -0.92301476 -0.086956874 57 18
0.66611248 -1.129815 -0.14613461 31 17
0.3875449 -0.90909624 -0.13245676 58 16
0.66100532 -1.1203343 -0.22070795 33 15
0.37823468 -0.8904736 -0.26687998 58 13
0.66681075 -1.1297179 -0.29245764 34 14
0.37393001 -0.88277704 -0.31953302 63 12
nan nan nan 0 11
0.24842156 -0.58969998 -0.3212713 3 9
nan nan nan 0 10
0.26075047 -0.62219214 -0.38666704 6 8
0.36426347 -0.60923052 -0.45680299 9 7
0.24100901 -0.57947803 -0.45135793 12 6
0.29432979 -0.48933795 -0.4539021 10 5
0.19850692 -0.48169819 -0.46470326 12 4
0.090138167 -0.15253508 -0.15101285 5 3
0.11656274 -0.28319952 -0.32055762 4 2
nan nan nan 0 1
nan nan nan 0 0
0.68306458 -1.1603858 0.3499735 30 31
0.3829051 -0.90467477 0.21926101 53 30
0.67044866 -1.1412668 0.24863763 30 29
0.38551193 -0.91003048 0.14912911 49 28
0.65018392 -1.109079 0.15268224 16 27
0.38733461 -0.91439146 0.091582656 60 26
0.66688085 -1.1383318 0.089363128 30 25
0.38668019 -0.91285264 0.044603627 64 24
0.66135639 -1.1302819 0.029593762 32 23
0.38595441 -0.91157395 0 62 22
0.6598931 -1.1282421 -0.029535733 33 21
0.38523445 -0.91075283 -0.044487171 63 20
0.65599614 -1.1216201 -0.087533578 32 19
0.39155507 -0.92667955 -0.087180413 52 18
0.65693653 -1.1236815 -0.14499737 30 17
0.38436919 -0.91044343 -0.13245676 53 16
0.65315133 -1.1163793 -0.21941976 32 15
0.37496838 -0.89185393 -0.26687998 57 13
0.65792179 -1.1236364 -0.29022515 34 14
0.36796698 -0.87759846 -0.31708136 64 12
nan nan nan 0 11
0.2497315 -0.59872723 -0.32596138 5 9
nan nan nan 0 10
0.26009339 -0.62710214 -0.38925347 8 8
0.35565054 -0.59990114 -0.44839555 8 7
0.23663478 -0.57483065 -0.44681406 13 6
0.29647776 -0.49694806 -0.46036333 11 5
0.19337137 -0.47403836 -0.45606562 12 4
0.089578502 -0.15286443 -0.15101285 5 3
nan nan nan 0 2
nan nan nan 0 1
nan nan nan 0 0
0.67392057 -1.1545464 0.34739542 30 31
0.38145873 -0.91056925 0.22038831 52 30
0.6613028 -1.1352416 0.24674325 30 29
0.37837398 -0.90231752 0.14758374 51 28
0.63985819 -1.1007395 0.15116753 24 27
0.38206622 -0.91121048 0.091106899 57 26
0.65265 -1.1235349 0.087974958 31 25
0.38237134 -0.91195869 0.044487171 60 24
0.64985454 -1.1196282 0.0292456 31 23
0.38068846 -0.90836668 0 61 22
0.64946365 -1.1198549 -0.0292456 33 21
0.38013357 -0.90748101 -0.044254255 63 20
0.64434904 -1.1110864 -0.086497679 32 19
0.38242191 -0.91431278 -0.085839175 58 18
0.64675939 -1.1152364 -0.14357583 31 17
0.38008007 -0.90955925 -0.13211273 53 16
0.64180833 -1.1058861 -0.21684341 33 15
0.36634123 -0.87983119 -0.26275295 59 13
0.65011621 -1.119725 -0.28855079 34 14
0.36400062 -0.87669331 -0.31626415 60 12
0.45026648 -0.77317655 -0.34774777 4 11
0.25087526 -0.60781455 -0.33065146 5 9
nan nan nan 0 10
0.25951406 -0.63197029 -0.39183986 15 8
0.35355431 -0.60113895 -0.44839555 8 7
0.23834249 -0.58487761 -0.45438719 13 6
0.29474133 -0.49797991 -0.46036333 11 5
0.19438702 -0.4814271 -0.46297571 11 4
0.088156946 -0.15170915 -0.14919342 5 3
0.12810731 -0.31860998 -0.36444351 4 2
nan nan nan 0 1
nan nan nan 0 0
0.66017193 -1.1401873 0.34223929 30 31
0.37456536 -0.90288794 0.2181337 52 30
0.6511752 -1.1269276 0.24437526 30 29
0.3723959 -0.89678293 0.1464247 47 28
0.63103682 -1.0943768 0.14995576 59 27
0.3741374 -0.9010359 0.089917518 61 26
0.6449765 -1.1193308 0.087454401 31 25
0.37537587 -0.90405375 0.044021338 61 24
0.63968647 -1.1110718 0.028955463 32 23
0.37465608 -0.90275639 0 60 22
0.63804823 -1.109131 -0.028897438 33 21
0.37506029 -0.90418476 -0.044021338 64 20
0.63422793 -1.1025314 -0.085634433 32 19
0.37733272 -0.91103685 -0.085392095 57 18
0.63664937 -1.1067345 -0.14215429 32 17
0.37313634 -0.90171963 -0.13073654 52 16
0.63177961 -1.0974596 -0.21469645 34 15
0.36326781 -0.88110465 -0.26275295 58 13
0.6388818 -1.1093313 -0.285202 34 14
0.35915199 -0.87358379 -0.3146297 65 12
0.4382439 -0.75871581 -0.34024918 4 11
0.24875207 -0.60868663 -0.33065146 5 9
nan nan nan 0 10
0.25810519 -0.63485718 -0.39313304 15 8
0.35460532 -0.60772169 -0.45259929 9 7
0.23556274 -0.58385849 -0.45287254 13 6
0.29202679 -0.49736524 -0.45874804 11 5
0.19204332 -0.48042122 -0.46124819 12 4
0.096449718 -0.1667171 -0.16738772 5 3
0.13050391 -0.3280893 -0.37589198 4 2
nan nan nan 0 1
nan nan nan 0 0
0.65377384 -1.1383002 0.34095025 30 31
0.36865056 -0.8974247 0.21644275 52 30
0.63866407 -1.1143023 0.24106009 30 29
0.36739516 -0.89350432 0.14565201 47 28
0.61855894 -1.081511 0.1478352 83 27
0.36816657 -0.89542484 0.089203887 60 26
0.63361508 -1.108598 0.086413272 31 25
0.36938471 -0.89842302 0.043671962 62 24
0.63082975 -1.1046261 0.028723355 32 23
0.37055761 -0.90174419 0 60 22
0.62795848 -1.1005094 -0.028607301 33 21
0.37190181 -0.90548843 -0.044021338 64 20
0.62789506 -1.1004111 -0.085289136 31 19
0.37133145 -0.90543079 -0.084721483 55 18
0.6290769 -1.1024852 -0.14130136 32 17
0.36625203 -0.89384282 -0.12936038 56 16
0.62426853 -1.0932492 -0.21340826 34 15
0.35567445 -0.87123024 -0.25931379 60 13
0.62894106 -1.1009867 -0.2824114 34 14
0.35521498 -0.8726418 -0.31381249 64 12
0.43906716 -0.76626354 -0.34306115 4 11
0.2490879 -0.6157006 -0.33416903 5 9
nan nan nan 0 10
0.25509578 -0.63376665 -0.39183986 12 8
0.34934902 -0.60359251 -0.44839555 9 7
0.23571399 -0.59022737 -0.45741642 12 6
0.29222634 -0.50166935 -0.46197864 12 5
0.19102131 -0.48277247 -0.46297571 13 4
0.099375777 -0.1729455 -0.17466547 5 3
0.12935786 -0.32854283 -0.37589198 4 2
nan nan nan 0 1
nan nan nan 0 0
0.64399517 -1.1299803 0.33772764 30 31
0.36384696 -0.894126 0.21531545 54 30
0.62887686 -1.1057571 0.23869212 31 29
0.35979784 -0.88326961 0.14372028 45 28
0.61128169 -1.077089 0.14692636 56 27
0.36519516 -0.89664078 0.089203887 60 26
0.62376273 -1.0998582 0.085545667 32 25
0.36546668 -0.89732808 0.043555502 61 24
0.62345397 -1.1001956 0.028549276 31 23
0.36381599 -0.8936975 0 62 22
0.62059861 -1.0960683 -0.028433222 33 21
0.36421752 -0.89514023 -0.043439046 63 20
0.61807728 -1.0916476 -0.084425882 32 19
0.36459908 -0.89742124 -0.083827324 57 18
0.61927766 -1.0937704 -0.13987982 32 17
0.36143392 -0.8904593 -0.12867229 51 16
0.61698467 -1.0888923 -0.2121201 34 15
0.35099202 -0.86794418 -0.25793812 59 13
0.61925709 -1.0924782 -0.27962077 35 14
0.34968469 -0.86723465 -0.31136084 65 12
0.43076652 -0.75765848 -0.33837453 4 11
0.24948648 -0.62268072 -0.3376866 5 9
nan nan nan 0 10
0.249852 -0.62664807 -0.38666704 7 8
0.34838384 -0.60653889 -0.44979683 8 7
0.23520364 -0.59471065 -0.46044567 13 6
0.28767136 -0.4976944 -0.45713273 12 5
0.18876877 -0.48171732 -0.46124819 11 4
0.10577979 -0.18508276 -0.18922092 5 3
0.13286497 -0.34104708 -0.39115664 5 2
nan nan nan 0 1
nan nan nan 0 0
0.62692666 -1.1091163 0.33063796 32 31
0.36162859 -0.89765191 0.2158791 52 30
0.6201722 -1.099403 0.23679775 32 29
0.35579401 -0.88222724 0.14333394 46 28
0.605075 -1.074896 0.14632048 28 27
0.36021227 -0.89328969 0.088728137 57 26
0.61255789 -1.0890011 0.084504545 32 25
0.36047497 -0.89396191 0.043322586 60 24
0.61327511 -1.0915904 0.028259141 31 23
0.3588357 -0.89032018 0 63 22
0.60817236 -1.0829903 -0.028027033 33 21
0.36000684 -0.8941505 -0.043322586 61 20
0.60568464 -1.0785931 -0.08321733 32 19
0.36054039 -0.89637619 -0.083603784 55 18
0.6067242 -1.0808884 -0.13788967 32 17
0.35465151 -0.88251638 -0.12729611 54 16
0.60693699 -1.0804223 -0.20997313 33 15
0.34603345 -0.86475748 -0.25656244 58 13
0.60944724 -1.0840242 -0.27683017 36 14
0.34302321 -0.85972416 -0.30809197 67 12
0.43027478 -0.76326334 -0.34024918 5 11
0.24973154 -0.62971377 -0.34120417 5 9
nan nan nan 0 10
0.2498872 -0.63353896 -0.39054665 7 8
0.34615842 -0.60781175 -0.44979683 8 7
0.2301531 -0.58814842 -0.45438719 12 6
0.28584531 -0.49874544 -0.45713273 10 5
0.18635756 -0.48071763 -0.45952067 10 4
0.10770125 -0.18990704 -0.1946792 5 3
0.13338183 -0.34604365 -0.39688087 4 2
nan nan nan 0 1
nan nan nan 0 0
0.61930221 -1.1050923 0.32870439 32 31
0.35116318 -0.88085461 0.21136987 53 30
0.61493605 -1.0995286 0.23632413 32 29
0.34891784 -0.87434053 0.14178856 46 28
0.59870386 -1.0727774 0.1457146 43 27
0.35235104 -0.88303608 0.087538742 59 26
0.60490543 -1.0847116 0.08398398 32 25
0.35535574 -0.89063382 0.043089665 57 24
0.60213596 -1.0806394 0.027910979 32 23
0.35372865 -0.88698089 0 64 22
0.60175872 -1.0808494 -0.027910979 33 21
0.3541255 -0.88843596 -0.042973209 61 20
0.59685737 -1.0720991 -0.082526729 32 19
0.35542172 -0.89306039 -0.083156705 55 18
0.60052252 -1.0786642 -0.13732104 33 17
0.34868589 -0.87690097 -0.12626398 55 16
0.59955275 -1.0760872 -0.20868494 34 15
0.34213302 -0.8637234 -0.25587463 59 13
0.60189784 -1.079872 -0.27515575 35 14
0.33915767 -0.85871667 -0.30727473 67 12
0.41623759 -0.74456513 -0.33087593 4 11
0.24662264 -0.62856662 -0.34003165 4 9
nan nan nan 0 10
0.24613237 -0.6304158 -0.38796026 4 8
0.33993271 -0.60182196 -0.44419184 8 7
0.23023117 -0.59452093 -0.45893103 12 6
0.28219971 -0.49643224 -0.4539021 10 5
0.1878708 -0.48981807 -0.4681583 10 4
0.11306942 -0.20065789 -0.20741524 5 3
0.13154879 -0.34501651 -0.3949728 4 2
nan nan nan 0 1
nan nan nan 0 0
0.6095525 -1.0967025 0.3254818 32 31
0.3480863 -0.88207507 0.21136987 52 30
0.60392463 -1.0888028 0.23348257 32 29
0.34405965 -0.87095445 0.14101587 45 28
0.5925433 -1.0705233 0.14510871 95 27
0.34653994 -0.87731034 0.086825117 60 26
0.59748131 -1.0802765 0.083463423 32 25
0.35133266 -0.88954407 0.042973209 57 24
0.59472048 -1.0761791 0.027736897 32 23
0.34424222 -0.8719179 0 64 22
0.59191996 -1.0720156 -0.027620843 33 21
0.34919974 -0.88501644 -0.042740289 61 20
0.58585215 -1.0610907 -0.08149083 32 19
0.34958023 -0.88733917 -0.082486078 56 18
0.590729 -1.0698942 -0.1358995 33 17
0.34562281 -0.87811279 -0.12626398 52 16
0.58981538 -1.0674074 -0.20653799 34 15
0.33562833 -0.85595322 -0.25312325 58 13
0.58747506 -1.0627935 -0.27013263 37 14
0.33444861 -0.85549015 -0.30564031 68 12
0.40911612 -0.73791951 -0.32712662 4 11
0.247595 -0.63766789 -0.34472173 5 9
0.32865873 -0.59247214 -0.30185473 3 10
0.24469426 -0.63326961 -0.38925347 4 8
0.34292588 -0.61201572 -0.45119807 8 7
0.22604147 -0.58974081 -0.45438719 13 6
0.28424779 -0.50404334 -0.46036333 11 5
0.18362957 -0.48369968 -0.46124819 12 4
0.11750727 -0.20996308 -0.21833181 5 3
0.13257788 -0.35153627 -0.40260512 4 2
nan nan nan 0 1
nan nan nan 0 0
0.60103929 -1.0903714 0.32290372 32 31
0.33972043 -0.8696599 0.20798795 51 30
0.59655797 -1.0844591 0.23206179 32 29
0.34012333 -0.86984766 0.14062953 45 28
0.58760422 -1.070412 0.14480577 93 27
0.34452993 -0.88077444 0.087062992 56 26
0.59129924 -1.077987 0.083116382 31 25
0.34280208 -0.87679726 0.042274456 59 24
0.58372676 -1.0651126 0.027388735 32 23
0.34300548 -0.87777549 0 60 22
0.58233577 -1.0630249 -0.02733071 34 21
0.34249601 -0.87691689 -0.042274456 58 20
0.57974011 -1.0587589 -0.081145532 32 19
0.34663576 -0.8884936 -0.082486078 54 18
0.58220154 -1.0632452 -0.13476226 34 17
0.3373459 -0.86539859 -0.12419972 49 16
0.58014584 -1.0586727 -0.20439102 35 15
0.33263847 -0.8571195 -0.25312325 59 13
0.58041894 -1.058333 -0.26845828 37 14
0.32891902 -0.85003555 -0.30318862 68 12
0.39431101 -0.71697241 -0.31681603 4 11
0.24233846 -0.63023072 -0.34003165 4 9
0.32329339 -0.5876807 -0.29866612 4 10
0.24259292 -0.63407749 -0.38925347 4 8
0.33876166 -0.60959756 -0.44839555 7 7
0.22548093 -0.59421188 -0.45741642 12 6
0.28163457 -0.50332278 -0.45874804 10 5
0.18327847 -0.48769575 -0.46470326 11 4
0.12277133 -0.22076842 -0.23106785 5 3
0.13196495 -0.35349146 -0.40451318 5 2
nan nan nan 0 1
nan nan nan 0 0
0.59393036 -1.086008 0.32097018 32 31
0.33770791 -0.87305534 0.2085516 52 30
0.58705682 -1.0756696 0.2296938 32 29
0.33635056 -0.86866528 0.14024319 43 28
0.58166879 -1.0680009 0.14419989 36 27
0.33877414 -0.87500298 0.086349361 57 26
0.58293521 -1.0711892 0.082422301 32 25
0.33989263 -0.87792915 0.042274456 59 24
0.57539827 -1.0582693 0.027156627 32 23
0.3382993 -0.87424082 0 60 22
0.57622641 -1.0606638 -0.027214656 33 21
0.33600473 -0.86872274 -0.041808624 61 20
0.57025087 -1.0497302 -0.080282286 33 19
0.33907467 -0.87807357 -0.081368387 53 18
0.57391196 -1.0564495 -0.13362503 34 17
0.33255151 -0.86194605 -0.12351163 49 16
0.57308942 -1.054107 -0.20310284 35 15
0.3272244 -0.85148084 -0.25105977 60 13
0.56970847 -1.0475225 -0.26510951 36 14
0.32525867 -0.84891331 -0.30237141 69 12
0.38510892 -0.70615762 -0.3111921 4 11
0.24091502 -0.63313925 -0.34120417 5 9
0.31806722 -0.58280367 -0.29547751 4 10
0.23962778 -0.63291681 -0.38796026 5 8
0.34076589 -0.61795378 -0.45400053 7 7
0.22409701 -0.59686017 -0.45893103 13 6
0.27987593 -0.5043028 -0.45874804 10 5
0.18157499 -0.48833257 -0.46470326 11 4
0.12707815 -0.23014215 -0.24198443 5 3
0.13292313 -0.36002767 -0.4121455 4 2
nan nan nan 0 1
nan nan nan 0 0
0.58435631 -1.0774696 0.31774756 32 31
0.3303318 -0.86284512 0.20573334 56 30
0.57626164 -1.0647737 0.22685224 33 29
0.32980308 -0.86060005 0.1386978 45 28
0.56965113 -1.0547575 0.14207931 32 27
0.33394784 -0.87152821 0.085873604 57 26
0.56968158 -1.0556785 0.081034139 32 25
0.33504999 -0.87444216 0.04204154 57 24
0.56675452 -1.0515803 0.026924521 32 23
0.33169124 -0.86606938 0 59 22
0.56538117 -1.0494813 -0.026866494 33 21
0.33193162 -0.86761385 -0.041692164 62 20
0.56183368 -1.0429413 -0.079591684 33 19
0.33600754 -0.87925178 -0.081368387 51 18
0.56530762 -1.0498081 -0.1324878 34 17
0.32778531 -0.8584708 -0.12282355 47 16
0.56335759 -1.0453721 -0.20095587 36 15
0.32155618 -0.84592813 -0.24899626 62 13
0.56372589 -1.0452201 -0.26399326 37 14
0.32048169 -0.84567684 -0.30073696 68 12
0.37919196 -0.70145875 -0.30838013 4 11
0.23716202 -0.62983811 -0.33885911 4 9
0.32785934 -0.605811 -0.30716905 5 10
0.23879234 -0.63780361 -0.39054665 6 8
0.33449763 -0.61194772 -0.44839555 7 7
0.22259276 -0.59954482 -0.46044567 13 6
0.28173873 -0.51199347 -0.46520928 10 5
0.18039875 -0.49069411 -0.46643078 11 4
0.12707467 -0.23210055 -0.24380386 5 3
0.13329436 -0.3650535 -0.41786978 4 2
nan nan nan 0 1
nan nan nan 0 0
0.57466269 -1.0689782 0.31452501 33 31
0.32459623 -0.8572104 0.20404238 56 30
0.5700255 -1.0625572 0.22590505 33 29
0.32490692 -0.85717952 0.13792512 44 28
0.56225425 -1.0502821 0.14117049 33 27
0.32827315 -0.86570138 0.08515998 57 26
0.56344682 -1.0533661 0.080687098 32 25
0.32656595 -0.86164051 0.041342791 58 24
0.56071526 -1.0491486 0.026808467 32 23
0.32763469 -0.86493927 0 57 22
0.56053209 -1.0492464 -0.026808467 33 21
0.32802245 -0.86642963 -0.041575707 59 20
0.55211067 -1.0340056 -0.07872843 34 19
0.32943526 -0.871095 -0.080474228 51 18
0.55694175 -1.0430208 -0.13135056 34 17
0.32478669 -0.85960972 -0.12282355 49 16
0.55387843 -1.0364838 -0.19880892 36 15
0.3186014 -0.84704542 -0.24899626 61 13
0.55199724 -1.0321563 -0.26008639 37 14
0.31423202 -0.837933 -0.2974681 69 12
0.37796569 -0.70475113 -0.30931744 4 11
0.24336052 -0.65345174 -0.3517569 4 9
0.31927684 -0.59501338 -0.30079186 4 10
0.2396213 -0.64662737 -0.39571944 9 8
0.33335346 -0.61492789 -0.44979683 6 7
0.21924609 -0.59654051 -0.45741642 16 6
0.27911663 -0.51125479 -0.46359396 10 5
0.17694303 -0.48618555 -0.46124819 11 4
0.13466364 -0.24749023 -0.26199818 5 3
0.13148168 -0.36399335 -0.41596171 4 2
nan nan nan 0 1
nan nan nan 0 0
0.56769145 -1.064491 0.31259143 33 31
0.32005304 -0.85371667 0.20291507 55 30
0.56186783 -1.0557834 0.22401066 33 29
0.32033828 -0.85362303 0.13715242 46 28
0.55292606 -1.0411946 0.13965578 33 27
0.32090577 -0.8551814 0.083970591 56 26
0.55525649 -1.0464263 0.079993017 33 25
0.32283512 -0.86037844 0.041226331 57 24
0.54900599 -1.0355617 0.026402276 34 23
0.32214791 -0.85899228 0 58 22
0.54981899 -1.0379596 -0.026460305 34 21
0.32427657 -0.86517209 -0.041459247 58 20
0.54399061 -1.0270247 -0.078037828 34 19
0.32379121 -0.8652373 -0.079803608 54 18
0.54764378 -1.0338998 -0.12992902 35 17
0.31747651 -0.84913063 -0.12110333 50 16
0.54348946 -1.0252733 -0.19623254 37 15
0.31329149 -0.84133375 -0.24693276 62 13
0.54609841 -1.029776 -0.25897014 37 14
0.30981842 -0.83453637 -0.29583365 68 12
0.37002915 -0.69585258 -0.30463082 4 11
0.24561563 -0.66674376 -0.35879204 5 9
0.31730199 -0.59606886 -0.30079186 4 10
0.23809202 -0.64947122 -0.39701265 9 8
0.32637286 -0.60693234 -0.44279063 6 7
0.21985085 -0.60478997 -0.4634749 18 6
0.27366275 -0.50553256 -0.45713273 10 5
0.17705454 -0.49191067 -0.46643078 12 4
0.13462964 -0.24945866 -0.26381761 5 3
0.1302103 -0.3644501 -0.41596171 5 2
nan nan nan 0 1
nan nan nan 0 0
0.55943769 -1.0579343 0.31001335 34 31
0.31622967 -0.852543 0.20235142 56 30
0.55472857 -1.0512323 0.22258987 34 29
0.31735665 -0.85473603 0.13715242 44 28
0.54580569 -1.0365382 0.13874696 33 27
0.3196398 -0.86096668 0.084446348 51 26
0.54577112 -1.0373344 0.079125404 33 25
0.31810281 -0.85681373 0.040993415 56 24
0.54170525 -1.030937 0.026228197 34 23
0.31828347 -0.85776567 0 56 22
0.54035842 -1.0288212 -0.026170168 35 21
0.31679183 -0.85463643 -0.040876955 57 20
0.53458059 -1.0178896 -0.077174574 34 19
0.31905103 -0.86168796 -0.079356529 49 18
0.54269159 -1.0337033 -0.12964471 35 17
0.31195036 -0.84326023 -0.1200712 47 16
0.53742772 -1.022903 -0.19537376 37 15
0.30938092 -0.84021884 -0.24624492 62 13
0.54136169 -1.0295215 -0.25841203 37 14
0.30675763 -0.83566624 -0.29583365 67 12
0.36965093 -0.70129758 -0.30650547 4 11
nan nan nan 0 9
0.31298769 -0.59323341 -0.29866612 4 10
0.23426612 -0.64631146 -0.39442626 9 8
0.32512739 -0.60994762 -0.44419184 6 7
0.21630225 -0.60184288 -0.46044567 19 6
0.27271879 -0.50820887 -0.45874804 9 5
0.17345946 -0.48743924 -0.46124819 11 4
0.14114124 -0.26347649 -0.28019252 5 3
0.1278834 -0.36184847 -0.4121455 4 2
nan nan nan 0 1
nan nan nan 0 0
0.55217892 -1.0535665 0.30807981 33 31
0.31310281 -0.85369635 0.20235142 55 30
0.54516089 -1.0423944 0.22022191 34 29
0.31253055 -0.85125208 0.13637973 44 28
0.5385446 -1.0319389 0.13783813 33 27
0.31392604 -0.85511756 0.083732717 50 26
0.53733438 -1.0304921 0.078431323 33 25
0.31325042 -0.85328108 0.040760498 54 24
0.53462481 -1.0261793 0.026054114 34 23
0.314282 -0.85657734 0 54 22
0.53310788 -1.0241514 -0.025996089 35 21
0.31124431 -0.84869701 -0.040527578 58 20
0.52853376 -1.0154223 -0.076829277 35 19
0.31504026 -0.8605113 -0.079132989 49 18
0.53217101 -1.0223871 -0.12793887 36 17
0.30885753 -0.8443979 -0.1200712 48 16
0.5304262 -1.0182273 -0.1940856 37 15
0.30236152 -0.82999146 -0.24280575 65 13
0.53306103 -1.0228642 -0.25617948 37 14
0.303038 -0.83450919 -0.29501644 68 12
0.37152147 -0.71078569 -0.31025475 4 11
nan nan nan 0 9
0.31091502 -0.59432238 -0.29866612 4 10
0.23057887 -0.6430921 -0.39183986 9 8
0.31519744 -0.59646666 -0.43298197 5 7
0.21683483 -0.6101011 -0.46650416 20 6
0.26822847 -0.50411814 -0.4539021 10 5
0.1711659 -0.48633406 -0.45952067 13 4
0.14186059 -0.26697916 -0.28383136 5 3
0.12916312 -0.36995909 -0.42168593 4 2
nan nan nan 0 1
nan nan nan 0 0
0.54178798 -1.0426414 0.30421269 33 31
0.30929592 -0.85249245 0.20178777 55 30
0.53698051 -1.035584 0.21832752 34 29
0.30453235 -0.83839589 0.13406166 47 28
0.53150386 -1.0272077 0.13692932 34 27
0.30756396 -0.84684324 0.082781211 53 26
0.53258395 -1.0301485 0.078257799 33 25
0.30772978 -0.84732127 0.040411122 56 24
0.52643257 -1.0191667 0.025822006 34 23
0.30790102 -0.848261 0 57 22
0.52492583 -1.0171318 -0.025763981 35 21
0.30574211 -0.84272927 -0.040178202 59 20
0.520392 -1.0084058 -0.076138675 35 19
0.30950791 -0.85457611 -0.078462377 48 18
0.52402377 -1.0154195 -0.12680162 36 17
0.30256113 -0.83614856 -0.11869502 48 16
0.52232897 -1.0113297 -0.19236802 37 15
0.29865345 -0.82877862 -0.24211791 63 13
0.52499396 -1.0160686 -0.25394699 38 14
0.29774436 -0.82888496 -0.29256478 70 12
0.36689207 -0.70796967 -0.30838013 4 11
0.26052734 -0.73179179 -0.39396772 7 9
0.3140873 -0.60542691 -0.30398044 4 10
0.23045619 -0.64995015 -0.39571944 7 8
0.31601888 -0.60305297 -0.43718567 5 7
0.2133996 -0.60709631 -0.4634749 18 6
0.26556811 -0.50336844 -0.45228681 11 5
0.16829711 -0.483509 -0.45606562 12 4
0.1466306 -0.27803308 -0.29656741 5 3
0.12529081 -0.36275432 -0.4121455 4 2
nan nan nan 0 1
nan nan nan 0 0
0.53370166 -1.0359467 0.30163461 33 31
0.30468419 -0.84897774 0.20066047 56 30
0.52885431 -1.028729 0.21643312 34 29
0.29994518 -0.83480066 0.13328896 45 28
0.52450275 -1.0224401 0.13602048 34 27
0.30140981 -0.83848238 0.081829697 54 26
0.52213097 -1.0186994 0.077216677 34 25
0.30225456 -0.84133339 0.040061742 56 24
0.51715195 -1.0098875 0.025531873 35 23
0.30409917 -0.84697556 0 56 22
0.52040642 -1.0166446 -0.025705952 35 21
0.30279857 -0.84379137 -0.040178202 57 20
0.51344645 -1.0035628 -0.075620733 35 19
0.30416897 -0.8485598 -0.077791758 49 18
0.51593167 -1.0084076 -0.1256644 36 17
0.30061576 -0.83948076 -0.11903907 41 16
0.5154137 -1.0065775 -0.19107984 37 15
0.29655975 -0.83208209 -0.24280575 64 13
0.51827317 -1.0113053 -0.25227264 38 14
0.29327887 -0.82546252 -0.29093033 68 12
0.36560854 -0.71124017 -0.30931744 5 11
0.26391697 -0.74932998 -0.40334788 13 9
0.30988657 -0.60250318 -0.30185473 5 10
0.225495 -0.64262527 -0.39054665 7 8
0.30717731 -0.59131944 -0.42737705 5 7
0.20815574 -0.59839487 -0.4559018 15 6
0.26925805 -0.51436222 -0.46197864 10 5
0.16727221 -0.48577613 -0.45779315 10 4
0.14975622 -0.28607437 -0.30566457 5 3
0.1266419 -0.3708297 -0.42168593 4 2
nan nan nan 0 1
nan nan nan 0 0
0.52584845 -1.0291165 0.29905656 33 31
0.29782009 -0.83849752 0.1978422 59 30
0.52208078 -1.0239239 0.21501234 34 29
0.29717523 -0.83579063 0.13328896 45 28
0.51771915 -1.0175458 0.13511167 34 27
0.29682538 -0.83483553 0.08135394 51 26
0.51194024 -1.0071006 0.076175556 35 25
0.29697073 -0.83526587 0.039712369 53 24
0.51152694 -1.0071449 0.025415819 34 23
0.29796386 -0.83854824 0 54 22
0.51117533 -1.0073234 -0.025415819 35 21
0.29916891 -0.84243554 -0.040061742 57 20
0.50558192 -0.99637341 -0.074930124 36 19
0.3012051 -0.84961641 -0.077791758 48 18
0.51258481 -1.010113 -0.1256644 36 17
0.29440007 -0.8311801 -0.11766289 46 16
0.50759286 -0.99950749 -0.18936226 38 15
0.28903723 -0.81944871 -0.23867874 64 13
0.51141405 -1.0065978 -0.25059825 38 14
0.28742883 -0.81750667 -0.28766146 69 12
0.36418265 -0.71457368 -0.31025475 5 11
0.2641795 -0.75859594 -0.40803799 24 9
0.31410334 -0.61559749 -0.30823192 6 10
0.22533274 -0.64947999 -0.39442626 5 8
0.30330274 -0.58866191 -0.42457455 5 7
0.20670502 -0.6010012 -0.45741642 14 6
0.26657337 -0.51360983 -0.46036333 10 5
0.16729574 -0.49149826 -0.46297571 11 4
0.14956112 -0.28810951 -0.30748397 5 3
0.12433553 -0.36820123 -0.41786978 4 2
nan nan nan 0 1
nan nan nan 0 0
0.51896429 -1.0244887 0.29712301 33 31
0.29408997 -0.83723199 0.19727854 58 30
0.51071846 -1.0104216 0.21169718 36 29
0.29181546 -0.82982647 0.13212994 47 28
0.51079696 -1.0127069 0.13420284 35 27
0.29227012 -0.83116692 0.080878191 50 26
0.5072946 -1.0066569 0.076002039 34 25
0.2915858 -0.82922351 0.039362993 55 24
0.50331825 -1.0000926 0.025183709 35 23
0.29256603 -0.83250123 0 55 22
0.50201571 -0.99795032 -0.025125684 36 21
0.29361537 -0.83645117 -0.039712369 52 20
0.49872389 -0.99145544 -0.074412182 36 19
0.29660144 -0.84595901 -0.077344678 48 18
0.50327587 -1.0009019 -0.12424285 37 17
0.28743333 -0.82050741 -0.11594268 47 16
0.50059015 -0.99476862 -0.1880741 37 15
0.28681713 -0.82277411 -0.23936658 63 13
0.50349319 -0.99968076 -0.24836574 38 14
0.28443059 -0.8185547 -0.28766146 70 12
0.3573553 -0.70764208 -0.30650547 5 11
0.26152992 -0.7595135 -0.40803799 28 9
0.31184497 -0.61674458 -0.30823192 6 10
0.22844413 -0.66651237 -0.40477186 5 8
0.29544753 -0.57872987 -0.41616717 5 7
0.20386843 -0.59986901 -0.4559018 12 6
0.26468915 -0.51458341 -0.46036333 11 5
0.1660603 -0.49382395 -0.46470326 12 4
0.15649262 -0.30382648 -0.32567832 5 3
0.12254927 -0.36709708 -0.41596171 4 2
nan nan nan 0 1
nan nan nan 0 0
0.51194084 -1.0199146 0.29518944 33 31
0.29022643 -0.83600134 0.19671489 58 30
0.5059076 -1.0100944 0.21122359 36 29
0.28796706 -0.82855535 0.1317436 46 28
0.50151056 -1.0034856 0.13268815 36 27
0.28678864 -0.82517427 0.080164559 51 26
0.49912539 -0.99959403 0.07530795 35 25
0.28935841 -0.83264762 0.039479453 54 24
0.49534166 -0.99290746 0.024951601 35 23
0.28951278 -0.83356804 0 54 22
0.49723476 -0.99754906 -0.025067655 36 21
0.28906778 -0.83274853 -0.039479453 54 20
0.49285167 -0.98881757 -0.074066877 35 19
0.28864226 -0.83291191 -0.07600344 48 18
0.4975532 -0.99821162 -0.12367423 37 17
0.28522825 -0.82389742 -0.11628672 45 16
0.4949061 -0.99210721 -0.18721531 37 15
0.27927929 -0.81012434 -0.23523955 68 13
0.49654669 -0.99498546 -0.24669139 39 14
0.27928615 -0.81283307 -0.2852098 71 12
0.35801575 -0.7150923 -0.30931744 5 11
0.25874439 -0.76046693 -0.40803799 27 9
0.31173354 -0.62186742 -0.31035766 6 10
0.22951412 -0.67744935 -0.41123784 5 8
0.29531127 -0.58344418 -0.41896963 5 7
0.19926992 -0.59302539 -0.44984332 11 6
0.26289129 -0.51550424 -0.46036333 10 5
0.16545779 -0.4978362 -0.4681583 11 4
0.15622465 -0.30589074 -0.32749775 5 3
0.12169757 -0.36908153 -0.41786978 4 2
nan nan nan 0 1
nan nan nan 0 0
0.50405437 -1.0130545 0.29261136 34 31
0.28495172 -0.83009225 0.19502394 59 30
0.49689633 -1.0008727 0.2088556 36 29
0.28347951 -0.82487965 0.13097091 48 28
0.4957917 -1.0007876 0.13208227 35 27
0.28324747 -0.82376528 0.079926684 49 26
0.49229941 -0.99463218 0.074787393 35 25
0.2824221 -0.82183373 0.03889716 54 24
0.4874213 -0.98567885 0.024719493 36 23
0.28418308 -0.827474 0 52 22
0.48836175 -0.988002 -0.024777522 36 21
0.28454959 -0.82902443 -0.039246533 53 20
0.48606789 -0.98383123 -0.073548928 36 19
0.28587866 -0.83386451 -0.07600344 48 18
0.48964512 -0.99104488 -0.122537 37 17
0.28010547 -0.81780487 -0.11525459 48 16
0.48705354 -0.9850077 -0.18549772 38 15
0.2756803 -0.80881721 -0.23455173 65 13
0.48672956 -0.98353696 -0.24334264 39 14
0.27418521 -0.80708569 -0.28275815 71 12
0.35460508 -0.71420312 -0.30838013 5 11
0.25971141 -0.77179444 -0.41390061 28 9
0.30753171 -0.61890662 -0.30823192 5 10
0.22726637 -0.67820668 -0.41123784 5 8
0.29046369 -0.57893181 -0.41476592 6 7
0.19792184 -0.59557283 -0.45135793 10 6
0.26205018 -0.51807153 -0.46197864 10 5
0.16269512 -0.49494284 -0.46470326 12 4
0.16230595 -0.3201094 -0.34387264 5 3
0.11851498 -0.36332557 -0.41023743 4 2
nan nan nan 0 1
nan nan nan 0 0
0.49532402 -1.0039016 0.28938878 34 31
0.28219748 -0.83103263 0.19502394 59 30
0.48703969 -0.98931587 0.20601404 37 29
0.27995351 -0.82347465 0.13058455 47 28
0.4869746 -0.99130177 0.13056755 36 27
0.27878022 -0.82003248 0.079450928 49 26
0.48568684 -0.98954993 0.074266829 35 25
0.27650416 -0.81330007 0.038431324 55 24
0.47862288 -0.97608197 0.02442936 37 23
0.27904287 -0.82130444 0 54 22
0.48270074 -0.98521686 -0.024661468 36 21
0.27701721 -0.81576324 -0.038547784 55 20
0.4783935 -0.97648877 -0.072858326 37 19
0.2829662 -0.83485729 -0.07600344 46 18
0.48306268 -0.98597902 -0.12168407 38 17
0.2740964 -0.80938786 -0.11387841 50 16
0.48160586 -0.98219967 -0.18463893 39 15
0.27223477 -0.80744731 -0.23386389 66 13
0.48005882 -0.97867364 -0.24166825 39 14
0.27150729 -0.80799049 -0.28275815 72 12
0.35210988 -0.71543658 -0.30838013 5 11
0.25563428 -0.76850194 -0.41155556 31 9
0.30648553 -0.62194896 -0.30929479 6 10
0.22822647 -0.68916255 -0.41770387 5 8
0.29133308 -0.58544075 -0.41896963 7 7
0.19522873 -0.59436798 -0.44984332 10 6
0.25851244 -0.51558042 -0.45874804 10 5
0.16096647 -0.49550775 -0.46470326 12 4
0.16118757 -0.320674 -0.34387264 5 3
0.1186984 -0.36836028 -0.41596171 4 2
nan nan nan 0 1
nan nan nan 0 0
0.48861849 -0.99912196 0.28745523 34 31
0.27621806 -0.82276869 0.19276932 61 30
0.48358339 -0.99100995 0.20601404 36 29
0.27473474 -0.81741703 0.12942553 50 28
0.47914594 -0.98408073 0.12935579 36 27
0.27512932 -0.81863964 0.079213053 50 26
0.4811337 -0.98899913 0.074093312 35 25
0.27366355 -0.8142603 0.038431324 54 24
0.47394496 -0.97558397 0.024371332 37 23
0.27617425 -0.82227349 0 53 22
0.4759683 -0.98015833 -0.024487386 37 21
0.27481365 -0.8191427 -0.03866424 54 20
0.46841508 -0.96470636 -0.071822427 37 19
0.27769485 -0.82875109 -0.07533282 48 18
0.47617689 -0.98104686 -0.12083115 38 17
0.27204943 -0.8126899 -0.11422246 49 16
0.47367799 -0.97510689 -0.18292136 40 15
0.26852006 -0.80615735 -0.23317605 66 13
0.47342801 -0.97377598 -0.23999387 39 14
0.2678057 -0.80673575 -0.28194091 72 12
0.35357538 -0.72504175 -0.31212941 5 11
0.25431696 -0.77358878 -0.41390061 39 9
0.30320346 -0.62103856 -0.30823192 5 10
0.22306576 -0.68185139 -0.41253105 9 8
0.28826192 -0.58465159 -0.41756839 8 7
0.19607911 -0.60455143 -0.45741642 10 6
0.256621 -0.51652443 -0.45874804 10 5
0.15914926 -0.49609441 -0.46470326 13 4
0.17089739 -0.34265575 -0.36934468 5 3
0.1154969 -0.3626014 -0.40832934 4 2
nan nan nan 0 1
nan nan nan 0 0
0.47966263 -0.99004912 0.28423262 34 31
0.27243987 -0.8214618 0.19220567 60 30
0.47458088 -0.98173749 0.20364605 37 29
0.27096462 -0.81607229 0.12903918 49 28
0.47228634 -0.97913212 0.12844697 36 27
0.27057076 -0.8149147 0.078737296 49 26
0.47424221 -0.98402321 0.073572747 36 25
0.26911566 -0.81051373 0.038198408 54 24
0.46617925 -0.96823478 0.024139225 37 23
0.2700336 -0.81378102 0 54 22
0.46801835 -0.97289699 -0.024255278 37 21
0.27117267 -0.81772465 -0.038547784 55 20
0.46270365 -0.96192676 -0.071477123 38 19
0.27232605 -0.82266587 -0.074662201 48 18
0.46842229 -0.97375977 -0.11969391 38 17
0.26675487 -0.80662251 -0.11319033 53 16
0.46812439 -0.97232121 -0.18206258 39 15
0.26346782 -0.80023485 -0.23111255 67 13
0.46773064 -0.97111845 -0.23887761 39 14
0.26206604 -0.79867816 -0.27867204 70 12
0.34799659 -0.72002131 -0.30931744 5 11
0.25147992 -0.77451569 -0.41390061 83 9
0.30401391 -0.62819242 -0.31142053 5 10
0.22003308 -0.68058783 -0.41123784 25 8
0.28621933 -0.58565432 -0.41756839 10 7
0.19216938 -0.59954274 -0.45287254 10 6
0.2522614 -0.51229465 -0.4539021 10 5
0.15687948 -0.49492145 -0.46297571 14 4
0.16970026 -0.34325022 -0.36934468 5 3
0.11227481 -0.35684434 -0.40069702 4 2
nan nan nan 0 1
nan nan nan 0 0
0.47410271 -0.98736733 0.28294358 33 31
0.26656017 -0.81314206 0.18995105 60 30
0.46795416 -0.97675425 0.20222527 37 29
0.26352987 -0.80292034 0.12672111 49 28
0.46671492 -0.97630185 0.12784109 36 27
0.26387522 -0.8040213 0.077547915 52 26
0.46648455 -0.97668052 0.072878659 36 25
0.26628479 -0.81144816 0.038198408 52 24
0.46279663 -0.96985614 0.024139225 36 23
0.26487246 -0.80758619 0 52 22
0.46029663 -0.96551037 -0.024023172 38 21
0.26600152 -0.81154102 -0.038198408 56 20
0.45610783 -0.95678961 -0.070959181 38 19
0.26714814 -0.81650597 -0.073991582 49 18
0.46287239 -0.97090977 -0.1191253 38 17
0.26241133 -0.80283737 -0.11250225 52 16
0.46153039 -0.96728837 -0.18077442 39 15
0.2606729 -0.80114967 -0.23111255 67 13
0.46222824 -0.96835172 -0.23776136 39 14
0.25855389 -0.7973386 -0.2778548 70 12
0.34548113 -0.72123158 -0.30931744 6 11
0.24944317 -0.77749318 -0.41507313 84 9
0.29886043 -0.6231401 -0.30823192 4 10
0.20928296 -0.65482801 -0.39442626 45 8
0.28326276 -0.58479035 -0.41616717 11 7
0.19185378 -0.60590553 -0.45741642 9 6
0.25300875 -0.51830339 -0.45874804 10 5
0.15515094 -0.49546605 -0.46297571 15 4
0.17310245 -0.35304129 -0.38026127 5 3
0.11196387 -0.36032632 -0.40451318 4 2
nan nan nan 0 1
nan nan nan 0 0
0.46648154 -0.98030138 0.28036553 35 31
0.26372012 -0.81406754 0.18995105 61 30
0.46242586 -0.97395158 0.20127808 37 29
0.25996965 -0.80148381 0.12633477 55 28
0.45903388 -0.96896422 0.12662932 37 27
0.26120752 -0.80489194 0.077547915 51 26
0.4609282 -0.97379935 0.072531618 36 25
0.26039374 -0.80286282 0.037732575 55 24
0.45404026 -0.96018082 0.023849091 37 23
0.26205185 -0.80850583 0 53 22
0.45601919 -0.96477437 -0.023965145 38 21
0.26164028 -0.80770916 -0.037965491 57 20
0.45169461 -0.95612323 -0.070786528 37 19
0.26443905 -0.81738734 -0.073991582 47 18
0.45628199 -0.96578962 -0.11827236 39 17
0.25672629 -0.79427028 -0.11112607 53 16
0.45497724 -0.96222144 -0.17948623 40 15
0.25495657 -0.79289418 -0.22836122 65 13
0.45691934 -0.96547866 -0.23664512 39 14
0.25362474 -0.79148048 -0.27540314 69 12
0.34408858 -0.72446358 -0.31025475 6 11
0.24884769 -0.7846359 -0.41859069 80 9
0.29570433 -0.62213957 -0.30716905 3 10
0.2058357 -0.65143359 -0.39183986 77 8
0.2830278 -0.58950073 -0.41896963 10 7
0.18632455 -0.59513539 -0.44832867 9 6
0.24876848 -0.51399988 -0.4539021 11 5
0.15455773 -0.49943599 -0.46643078 19 4
0.17497802 -0.35975736 -0.38753897 5 3
0.10984326 -0.35760033 -0.40069702 4 2
nan nan nan 0 1
nan nan nan 0 0
0.45908532 -0.97311407 0.27778745 34 31
0.25954542 -0.81029463 0.18882374 60 30
0.45709243 -0.97104269 0.2003309 37 29
0.25506619 -0.79527968 0.12517573 56 28
0.45369789 -0.96599358 0.12602344 37 27
0.25613511 -0.79868352 0.076834284 50 26
0.45237333 -0.96404606 0.07166402 36 25
0.25697356 -0.80134195 0.037616115 54 24
0.44765529 -0.95489955 0.02367501 37 23
0.25861257 -0.8069877 0 52 22
0.44838724 -0.95731658 -0.023733035 38 21
0.25669384 -0.8014316 -0.037616115 55 20
0.44533223 -0.95084751 -0.070268571 38 19
0.25857598 -0.80881071 -0.073097423 52 18
0.4488419 -0.95831007 -0.11713514 39 17
0.25245807 -0.79043996 -0.11043798 55 16
0.44653106 -0.95258719 -0.17733927 40 15
0.25016001 -0.78685778 -0.22629771 67 13
0.45042676 -0.96045613 -0.23497075 39 14
0.24958405 -0.78780854 -0.27376872 71 12
0.33957013 -0.72147274 -0.30838013 6 11
0.24479924 -0.78128195 -0.41624564 83 9
0.29363963 -0.62311673 -0.30716905 3 10
0.20482089 -0.65623736 -0.39442626 67 8
0.28107136 -0.59043604 -0.41896963 10 7
0.18250643 -0.59007442 -0.44378477 7 6
0.25030899 -0.52172965 -0.46036333 11 5
0.15177484 -0.49651062 -0.46297571 18 4
0.17599049 -0.36498195 -0.39299726 5 3
0.11088008 -0.36572787 -0.41023743 4 2
0.076045513 -0.16012421 -0.18693626 5 1
nan nan nan 0 0
0.45362955 -0.97033906 0.27649841 34 31
0.2559866 -0.80887163 0.18826009 60 30
0.44952863 -0.96374339 0.19843651 36 29
0.25450817 -0.80323482 0.12633477 52 28
0.44821858 -0.96307653 0.12541756 37 27
0.25260019 -0.79719836 0.076596409 52 26
0.4468919 -0.96110123 0.07131698 36 25
0.25342679 -0.79985148 0.037499659 55 24
0.44220287 -0.95192784 0.023558956 37 23
0.25354877 -0.80072945 0 54 22
0.44081309 -0.94981754 -0.023500927 38 21
0.25389475 -0.80232269 -0.037616115 52 20
0.43884486 -0.94561678 -0.069750629 38 19
0.25500733 -0.80733204 -0.072873883 51 18
0.44549409 -0.95987093 -0.11713514 38 17
0.246742 -0.78186268 -0.1090618 56 16
0.44007477 -0.94744647 -0.17605108 40 15
0.24741183 -0.78772622 -0.22629771 66 13
0.44500706 -0.95760763 -0.2338545 39 14
0.2440348 -0.77964801 -0.27049983 73 12
0.33704969 -0.72265363 -0.30838013 6 11
0.24465719 -0.79057634 -0.42093575 78 9
0.28760174 -0.61595148 -0.3029176 3 10
nan nan nan 0 8
0.27900863 -0.59141362 -0.41896963 9 7
nan nan nan 0 6
0.24765822 -0.52088124 -0.45874804 11 5
0.15055403 -0.49877012 -0.46470326 19 4
0.17621756 -0.3686766 -0.39663616 5 3
0.11005452 -0.36766356 -0.4121455 4 2
nan nan nan 0 1
nan nan nan 0 0
0.44598979 -0.96323717 0.27392033 35 31
0.24797861 -0.79351753 0.18431453 64 30
0.44392398 -0.96093261 0.19748932 36 29
0.2479064 -0.79236609 0.12440304 57 28
0.44050953 -0.95570779 0.12420579 38 27
0.2482031 -0.79336458 0.076120645 51 26
0.4391723 -0.95368105 0.070622891 37 25
0.24901484 -0.79600424 0.037266739 57 24
0.43556109 -0.94673783 0.023384873 37 23
0.25061226 -0.80165339 0 51 22
0.43523058 -0.94688982 -0.023384873 38 21
0.24799849 -0.7937054 -0.037150279 54 20
0.43118837 -0.93816423 -0.069060028 38 19
0.25057647 -0.80350327 -0.072426803 51 18
0.43675986 -0.95022547 -0.11571359 39 17
0.24606518 -0.78986013 -0.11009394 54 16
0.4334954 -0.942348 -0.1747629 40 15
0.24170089 -0.77943718 -0.22354637 68 13
0.4353497 -0.94596463 -0.23050575 39 14
0.24117561 -0.78053719 -0.27049983 70 12
0.33342001 -0.72178334 -0.30744278 6 11
0.24048011 -0.78724068 -0.41859069 90 9
0.29013094 -0.6272521 -0.30823192 3 10
0.21858579 -0.71915877 -0.43322226 56 8
0.2812615 -0.6017921 -0.4259758 8 7
nan nan nan 0 6
0.24656919 -0.52350748 -0.46036333 11 5
0.14821802 -0.49758396 -0.46297571 21 4
0.17933761 -0.37858421 -0.40755275 5 3
0.10915227 -0.36961699 -0.41405359 4 2
0.086873285 -0.18516348 -0.22273257 5 1
nan nan nan 0 0
0.4365502 -0.95162958 0.27005324 35 31
0.24520719 -0.79437834 0.18431453 64 30
0.4364593 -0.95355791 0.19559494 37 29
0.24586199 -0.79558837 0.12478939 55 28
0.43613461 -0.95498472 0.12390284 37 27
0.24484199 -0.79180372 0.07588277 54 26
0.43167844 -0.94614226 0.06992881 38 25
0.24331087 -0.78731692 0.036800902 55 24
0.43225369 -0.94825244 0.023384873 37 23
0.24634972 -0.79774195 0 52 22
0.42896339 -0.94151217 -0.023210794 39 21
0.24522641 -0.79456621 -0.037150279 54 20
0.42687196 -0.93739635 -0.068887375 38 19
0.24645624 -0.79956686 -0.071979731 50 18
0.43033609 -0.94497037 -0.11486067 39 17
0.24272221 -0.78830326 -0.10974989 54 16
0.42712298 -0.93713975 -0.17347473 40 15
0.24037366 -0.78487635 -0.22492205 66 13
0.42814332 -0.93854439 -0.22827323 40 14
0.23571645 -0.77232748 -0.26723096 71 12
0.33005288 -0.72078097 -0.30650547 6 11
0.23660438 -0.78380257 -0.41624564 72 9
0.28698909 -0.62620759 -0.30716905 3 10
0.22654828 -0.75474864 -0.45520669 89 8
0.28003708 -0.60464519 -0.42737705 7 7
nan nan nan 0 6
0.24564788 -0.52604711 -0.46197864 10 5
0.14706832 -0.49980903 -0.46470326 20 4
0.18178262 -0.38690928 -0.41664991 5 3
0.10483967 -0.35909909 -0.40069702 4 2
0.09815301 -0.20998931 -0.25852886 5 1
nan nan nan 0 0
0.42836645 -0.94208986 0.26683062 35 31
0.23904969 -0.78352934 0.18149626 65 30
0.43125573 -0.95053399 0.19464774 37 29
0.23964666 -0.78457838 0.12285766 57 28
0.42679319 -0.94287586 0.1220852 37 27
0.24207661 -0.79265356 0.07588277 50 26
0.42647246 -0.94302863 0.069581769 37 25
