# .PCD v0.7 - Point Cloud Data file format
VERSION 0.7
FIELDS x y z intensity ring
SIZE 4 4 4 4 2
TYPE F F F F U
COUNT 1 1 1 1 1
WIDTH 1073
HEIGHT 1
VIEWPOINT 0 0 0 1 0 0 0
POINTS 1073
DATA ascii
1.6345013 -0.10576478 0.25073782 116 28
1.6317053 -0.10559227 0.15295492 71 26
1.664825 0.10987093 0.11365601 45 25
1.6596681 -0.10744585 0.075930983 10 24
1.6658696 0.10936345 0.037949648 35 23
1.6464479 -0.10686099 0 69 22
1.6808704 0.10978101 -0.03829781 8 21
1.6471716 -0.10719765 -0.07534869 71 20
1.664941 0.10871129 -0.11308579 28 19
1.6573093 -0.10873644 -0.1459713 72 18
1.6631217 -0.10970255 -0.2267247 40 16
1.6316581 -0.11129817 0.25035146 114 28
1.6338094 -0.11146006 0.15319282 71 26
1.6602207 0.10374053 0.11330897 56 25
1.6468266 -0.11237185 0.07534869 38 24
1.6612526 0.10323047 0.037833594 38 23
1.6460649 -0.11260752 0 73 22
1.6837376 0.10407081 -0.038355835 8 21
1.6467874 -0.1129467 -0.07534869 68 20
1.6653101 0.10289889 -0.11308579 28 19
1.6594034 -0.11469586 -0.14619485 70 18
1.6602588 -0.11533239 -0.22638066 60 16
1.6361864 -0.11735312 0.25112417 112 28
1.6359128 -0.11705832 0.15343069 72 26
1.6655514 0.09824568 0.11365601 67 25
1.6514057 -0.11848373 0.075581603 14 24
1.6640977 0.097580947 0.037891619 43 23
1.648155 -0.11853532 0 73 22
1.6865684 0.098636292 -0.038413864 9 21
1.646383 -0.11869437 -0.07534869 67 20
1.6656592 0.097085245 -0.11308579 29 19
1.6565306 -0.12001478 -0.1459713 70 18
1.6573977 -0.12065429 -0.22603661 56 16
1.6333256 -0.12259005 0.25073782 109 28
1.6330128 -0.12257838 0.15319282 71 26
1.6583984 0.092295192 0.11313545 68 25
1.6584738 -0.12453019 0.075930983 10 24
1.6594375 0.091489047 0.037775565 44 23
1.6452602 -0.12380923 0 58 22
1.6819117 0.092466824 -0.03829781 9 21
1.6484486 -0.12463219 -0.07546515 69 20
1.6634821 0.091420665 -0.11291315 35 19
1.6610668 -0.12618022 -0.14641838 69 18
1.6594353 -0.12663065 -0.22638066 42 16
1.625479 -0.12798399 0.24957879 97 28
1.6251104 -0.12796669 0.15247917 44 26
1.6587255 0.086216234 0.11313545 77 25
1.6580061 -0.13060796 0.075930983 10 24
1.6622425 0.08582852 0.037833594 43 23
1.6447954 -0.12983857 0 17 22
1.6847352 0.086433358 -0.038355835 9 21
1.6430252 -0.12998503 -0.07523223 69 20
1.6662965 0.085454479 -0.11308579 47 19
1.6556295 -0.1318655 -0.1459713 67 18
1.65896 -0.13271193 -0.22638066 48 16
1.6200997 -0.13324554 0.24880609 63 28
1.6320939 -0.13426074 0.15319282 13 26
1.6590164 0.08042568 0.11313545 77 25
1.6575402 -0.13639469 0.075930983 10 24
1.6575396 0.079778023 0.03771754 43 23
1.6443322 -0.13557918 0 10 22
1.6725452 0.079937205 -0.038065702 20 21
1.6425613 -0.13571948 -0.07523223 71 20
1.6715665 0.079882905 -0.11343109 57 19
1.6576403 -0.13785356 -0.14619485 67 18
1.6560192 -0.13829263 -0.22603661 43 16
1.6245459 -0.13932876 0.24957879 69 28
1.6365983 -0.14010343 0.15366857 12 26
1.6543045 0.074402653 0.11278841 81 25
1.659542 -0.14239655 0.076047435 10 24
1.6628014 0.074221879 0.037833594 52 23
1.6488299 -0.14175306 0 10 22
1.6678076 0.074161038 -0.037949648 48 21
1.6520288 -0.14232287 -0.075698063 32 20
1.6668524 0.07381954 -0.11308579 60 19
1.657174 -0.14334975 -0.14619485 67 18
1.6580184 -0.14400095 -0.22638066 52 16
1.6240751 -0.14471518 0.24957879 99 28
1.6286638 -0.14514259 0.15295492 18 26
1.6570338 0.069023855 0.11296193 86 25
1.6590606 -0.147899 0.076047435 10 24
1.6605413 0.068600588 0.037775565 60 23
1.6483507 -0.14721999 0 10 22
1.6630621 0.068126909 -0.037833594 60 21
1.6440865 -0.1471227 -0.07534869 61 20
1.6645963 0.068185918 -0.11291315 53 19
1.6566635 -0.14913349 -0.14619485 63 18
1.6901586 0.069264613 -0.18963383 8 17
1.6575055 -0.14978765 -0.22638066 46 16
1.6309373 -0.15107684 0.25073782 108 28
1.6281472 -0.15082681 0.15295492 29 26
1.6547725 0.063140526 0.11278841 95 25
1.6535615 -0.15322188 0.075814523 10 24
1.6557757 0.062607557 0.037659511 63 23
1.6478269 -0.15297292 0 10 22
1.6657873 0.062418576 -0.037891619 39 21
1.6410767 -0.15262616 -0.07523223 71 20
1.6598397 0.06218088 -0.11256784 29 19
1.653654 -0.15468022 -0.1459713 63 18
1.6779805 0.062881202 -0.18821228 17 17
1.6545075 -0.15533775 -0.22603661 46 16
1.6254561 -0.15657318 0.24996512 108 28
1.6419625 0.057174142 0.19630574 32 27
1.6226298 -0.15630929 0.15247917 61 26
1.6549928 0.057075061 0.11278841 97 25
1.6505034 -0.15903863 0.075698063 10 24
1.658492 0.056627378 0.03771754 63 23
1.6397907 -0.15828091 0 34 22
1.6734983 0.056577034 -0.038065702 12 21
1.6429917 -0.15888366 -0.07534869 74 20
1.6700265 0.056448489 -0.11325844 9 19
1.6555541 -0.16098441 -0.14619485 64 18
1.6881287 0.057080865 -0.18934952 30 17
1.6563911 -0.16164456 -0.22638066 52 16
1.6298144 -0.16274363 0.25073782 112 28
1.6545532 0.051849332 0.19782044 98 27
1.6295021 -0.16272426 0.15319282 71 26
1.655182 0.051297709 0.11278841 96 25
1.6524227 -0.16505049 0.075814523 10 24
1.6561813 0.050757561 0.037659511 55 23
1.6417154 -0.1642561 0 69 22
1.6711873 0.050655708 -0.038007673 8 21
1.642427 -0.16461782 -0.07534869 73 20
1.6677206 0.050539453 -0.11308579 8 19
1.654982 -0.1667624 -0.14619485 73 18
1.685835 0.051108964 -0.1890652 27 17
1.6558168 -0.16742547 -0.22638066 58 16
1.6292365 -0.16843174 0.25073782 108 28
1.6547241 0.046073545 0.19782044 103 27
1.6289537 -0.16812699 0.15319282 71 26
1.6528581 0.045447487 0.11261488 96 25
1.6443856 -0.170037 0.07546515 24 24
1.661345 0.045119159 0.037775565 29 23
1.641132 -0.16998576 0 73 22
1.6838378 0.045469042 -0.03829781 8 21
1.6468096 -0.17087202 -0.075581603 75 20
1.6703799 0.044788226 -0.11325844 8 19
1.656896 -0.17251073 -0.14641838 78 18
1.688486 0.04529421 -0.18934952 26 17
1.6577148 -0.17317598 -0.2267247 48 16
1.6262133 -0.1735681 0.25035146 106 28
1.6548678 0.040586025 0.19782044 105 27
1.6258826 -0.1735446 0.15295492 71 26
1.6529998 0.039966162 0.11261488 97 25
1.6413298 -0.17522064 0.07534869 22 24
1.663991 0.039382517 0.037833594 10 23
1.6405594 -0.17542699 0 73 22
1.6789892 0.039466333 -0.038181756 9 21
1.6412377 -0.17608 -0.07534869 74 20
1.677999 0.039435521 -0.11377639 8 19
1.6587591 -0.1785631 -0.14664192 85 18
1.6836679 0.039276913 -0.1887809 28 17
1.6521772 -0.17842314 -0.22603661 57 16
1.6280209 -0.17980176 0.25073782 105 28
1.6574866 0.034575798 0.19812338 105 27
1.6227624 -0.17922604 0.15271705 68 26
1.6481483 0.033797663 0.11226784 99 25
1.6506038 -0.18234526 0.075814523 10 24
1.6516246 0.033303436 0.037543457 30 23
1.6423898 -0.18171701 0 73 22
1.6741251 0.033205837 -0.038065702 9 21
1.6406131 -0.18180792 -0.07534869 74 20
1.6731453 0.033178881 -0.11343109 8 19
1.6556193 -0.18436269 -0.14641838 88 18
1.6837947 0.033399578 -0.1887809 29 17
1.6564332 -0.1850338 -0.2267247 64 16
1.6273834 -0.18548352 0.25073782 105 28
1.6575972 0.02878988 0.19812338 102 27
1.6245991 -0.18517461 0.15295492 67 26
1.6507499 0.028090484 0.11244137 99 25
1.6474764 -0.18781967 0.075698063 10 24
1.6567285 0.027628714 0.037659511 60 23
1.6392622 -0.18716201 0 37 22
1.6742308 0.027361847 -0.038065702 9 21
1.6374878 -0.18724661 -0.07523223 73 20
1.6732509 0.027338311 -0.11343109 8 19
1.6599122 -0.19071575 -0.14686546 97 18
1.6888679 0.027610267 -0.18934952 31 17
1.6533178 -0.19052796 -0.22638066 63 16
1.6242733 -0.19087142 0.25035146 102 28
1.6552061 0.022965498 0.19782044 107 27
1.6264474 -0.19085436 0.15319282 30 26
1.6533314 0.022365553 0.11261488 101 25
1.6492906 -0.19386409 0.075814523 10 24
1.6568151 0.02184548 0.037659511 63 23
1.6460462 -0.19376969 0 11 22
1.6693143 0.021737337 -0.037949648 13 21
1.6417836 -0.19355273 -0.07546515 75 20
1.6733361 0.021497406 -0.11343109 9 19
1.6592706 -0.19621916 -0.14686546 98 18
1.6715692 0.021466026 -0.18735935 31 17
1.6526769 -0.1960095 -0.22638066 61 16
1.6577545 0.017506395 0.19812338 110 27
1.6282414 -0.19683254 0.15343069 10 26
1.6509029 0.016853623 0.11244137 99 25
1.6486385 -0.19933228 0.075814523 10 24
1.6568811 0.016061984 0.037659511 63 23
1.6404315 -0.1986195 0 10 22
1.6618823 0.015827766 -0.037775565 39 21
1.6361407 -0.19867377 -0.07523223 69 20
1.660929 0.015811192 -0.11256784 22 19
1.6561043 -0.20170559 -0.14664192 97 18
1.6766012 0.015684783 -0.18792796 37 17
1.6519827 -0.20177725 -0.22638066 61 16
1.6578076 0.011430304 0.19812338 112 27
1.6250401 -0.20248796 0.15319282 10 26
1.6484596 0.010782626 0.11226784 96 25
1.6478969 -0.2053735 0.075814523 10 24
1.6594265 0.010297487 0.03771754 65 23
1.6446532 -0.20525643 0 10 22
1.65943 0.0097182374 -0.03771754 63 21
1.6354373 -0.20438376 -0.07523223 57 20
1.6609756 0.009723478 -0.11256784 48 19
1.657824 -0.20808753 -0.14686546 99 18
1.674162 0.009814051 -0.18764366 47 17
1.6487756 -0.20751821 -0.22603661 62 16
1.6528744 0.0056191506 0.1975175 116 27
1.6267914 -0.20847884 0.15343069 10 26
1.6484871 0.0050283615 0.11226784 72 25
1.6496466 -0.21144524 0.075930983 10 24
1.656953 0.0044944752 0.037659511 66 23
1.6389682 -0.21035299 0 10 22
1.6594537 0.0039256867 -0.03771754 55 21
1.6371902 -0.21041287 -0.07534869 71 20
1.6560113 0.0039063785 -0.11222254 37 19
1.6546186 -0.21355116 -0.14664192 97 18
1.6717024 0.0039605377 -0.18735935 59 17
1.6504965 -0.21359332 -0.22638066 56 16
1.657847 -0.00014356175 0.19812338 119 27
1.6186903 -0.21288878 0.15271705 39 26
1.6534827 -0.0007207396 0.11261488 65 25
1.6488985 -0.21720232 0.075930983 10 24
1.6569585 -0.0012893967 0.037659511 66 23
1.635746 -0.21574257 0 20 22
1.6644562 -0.0015746646 -0.037833594 27 21
1.6389211 -0.21645674 -0.07546515 71 20
1.658509 -0.0018733329 -0.11239519 13 19
1.6514333 -0.21870671 -0.14641838 96 18
1.671706 -0.0018748168 -0.18735935 61 17
1.6792299 -0.22301589 -0.23050918 51 16
1.6528744 -0.0056316508 0.1975175 124 27
1.6228688 -0.2192107 0.15319282 71 26
1.6484832 -0.006192564 0.11226784 66 25
1.6506435 -0.2230067 0.076047435 10 24
1.6519464 -0.0067709754 0.037543457 61 23
1.6325445 -0.22082728 0 62 22
1.6719384 -0.0074069384 -0.038007673 9 21
1.6357201 -0.22155191 -0.07534869 68 20
1.6709638 -0.007410137 -0.11325844 8 19
1.6531266 -0.22480875 -0.14664192 97 18
1.666723 -0.0074036438 -0.18679073 56 17
1.6503628 -0.011387797 0.19721456 130 27
1.6196291 -0.22452916 0.15295492 79 26
1.6509455 -0.011961172 0.11244137 69 25
1.6449087 -0.22807461 0.075814523 10 24
1.6494113 -0.012809914 0.037485432 36 23
1.6342396 -0.22687167 0 73 22
1.6744019 -0.013259188 -0.038065702 9 21
1.6398431 -0.22824077 -0.075581603 96 20
1.6734217 -0.013258949 -0.11343109 8 19
1.6523318 -0.23057789 -0.14664192 97 18
1.6666847 -0.01351244 -0.18679073 35 17
1.6478288 -0.017414084 0.19691162 136 27
1.6286486 -0.23188026 0.15390643 98 26
1.645903 -0.017965099 0.11209433 69 25
1.639118 -0.23339134 0.075581603 40 24
1.6493566 -0.018567355 0.037485432 12 23
1.6333971 -0.23285994 0 73 22
1.6743419 -0.019396089 -0.038065702 9 21
1.6365646 -0.23360731 -0.07546515 106 20
1.6658802 -0.019316519 -0.11291315 8 19
1.6490111 -0.23627599 -0.14641838 98 18
1.669111 -0.019355316 -0.18707505 14 17
1.6527207 -0.023228342 0.1975175 130 27
1.6302913 -0.23792659 0.15414432 106 26
1.6433363 -0.023678051 0.1119208 67 25
1.6481757 -0.2405673 0.076047435 11 24
1.6567789 -0.024424024 0.037659511 18 23
1.6350476 -0.23892489 0 73 22
1.6667668 -0.025138443 -0.037891619 9 21
1.6480918 -0.24114262 -0.076047435 113 20
1.6707902 -0.025199313 -0.11325844 8 19
1.6481764 -0.24203067 -0.14641838 97 18
1.6789675 -0.02531673 -0.18821228 9 17
1.6476671 -0.028917579 0.19691162 134 27
1.6270325 -0.24296068 0.15390643 125 26
1.6457374 -0.029455138 0.11209433 67 25
1.6448566 -0.24594647 0.075930983 10 24
1.6516856 -0.030123364 0.037543457 47 23
1.6391475 -0.24537763 0 63 22
1.6641753 -0.030623192 -0.037833594 9 21
1.6447706 -0.24652062 -0.075930983 116 20
1.6632111 -0.030903334 -0.11274049 8 19
1.6473649 -0.24749488 -0.14641838 97 18
1.6763854 -0.031134784 -0.18792796 32 17
1.6425999 -0.034285136 0.19630574 152 27
1.6261746 -0.2486386 0.15390643 126 26
1.6431371 -0.034863248 0.1119208 67 25
1.6390959 -0.25063816 0.075698063 9 24
1.6515704 -0.035888638 0.037543457 66 23
1.6383247 -0.25081187 0 17 22
1.6690558 -0.036534127 -0.037949648 10 21
1.6414323 -0.25187841 -0.075814523 116 20
1.6655929 -0.036469497 -0.11291315 9 19
1.6489514 -0.25362557 -0.14664192 96 18
1.6713001 -0.036883973 -0.18735935 61 17
1.6772182 -0.036438424 -0.28640506 31 15
1.6399821 -0.040248167 0.1960028 148 27
1.6277105 -0.25498563 0.15414432 120 26
1.6405051 -0.040827096 0.11174729 70 25
1.6406329 -0.25703385 0.075814523 9 24
1.6539339 -0.041712798 0.037601486 67 23
1.6448023 -0.25798693 0 9 22
1.6564177 -0.042350318 -0.037659511 30 21
1.640543 -0.25760651 -0.075814523 118 20
1.6579682 -0.042393763 -0.11239519 10 19
1.6455516 -0.25927675 -0.14641838 97 18
1.6711612 -0.042717677 -0.18735935 65 17
1.6696943 -0.042117424 -0.28511688 31 15
1.6348704 -0.045840874 0.19539692 183 27
1.6268106 -0.26066583 0.15414432 119 26
1.6378593 -0.046486255 0.11157376 68 25
1.6446563 -0.263556 0.076047435 10 24
1.6562765 -0.047553893 0.037659511 67 23
1.6463597 -0.26412609 0 9 22
1.6512629 -0.047994211 -0.037543457 60 21
1.6396338 -0.2633315 -0.075814523 120 20
1.6603032 -0.048249662 -0.11256784 38 19
1.649552 -0.265818 -0.14686546 100 18
1.6660361 -0.048413888 -0.18679073 69 17
1.6695371 -0.047945488 -0.28511688 30 15
1.6347003 -0.05154736 0.19539692 198 27
1.6283461 -0.26674846 0.15438218 118 26
1.6401801 -0.052278895 0.11174729 67 25
1.6461903 -0.26970232 0.076163903 9 24
1.6536024 -0.053258326 0.037601486 66 23
1.6454277 -0.26987132 0 9 22
1.6535835 -0.053835537 -0.037601486 65 21
1.6387045 -0.26905331 -0.075814523 122 20
1.6476605 -0.053657562 -0.11170459 49 19
1.648614 -0.27157441 -0.14686546 98 18
1.6633744 -0.054151993 -0.18650644 68 17
1.6742828 -0.053924248 -0.28597566 29 15
1.6270646 -0.055606473 0.30736345 69 29
1.6345105 -0.057253215 0.19539692 212 27
1.6249511 -0.27201667 0.15414432 116 26
1.64248 -0.058088299 0.1119208 70 25
1.6427763 -0.27503133 0.076047435 9 24
1.6509082 -0.058944665 0.037543457 67 23
1.6395456 -0.2747803 0 9 22
1.6508876 -0.059520934 -0.037543457 37 21
1.6377554 -0.27477181 -0.075814523 125 20
1.6549408 -0.059667151 -0.11222254 27 19
1.6452012 -0.27691093 -0.14664192 98 18
1.6656576 -0.060043741 -0.18679073 68 17
1.6740843 -0.05976826 -0.28597566 30 15
1.6293137 -0.061374314 0.30783707 101 29
1.629341 -0.062774777 0.19479103 220 27
1.6240401 -0.27740368 0.15414432 112 26
1.639775 -0.063728146 0.11174729 70 25
1.6442672 -0.28118825 0.076163903 9 24
1.6531903 -0.064801253 0.037601486 66 23
1.6262584 -0.27837625 0 38 22
1.6581739 -0.065279067 -0.03771754 10 21
1.6417081 -0.28133711 -0.076047435 126 20
1.6621991 -0.065728225 -0.11274049 9 19
1.6467273 -0.28278977 -0.14686546 98 18
1.6654379 -0.065857604 -0.18679073 68 17
1.6689434 -0.065425888 -0.28511688 31 15
1.6291013 -0.066776976 0.30783707 101 29
1.6291237 -0.068177514 0.19479103 199 27
1.625513 -0.28350183 0.15438218 112 26
1.6395547 -0.069165491 0.11174729 58 25
1.6408662 -0.28620693 0.076047435 9 24
1.6454623 -0.07026282 0.037427403 53 23
1.6277884 -0.28420085 0 73 22
1.657936 -0.071066774 -0.03771754 9 21
1.6407161 -0.28706601 -0.076047435 131 20
1.664464 -0.071343042 -0.11291315 9 19
1.6432782 -0.28810298 -0.14664192 97 18
1.6676795 -0.071773812 -0.18707505 50 17
1.6637833 -0.071048364 -0.2842581 32 15
1.6288456 -0.072747484 0.30783707 101 29
1.6412588 -0.074693643 0.19630574 142 27
1.6195639 -0.28857803 0.15390643 105 26
1.6417817 -0.075284809 0.1119208 26 25
1.63489 -0.2913363 0.075814523 20 24
1.6477038 -0.076117761 0.037485432 27 23
1.6267359 -0.2901651 0 74 22
1.6651548 -0.07748045 -0.037891619 9 21
1.6421618 -0.29323369 -0.076163903 135 20
1.6641914 -0.07744313 -0.11291315 9 19
1.6446615 -0.29456615 -0.14686546 98 18
1.6748625 -0.07793007 -0.18792796 28 17
1.6684459 -0.07707563 -0.28511688 32 15
1.6285818 -0.078432769 0.30783707 101 29
1.6434668 -0.080540016 0.19660868 102 27
1.6464912 -0.081253678 0.11226784 17 25
1.6264939 -0.29569149 0.07546515 66 24
1.6499243 -0.081989199 0.037543457 10 23
1.625713 -0.29584166 0 68 22
1.6623776 -0.083171226 -0.037833594 9 21
1.6386719 -0.29851329 -0.076047435 145 20
1.6564374 -0.082888879 -0.11239519 9 19
1.6509699 -0.30165762 -0.14753608 86 18
1.6770611 -0.083896428 -0.18821228 9 17
1.6706266 -0.083017699 -0.28554627 31 15
1.6307496 -0.084240012 0.30831066 98 29
1.6406974 -0.086149886 0.19630574 63 27
1.641216 -0.086744674 0.1119208 35 25
1.622997 -0.30090871 0.07534869 66 24
1.6421403 -0.087360829 0.037369378 32 23
1.6320429 -0.30289304 0 98 22
1.6645733 -0.089103431 -0.037891619 9 21
1.6327107 -0.30331275 -0.075814523 158 20
1.6586287 -0.08880008 -0.11256784 9 19
1.6693169 -0.089362577 -0.18735935 18 17
1.6555693 -0.088085704 -0.28296992 31 15
1.6255431 -0.089668944 0.30736345 97 29
1.6403867 -0.091876462 0.19630574 66 27
1.6433936 -0.092609674 0.11209433 63 25
1.6292965 -0.30797347 0.075698063 65 24
1.6493118 -0.093505755 0.037543457 63 23
1.6309757 -0.30858809 0 114 22
1.6567657 -0.094497412 -0.03771754 9 21
1.634095 -0.30947807 -0.075930983 168 20
1.6558185 -0.094450876 -0.11239519 9 19
1.6665148 -0.095051259 -0.18707505 49 17
1.6601701 -0.094135709 -0.28382871 34 15
1.6276711 -0.095482625 0.30783707 94 29
1.6375784 -0.097458199 0.1960028 69 27
1.6405705 -0.098200321 0.1119208 70 25
1.6233083 -0.31270757 0.07546515 98 24
1.6514705 -0.099408843 0.037601486 68 23
1.6372509 -0.31570911 0 119 22
1.6489407 -0.099837959 -0.037543457 19 21
1.6281019 -0.31422725 -0.075698063 180 20
1.6529891 -0.10008315 -0.11222254 9 19
1.661214 -0.10057503 -0.18650644 66 17
1.6573727 -0.099785864 -0.28339931 34 15
1.6224272 -0.10086653 0.30688986 96 29
1.6347516 -0.10302147 0.19569986 67 27
1.6377286 -0.10377239 0.11174729 71 25
1.6222069 -0.3183721 0.07546515 104 24
1.6511134 -0.10517295 0.037601486 68 23
1.6385914 -0.32190746 0 118 22
1.6410989 -0.10512503 -0.037369378 46 21
1.6318947 -0.32087857 -0.075930983 186 20
1.6501404 -0.10569681 -0.11204989 29 19
1.6633317 -0.10652822 -0.18679073 63 17
1.6570143 -0.10557057 -0.28339931 33 15
1.6245151 -0.10668638 0.30736345 99 29
1.6368581 -0.10888818 0.1960028 55 27
1.6398449 -0.10965118 0.1119208 70 25
1.6235338 -0.32452548 0.075581603 106 24
1.6482421 -0.11077186 0.037543457 67 23
1.6325562 -0.32663783 0 113 22
1.6407219 -0.1108529 -0.037369378 67 21
1.6283165 -0.32607937 -0.075814523 176 20
1.6522501 -0.11162066 -0.11222254 55 19
1.6629497 -0.11233369 -0.18679073 55 17
1.6615509 -0.11167701 -0.2842581 32 15
1.6241328 -0.11235633 0.30736345 100 29
1.6364681 -0.11460122 0.1960028 19 27
1.6369642 -0.11520328 0.11174729 72 25
1.6223912 -0.33019069 0.075581603 103 24
1.6478455 -0.11652463 0.037543457 67 23
1.6338551 -0.33283675 0 111 22
1.6428386 -0.11646616 -0.037427403 56 21
1.632061 -0.33276558 -0.076047435 152 20
1.6543382 -0.11756051 -0.11239519 37 19
1.6526363 -0.11744819 -0.18565349 46 17
1.6636078 -0.1176463 -0.28468749 31 15
1.6237512 -0.11774153 0.30736345 100 29
1.6336039 -0.11984947 0.19569986 10 27
1.6365732 -0.12063102 0.11174729 70 25
1.6163979 -0.33455008 0.07534869 102 24
1.6474501 -0.12198843 0.037543457 68 23
1.6327423 -0.33825299 0 109 22
1.6474073 -0.12256351 -0.037543457 25 21
1.6333932 -0.33868611 -0.076163903 142 20
1.6464771 -0.12250179 -0.11187725 13 19
1.6621466 -0.12365033 -0.18679073 47 17
1.6632084 -0.12316237 -0.28468749 31 15
1.6233305 -0.12340876 0.30736345 98 29
1.6331756 -0.12555109 0.19569986 10 27
1.6386288 -0.12653127 0.1119208 70 25
1.6176631 -0.34070826 0.07546515 103 24
1.6444999 -0.12783583 0.037485432 64 23
1.6266606 -0.34291244 0 107 22
1.6569378 -0.12907505 -0.037775565 9 21
1.6345835 -0.34518972 -0.076280355 132 20
1.6584733 -0.12919849 -0.11274049 9 19
1.6641588 -0.12993127 -0.18707505 46 17
1.6553788 -0.12869582 -0.28339931 30 15
1.6253144 -0.12954907 0.30783707 98 29
1.6351782 -0.13173167 0.1960028 10 27
1.635668 -0.1323389 0.11174729 39 25
1.6212857 -0.34768879 0.075698063 101 24
1.634078 -0.13278061 0.037253324 36 23
1.6302801 -0.3499279 0 105 22
1.6539624 -0.1349476 -0.03771754 9 21
1.6358095 -0.35142112 -0.076396815 123 20
1.6579885 -0.13527623 -0.11274049 9 19
1.6612192 -0.13554114 -0.18679073 45 17
1.6524644 -0.13427758 -0.28296992 31 15
1.6371818 -0.13764292 0.19630574 10 27
1.6426525 -0.1386659 0.11226784 15 25
1.6200621 -0.35334602 0.075698063 98 24
1.6410767 -0.13910599 0.037427403 14 23
1.6266069 -0.3550801 0 104 22
1.6509905 -0.1405119 -0.037659511 9 21
1.6321337 -0.35659277 -0.076280355 118 20
1.6599917 -0.14127071 -0.11291315 9 19
1.6632111 -0.14154603 -0.18707505 45 17
1.65444 -0.1402493 -0.28339931 34 15
1.6366913 -0.1433569 0.19630574 10 27
1.6446433 -0.14461376 0.11244137 26 25
1.6188189 -0.35899892 0.075698063 98 24
1.640581 -0.14483358 0.037427403 20 23
1.6253576 -0.36075586 0 101 22
1.6579597 -0.14692497 -0.037833594 9 21
1.628442 -0.36174306 -0.076163903 111 20
1.6520346 -0.1464148 -0.11239519 9 19
1.6577581 -0.14691964 -0.18650644 51 17
1.6539403 -0.14602353 -0.28339931 31 15
1.636207 -0.14878359 0.19630574 10 27
1.6367025 -0.14939778 0.1119208 51 25
1.6176195 -0.36436516 0.075698063 96 24
1.6400918 -0.15027313 0.037427403 49 23
1.6265904 -0.36669675 0 101 22
1.6499958 -0.15174648 -0.037659511 9 21
1.6272335 -0.36714119 -0.076163903 110 20
1.6565078 -0.15234181 -0.11274049 9 19
1.6597354 -0.15263996 -0.18679073 57 17
1.6558999 -0.15172845 -0.28382871 32 15
1.6307358 -0.15403479 0.19569986 10 27
1.6312047 -0.15464666 0.11157376 71 25
1.6445066 -0.15675031 0.037543457 71 23
1.6228642 -0.37181088 0 99 22
1.649456 -0.15750512 -0.037659511 10 21
1.6331768 -0.37478814 -0.076513276 96 20
1.6534829 -0.15788977 -0.11256784 9 19
1.6616377 -0.15895505 -0.18707505 59 17
1.6553327 -0.15779662 -0.28382871 32 15
1.6301603 -0.1600107 0.19569986 10 27
1.6331093 -0.16086508 0.11174729 71 25
1.6464372 -0.1627319 0.037601486 72 23
1.6214907 -0.37775648 0 98 22
1.6438928 -0.16306357 -0.037543457 30 21
1.6504108 -0.16370651 -0.11239519 15 19
1.6586007 -0.16451275 -0.18679073 62 17
1.6295918 -0.16570008 0.19569986 22 27
1.6350193 -0.16681413 0.1119208 72 25
1.6458591 -0.16847806 0.037601486 71 23
1.61773 -0.38283527 0 97 22
1.6383697 -0.16801149 -0.037427403 62 21
1.639904 -0.16846184 -0.11170459 48 19
1.6555451 -0.17005123 -0.18650644 68 17
1.6290333 -0.17110306 0.19569986 55 27
1.6344571 -0.17223515 0.1119208 71 25
1.6452913 -0.173935 0.037601486 69 23
1.6164517 -0.38819778 0 97 22
1.640259 -0.17398942 -0.037485432 67 21
1.6467777 -0.17467724 -0.11222254 68 19
1.6549722 -0.17554028 -0.18650644 72 17
1.6308935 -0.17705253 0.1960028 66 27
1.6313663 -0.17767312 0.11174729 71 25
1.6421577 -0.17969592 0.037543457 68 23
1.617515 -0.39443338 0 91 22
1.6421264 -0.17998253 -0.037543457 36 21
1.6461581 -0.1804245 -0.11222254 65 19
1.6543176 -0.18160486 -0.18650644 75 17
1.6327002 -0.18330206 0.19630574 63 27
1.6307042 -0.18365118 0.11174729 70 25
1.6415206 -0.18542702 0.037543457 66 23
1.6160583 -0.40035918 0 94 22
1.6464235 -0.18655547 -0.037659511 11 21
1.6454858 -0.18645675 -0.11222254 65 19
1.6512053 -0.18710241 -0.18622212 76 17
1.6369815 -0.18956369 0.19691162 93 27
1.6325308 -0.18962632 0.1119208 59 25
1.6383804 -0.19087036 0.037485432 51 23
1.614651 -0.40599784 0 96 22
1.650728 -0.19287422 -0.037775565 10 21
1.6473024 -0.19248521 -0.11239519 76 19
1.6530095 -0.19314967 -0.18650644 81 17
1.6387743 -0.19556704 0.19721456 103 27
1.6392893 -0.19620189 0.11244137 27 25
1.6327403 -0.1959998 0.037369378 23 23
1.6156454 -0.41225284 0 80 22
1.6500793 -0.1983472 -0.037775565 10 21
1.6515735 -0.19882308 -0.11274049 97 19
1.6523252 -0.19891857 -0.18650644 81 17
1.6331896 -0.20040323 0.19660868 120 27
1.6361537 -0.20133597 0.11226784 12 25
1.6420052 -0.2026228 0.037601486 9 23
1.6166891 -0.4182376 0 84 22
1.6444151 -0.20349924 -0.037659511 10 21
1.6484296 -0.20399617 -0.11256784 100 19
1.6541218 -0.20469819 -0.18679073 78 17
1.6324801 -0.20610289 0.19660868 122 27
1.6255422 -0.20580775 0.11157376 32 25
1.6338121 -0.20770513 0.037427403 27 23
1.6152194 -0.42387837 0 84 22
1.6436948 -0.20923807 -0.037659511 10 21
1.6477075 -0.209749 -0.11256784 101 19
1.6508963 -0.21044904 -0.18650644 72 17
1.6341752 -0.21240106 0.19691162 119 27
1.629724 -0.21240154 0.1119208 64 25
1.6380345 -0.21404725 0.037543457 60 23
1.6160698 -0.43044218 0 80 22
1.6429169 -0.2152611 -0.037659511 10 21
1.6494011 -0.21610709 -0.11274049 101 19
1.6526147 -0.21652949 -0.18679073 74 17
1.6334239 -0.21810409 0.19691162 120 27
1.6240278 -0.2174345 0.11157376 74 25
1.6347997 -0.21943496 0.037485432 66 23
1.6145574 -0.43608069 0 84 22
1.6471105 -0.22165404 -0.037775565 20 21
1.651109 -0.22219227 -0.11291315 102 19
1.6493869 -0.22196925 -0.18650644 76 17
1.6326526 -0.22380447 0.19691162 116 27
1.6282015 -0.22377388 0.1119208 71 25
1.6365001 -0.22547759 0.037543457 66 23
1.6154356 -0.44237736 0 56 22
1.6364213 -0.22604884 -0.037543457 47 21
1.645381 -0.22727913 -0.11256784 101 19
1.6510628 -0.22806156 -0.18679073 78 17
1.6318613 -0.22950213 0.19691162 115 27
1.6249405 -0.22911149 0.11174729 73 25
1.6357031 -0.23118868 0.037543457 66 23
1.6331472 -0.23141266 -0.037485432 72 21
1.6495174 -0.23371369 -0.11291315 101 19
1.6502566 -0.23382345 -0.18679073 87 17
1.633507 -0.2355475 0.19721456 112 27
1.6241308 -0.23478222 0.11174729 71 25
1.6398342 -0.23760645 0.037659511 68 23
1.6348033 -0.2374676 -0.037543457 74 21
1.6486917 -0.23947014 -0.11291315 102 19
1.6445135 -0.23887569 -0.18622212 92 17
1.6302193 -0.24088898 0.19691162 109 27
1.6257689 -0.24081178 0.1119208 69 25
1.6315765 -0.24223892 0.037485432 66 23
1.6364797 -0.24325134 -0.037601486 74 21
1.6453781 -0.24486019 -0.11274049 102 19
1.6461269 -0.24497662 -0.18650644 83 17
1.6318659 -0.24666089 0.19721456 102 27
1.6249614 -0.24620169 0.1119208 69 25
1.6307211 -0.24793275 0.037485432 62 23
1.6331491 -0.24858978 -0.037543457 75 21
1.6445572 -0.25031513 -0.11274049 102 19
1.6477177 -0.25109175 -0.18679073 89 17
1.6240481 -0.25215581 0.1119208 67 25
1.6224351 -0.25248158 0.037311349 35 23
1.6346972 -0.25495541 -0.037601486 71 21
1.6460935 -0.25672174 -0.11291315 103 19
1.6541952 -0.25797921 -0.18764366 71 17
1.6256218 -0.25821084 0.11209433 67 25
1.6289504 -0.2593112 0.037485432 10 23
1.6412033 -0.26183036 -0.037775565 94 21
1.6451875 -0.26246613 -0.11291315 103 19
1.6197859 -0.26309144 0.11174729 61 25
1.6280354 -0.26499569 0.037485432 10 23
1.640326 -0.26727134 -0.037775565 117 21
1.6417991 -0.26780939 -0.11274049 104 19
1.6213655 -0.2688657 0.1119208 85 25
1.6271476 -0.27039298 0.037485432 42 23
1.634451 -0.27218169 -0.037659511 156 21
1.6433628 -0.27365839 -0.11291315 104 19
1.620417 -0.27452371 0.1119208 103 25
1.6286103 -0.27677006 0.037543457 66 23
1.6408846 -0.27913189 -0.037833594 183 21
1.6423975 -0.27939314 -0.11291315 106 19
1.6292322 -0.28214866 0.11261488 110 25
1.6276342 -0.28245327 0.037543457 67 23
1.6423136 -0.28556871 -0.037891619 203 21
1.6438202 -0.28583461 -0.11308579 106 19
1.6282374 -0.28783405 0.11261488 112 25
1.6291 -0.28856537 0.037601486 68 23
1.6413577 -0.29101324 -0.037891619 201 21
1.6403561 -0.29113865 -0.11291315 107 19
1.6272739 -0.2932319 0.11261488 111 25
1.6305944 -0.29440647 0.037659511 68 23
1.6427919 -0.29718217 -0.037949648 193 21
1.6418365 -0.29701701 -0.11308579 109 19
1.6237869 -0.29846317 0.11244137 108 25
1.6295043 -0.30038095 0.037659511 71 23
1.6442028 -0.30336466 -0.038007673 167 21
1.6407897 -0.30274627 -0.11308579 110 19
1.6226821 -0.3044126 0.11244137 108 25
1.6284459 -0.30606717 0.037659511 68 23
1.6430799 -0.30938894 -0.038007673 150 21
1.6372175 -0.30830011 -0.11291315 113 19
1.6216097 -0.31007499 0.11244137 107 25
1.6249124 -0.31128302 0.037601486 66 23
1.6395348 -0.31465501 -0.037949648 140 21
1.6410314 -0.31494614 -0.11325844 114 19
1.6205175 -0.31573355 0.11244137 106 25
1.6238158 -0.31695312 0.037601486 66 23
1.6384823 -0.3200902 -0.037949648 132 21
1.6374736 -0.32019746 -0.11308579 117 19
1.6194615 -0.32110566 0.11244137 104 25
1.6252079 -0.32281947 0.037659511 69 23
1.6324512 -0.32483926 -0.037833594 125 21
1.6388497 -0.32610893 -0.11325844 119 19
1.6183307 -0.32675669 0.11244137 99 25
1.6240138 -0.32877398 0.037659511 63 23
1.6362078 -0.33152106 -0.037949648 121 21
1.6377013 -0.33182761 -0.11325844 119 19
1.6204077 -0.33394 0.037601486 57 23
1.6276363 -0.33601069 -0.037775565 117 21
1.6413606 -0.3388291 -0.11360374 98 19
1.6216789 -0.34010363 0.037659511 55 23
1.62896 -0.34191611 -0.037833594 112 21
1.6229875 -0.34599695 0.03771754 67 23
1.6253116 -0.34708181 -0.037775565 109 21
1.6266564 -0.35271218 0.037833594 97 23
1.6265333 -0.35328001 -0.037833594 107 21
1.6277941 -0.3592068 0.037891619 98 23
1.6276686 -0.35977498 -0.037891619 104 21
1.6265304 -0.36488667 0.037891619 97 23
1.6239636 -0.36491007 -0.037833594 101 21
1.6252468 -0.37056211 0.037891619 96 23
1.620307 -0.36974084 -0.037775565 100 21
1.6215078 -0.37567249 0.037833594 96 23
1.6214422 -0.37595549 -0.037833594 99 21
1.6226202 -0.38189933 0.037891619 97 23
1.6224868 -0.38246572 -0.037891619 98 21
1.6237088 -0.38813853 0.037949648 97 23
1.6187103 -0.38754857 -0.037833594 97 21
1.6174848 -0.39263198 0.037833594 85 23
1.6222755 -0.39408711 -0.037949648 94 21
1.6185321 -0.39887014 0.037891619 79 23
1.6208899 -0.39974752 -0.037949648 89 21
1.6292574 -0.40753216 0.038181756 63 23
1.6169887 -0.4050819 -0.037891619 67 21
1.635095 -0.41505107 0.038355835 27 23
1.632527 -0.41500956 -0.03829781 28 21
1.6408999 -0.42261571 0.038529918 22 23
1.6238782 -0.41856006 -0.038123727 14 21
1.6370703 -0.42742693 0.038471889 17 23
1.6258254 -0.43087718 0.038239781 14 23
1.6460431 -0.44235647 0.038762026 14 23
1.6936305 0.25292423 0 9 22
1.6821314 0.24522361 0 17 22
1.6805433 0.23870826 0 66 22
1.6788895 0.23250091 0 29 22
1.6821688 0.22697015 0 31 22
1.6878704 0.22203633 0 25 22
1.6836747 0.21551481 0 25 22
1.681972 0.20903729 0 25 22
1.6826915 0.20316483 0 27 22
1.6833559 0.19758371 0 27 22
1.6790668 0.19114743 0 30 22
1.6847267 0.18553291 0 32 22
1.7077943 0.18774131 -0.078493066 2 20
1.6885077 0.18027996 0.077561401 4 24
1.6803916 0.17912748 0 32 22
1.6885705 0.17969054 -0.077561401 8 20
1.6816734 0.17362516 0.077212021 24 24
1.6834937 0.1735138 0 32 22
1.6742804 0.17228104 -0.076862648 20 20
1.6722989 0.1670676 0.076746188 36 24
1.681572 0.16768536 0 32 22
1.687269 0.1679486 -0.077444941 20 20
1.670386 0.16099286 0.076629736 39 24
1.682147 0.16181456 0 30 22
1.6878732 0.16176333 -0.077444941 23 20
1.6734517 0.15509669 0.076746188 38 24
1.6752598 0.15496704 0 38 22
1.6859406 0.15564422 -0.077328481 27 20
1.6714951 0.14903583 0.076629736 35 24
1.6782809 0.14933668 0 32 22
1.6765227 0.14888765 -0.076862648 31 20
1.6719803 0.1434921 0.076629736 36 24
1.6737846 0.14335035 0 30 22
1.6819842 0.14374608 -0.077095568 26 20
1.6724709 0.13765495 0.076629736 37 24
1.6767668 0.13770823 0 32 22
1.6824998 0.13758032 -0.077095568 28 20
1.6729641 0.13152412 0.076629736 38 24
1.6772602 0.13156165 0 33 22
1.67301 0.13094012 -0.076629736 31 20
1.668432 0.12531604 0.076396815 40 24
1.6627496 0.12460494 0 31 22
1.6759473 0.1252823 -0.076746188 45 20
1.666368 0.11931629 0.076280355 41 24
1.6656684 0.11897494 0 36 22
1.6738834 0.11925721 -0.076629736 54 20
1.6667546 0.11378974 0.076280355 52 24
1.6635593 0.11328417 0 42 22
1.6717777 0.11353981 -0.076513276 59 20
1.6671417 0.10797099 0.076280355 47 24
1.6714296 0.10795011 0 56 22
1.6746751 0.10756849 -0.076629736 62 20
1.7022244 0.10871127 -0.14999503 7 18
1.6693363 0.10197417 0.15652309 5 26
1.6700191 0.10200886 0.076396815 47 24
1.6643273 0.10137718 0 67 22
1.6700546 0.10142591 -0.076396815 46 20
1.6876973 0.10159335 -0.14865378 17 18
1.6497878 0.095316112 0.15462007 34 26
1.6653783 0.095898248 0.076163903 53 24
1.6671672 0.095706969 0 68 22
1.6728917 0.095735118 -0.076513276 37 20
1.6880249 0.095996186 -0.14865378 32 18
1.6525954 0.089688241 0.15485795 84 26
1.6681808 0.09050712 0.076280355 57 24
1.6674753 0.090177923 0 67 22
1.6682124 0.089924812 -0.076280355 61 20
1.6883497 0.090103298 -0.14865378 29 18
1.6528984 0.083919063 0.15485795 97 26
1.6634983 0.084436946 0.076047435 56 24
1.665283 0.084233791 0 67 22
1.6685307 0.083809905 -0.076280355 63 20
1.6886539 0.084209308 -0.14865378 27 18
1.6507089 0.077746563 0.15462007 97 26
1.6662912 0.078453511 0.076163903 73 24
1.6680779 0.078243509 0 67 22
1.6713079 0.078098424 -0.076396815 63 20
1.6889513 0.078019507 -0.14865378 30 18
1.6534441 0.072377712 0.15485795 97 26
1.6665549 0.072636589 0.076163903 81 24
1.6608475 0.072104976 0 68 22
1.6690753 0.07215941 -0.076280355 65 20
1.6892006 0.072418317 -0.14865378 28 18
1.6487131 0.066412002 0.15438218 96 26
1.6642913 0.067012519 0.076047435 78 24
1.6610775 0.066597007 0 66 22
1.6668099 0.066527866 -0.076163903 66 20
1.6844668 0.066332035 -0.1482067 28 18
1.648935 0.060656514 0.15438218 98 26
1.664515 0.061202653 0.076047435 82 24
1.6662967 0.060974602 0 65 22
1.6645468 0.060331102 -0.076047435 64 20
1.6797111 0.060279682 -0.14775962 35 18
1.6491462 0.054612454 0.15438218 98 26
1.662232 0.055022173 0.075930983 79 24
1.6690079 0.054945875 0 29 22
1.6622511 0.05444194 -0.075930983 64 20
1.6749431 0.053969007 -0.14731254 38 18
1.6493267 0.048855528 0.15438218 99 26
1.6649103 0.049290165 0.076047435 78 24
1.6766865 0.049330335 0 9 22
1.6674238 0.048778728 -0.076163903 64 20
1.6776104 0.048190262 -0.14753608 56 18
1.6519675 0.043448001 0.15462007 100 26
1.6625757 0.043416355 0.075930983 58 24
1.6743492 0.043415789 0 9 22
1.6650873 0.042897023 -0.076047435 58 20
1.6802503 0.042686805 -0.14775962 64 18
1.6521091 0.037681293 0.15462007 104 26
1.6602137 0.03784921 0.075814523 59 24
1.674484 0.03786321 0 9 22
1.6727107 0.037533358 -0.076396815 31 20
1.67541 0.036718823 -0.14731254 65 18
1.6522306 0.031914126 0.15462007 105 26
1.6578391 0.032008864 0.075698063 62 24
1.6696068 0.031928934 0 9 22
1.6678432 0.031315152 -0.076163903 59 20
1.675528 0.030870328 -0.14731254 65 18
1.6523365 0.025858182 0.15462007 104 26
1.6629392 0.026003841 0.075930983 65 24
1.6722122 0.025844645 0 9 22
1.6604512 0.025388498 -0.075814523 65 20
1.6781198 0.024762467 -0.14753608 65 18
1.6499248 0.020351332 0.15438218 106 26
1.6580256 0.020144898 0.075698063 67 24
1.6921461 0.24257627 0.03887808 7 23
1.6547934 0.019821066 0 38 22
1.6630268 0.01961844 -0.075930983 67 20
1.6757026 0.019172277 -0.14731254 65 18
1.683966 0.018674143 -0.22913301 26 16
1.6524743 0.014610574 0.15462007 107 26
1.6580833 0.014646577 0.075698063 65 24
1.6929412 0.2369636 0.03887808 10 23
1.6523499 0.01431514 0 64 22
1.7004484 0.23742005 -0.039052162 3 21
1.6605854 0.014085665 -0.075814523 66 20
1.6707796 0.013289838 -0.14686546 66 18
1.6840209 0.01279589 -0.22913301 25 16
1.6525152 0.0088422727 0.15462007 108 26
1.6581243 0.0088586975 0.075698063 52 24
1.6962743 0.23109798 0.038936108 13 23
1.6573898 0.0085664727 0 68 22
1.6938387 0.23046143 -0.03887808 4 21
1.6581287 0.0079905037 -0.075698063 65 20
1.6733057 0.0074654724 -0.147089 65 18
1.6840553 0.0069174822 -0.22913301 26 16
1.6403872 0.0027933875 0.25112417 31 28
1.6500479 0.0027845739 0.15438218 110 26
1.6656375 0.0027839227 0.076047435 14 24
1.7069792 0.22650458 0.039168216 19 23
1.6549102 0.0024913417 0 67 22
1.7095355 0.22624016 -0.039226241 8 21
1.6606437 0.0022025055 -0.075814523 66 20
1.6708319 0.0013337533 -0.14686546 68 18
1.6766406 0.00075154693 -0.22810087 27 16
1.6403869 -0.0029326498 0.25112417 147 28
1.650048 -0.0026871974 0.15438218 115 26
1.6731288 -0.0030537907 0.076396815 9 24
1.7052811 0.22022113 0.039110187 21 23
1.6524088 -0.0032770978 0 42 22
1.6854929 0.21733788 -0.038645972 13 21
1.6531495 -0.0035680849 -0.07546515 66 20
1.6708272 -0.0042069326 -0.14686546 65 18
1.6815863 -0.0048291422 -0.22878896 27 16
1.6403682 -0.0083723534 0.25112417 167 28
1.6475401 -0.0084308526 0.15414432 116 26
1.6731094 -0.0086020688 0.076396815 9 24
1.6911259 0.2126725 0.038762026 23 23
1.6648885 -0.0088395672 0 10 22
1.6887206 0.21176764 -0.038704 19 21
1.6556258 -0.0090671061 -0.075581603 67 20
1.6708022 -0.010039181 -0.14686546 50 18
1.6766069 -0.010660913 -0.22810087 28 16
1.640329 -0.014098256 0.25112417 160 28
1.6475006 -0.01418179 0.15414432 119 26
1.6680751 -0.014392572 0.076163903 9 24
1.6844169 0.20584781 0.038587943 27 23
1.6673473 -0.014676365 0 9 22
1.6894495 0.20587161 -0.038704 21 21
1.653087 -0.014820548 -0.07546515 67 20
1.6757367 -0.015925197 -0.14731254 16 18
1.6716073 -0.016457979 -0.22741278 33 16
1.6427394 -0.019857178 0.2515105 152 28
1.6499295 -0.019965997 0.15438218 126 26
1.6680146 -0.020215154 0.076163903 9 24
1.6702708 0.19788677 0.038239781 29 23
1.667286 -0.020496406 0 9 22
1.6876763 0.19967584 -0.038645972 23 21
1.6605127 -0.020983916 -0.075814523 31 20
1.6831402 -0.021881416 -0.14798316 9 18
1.6690639 -0.022256577 -0.22706875 36 16
1.6426556 -0.025877984 0.2515105 138 28
1.6473569 -0.025970593 0.15414432 124 26
1.6654323 -0.026285883 0.076047435 9 24
1.6709512 0.19205523 0.038239781 28 23
1.6671997 -0.026607176 0 9 22
1.6834314 0.19291259 -0.038529918 25 21
1.6529386 -0.026649307 -0.07546515 49 20
1.6706008 -0.027826486 -0.14686546 9 18
1.6689711 -0.028373854 -0.22706875 45 16
1.6425552 -0.031611767 0.2515105 134 28
1.6497498 -0.031484097 0.15438218 112 26
1.6678272 -0.032150596 0.076163903 9 24
1.6716115 0.18622135 0.038239781 29 23
1.6645973 -0.032374706 0 9 22
1.6890292 0.18788886 -0.038645972 24 21
1.6553322 -0.032471281 -0.075581603 67 20
1.6779675 -0.033525296 -0.14753608 25 18
1.6713433 -0.033961788 -0.22741278 58 16
1.6399722 -0.036999449 0.25112417 130 28
1.6446539 -0.037123602 0.15390643 102 26
1.6677115 -0.037681133 0.076163903 9 24
1.6697353 0.18040498 0.038181756 28 23
1.6594821 -0.03777412 0 28 22
1.6871901 0.18172069 -0.038587943 22 21
1.6552154 -0.03796038 -0.075581603 71 20
1.6653942 -0.039073762 -0.14641838 62 18
1.6687393 -0.039733432 -0.22706875 64 16
1.6398331 -0.042723797 0.25112417 124 28
1.6370512 -0.042659737 0.15319282 74 26
1.6650735 -0.043433882 0.076047435 9 24
1.6728708 0.17454685 0.038239781 28 23
1.6543421 -0.0434287 0 63 22
1.6902997 0.17609273 -0.038645972 25 21
1.6550652 -0.044026792 -0.075581603 71 20
1.6702256 -0.045027621 -0.14686546 68 18
1.6661152 -0.045487307 -0.2267247 62 16
1.634728 -0.048580356 0.25035146 113 28
1.6368837 -0.048659544 0.15319282 67 26
1.6574148 -0.049303681 0.075698063 33 24
1.6734699 0.16870637 0.038239781 28 23
1.651673 -0.049413778 0 70 22
1.6834744 0.16913597 -0.038471889 29 21
1.6524053 -0.049725335 -0.07546515 71 20
1.6675606 -0.051069487 -0.14664192 68 18
1.6659372 -0.05159362 -0.2267247 61 16
1.6419538 -0.054542337 0.2515105 119 28
1.6367135 -0.054087374 0.15319282 71 26
1.6572326 -0.055088837 0.075698063 20 24
1.666587 0.16212697 0.038065702 28 23
1.6514904 -0.055178896 0 71 22
1.6865133 0.16379763 -0.038529918 29 21
1.6522218 -0.055493005 -0.07546515 71 20
1.6648936 -0.056511264 -0.14641838 66 18
1.6682317 -0.057205934 -0.22706875 62 16
1.6392958 -0.059893433 0.25112417 118 28
1.634028 -0.059706014 0.15295492 71 26
1.6620318 -0.060773231 0.075930983 10 24
1.6646273 0.15636209 0.038007673 28 23
1.6463021 -0.060464937 0 64 22
1.6771224 0.15696359 -0.03829781 29 21
1.6520286 -0.060971666 -0.07546515 71 20
1.6671745 -0.062418941 -0.14664192 66 18
1.6655474 -0.062932014 -0.2267247 64 16
1.6366088 -0.065513134 0.25073782 116 28
1.636296 -0.065512381 0.15319282 67 26
1.6618096 -0.066574432 0.075930983 9 24
1.6651629 0.1505505 0.038007673 31 23
1.6535746 -0.066522688 0 25 22
1.6776601 0.15110837 -0.03829781 39 21
1.6493106 -0.066633806 -0.07534869 71 20
1.6644585 -0.068132952 -0.14641838 62 18
1.6677916 -0.068850897 -0.22706875 59 16
1.6388377 -0.071336322 0.25112417 116 28
1.6410296 -0.071446911 0.15366857 28 26
1.6795232 0.1465452 0.11487066 7 25
1.661567 -0.072374828 0.075930983 9 24
1.6706829 0.14488551 0.038123727 32 23
1.6583272 -0.072519399 0 10 22
1.6781774 0.14525132 -0.03829781 53 21
1.6490552 -0.072678387 -0.07534869 71 20
1.6746962 0.14493881 -0.11394905 8 19
1.6691854 -0.074170224 -0.14686546 31 18
1.6625941 -0.074444048 -0.22638066 47 16
1.6410322 -0.077462278 0.2515105 115 28
1.6407567 -0.077461101 0.15366857 11 26
1.6750791 0.13996586 0.11452361 24 25
1.663785 -0.078585409 0.076047435 9 24
1.6661977 0.13863109 0.038007673 32 23
1.6605471 -0.078718677 0 9 22
1.6737174 0.13867949 -0.038181756 59 21
1.6512858 -0.07855621 -0.07546515 54 20
1.6777014 0.13900933 -0.11412169 16 19
1.6689024 -0.080287591 -0.14686546 10 18
1.664783 -0.080660373 -0.2267247 40 16
1.6358186 -0.082933262 0.25073782 115 28
1.6404763 -0.083187938 0.15366857 10 26
1.6631287 0.13310482 0.11365601 48 25
1.6635005 -0.084392622 0.076047435 9 24
1.6641804 0.13261196 0.037949648 32 23
1.6577656 -0.084384188 0 9 22
1.6741914 0.1328363 -0.038181756 61 21
1.6485077 -0.084189095 -0.07534869 33 20
1.6806622 0.13335308 -0.11429434 25 19
1.6636388 -0.085849427 -0.14641838 9 18
1.6644913 -0.086471058 -0.2267247 35 16
1.6355346 -0.088357382 0.25073782 116 28
1.6377065 -0.088489875 0.15343069 21 26
1.6635609 0.12758896 0.11365601 52 25
1.660718 -0.089770429 0.075930983 10 24
1.664611 0.12709261 0.037949648 33 23
1.6499883 -0.089465022 0 9 22
1.6721308 0.12709069 -0.038123727 59 21
1.650713 -0.089794256 -0.07546515 62 20
1.6786087 0.12758644 -0.11412169 26 19
1.6708032 -0.091785364 -0.147089 10 18
1.6641954 -0.09199024 -0.2267247 34 16
1.6352162 -0.09406592 0.25073782 118 28
1.6324191 -0.093913421 0.15295492 58 26
1.6664834 0.12196696 0.11382953 49 25
1.6579015 -0.095420063 0.075814523 10 24
1.662552 0.12109604 0.037891619 35 23
1.6471704 -0.095076621 0 12 22
1.6750567 0.12143745 -0.038181756 38 21
1.6478964 -0.095408104 -0.07534869 71 20
1.6765567 0.12154227 -0.11394905 27 19
1.6580449 -0.096874304 -0.1459713 51 18
1.6613925 -0.09765023 -0.22638066 34 16
1.6348778 -0.099773318 0.25073782 115 28
1.6320813 -0.099611051 0.15295492 71 26
1.6668988 0.1161491 0.11382953 50 25
1.6600507 -0.10136214 0.075930983 10 24
1.6654778 0.11517776 0.037949648 35 23
1.6443332 -0.10066963 0 49 22
1.6779635 0.11576532 -0.038239781 10 21
1.6525204 -0.10176092 -0.075581603 68 20
1.6719949 0.1153387 -0.11360374 28 19
1.6651516 -0.10313302 -0.14664192 70 18
1.6635127 -0.10360618 -0.2267247 34 16
