# .PCD v0.7 - Point Cloud Data file format
VERSION 0.7
FIELDS x y z intensity ring
SIZE 4 4 4 4 2
TYPE F F F F U
COUNT 1 1 1 1 1
WIDTH 909
HEIGHT 1
VIEWPOINT 0 0 0 1 0 0 0
POINTS 909
DATA ascii
1.540864 -0.099308133 0.2360567 7 28
1.5919914 -0.10268934 0.1491489 51 26
1.6075754 0.10629002 0.10966504 9 25
1.6422437 -0.10600679 0.07511577 7 24
1.63842 0.1078082 0.037311349 9 23
1.6714121 -0.10822177 0 48 22
1.6758636 0.10974047 -0.038181756 8 21
1.721945 -0.11186227 -0.078842446 8 20
1.7865198 -0.11707337 -0.15759537 8 18
1.5405079 -0.10468616 0.2360567 7 28
1.5891404 -0.1080735 0.14891101 51 26
1.6054476 0.10051824 0.10949152 9 25
1.6418637 -0.11173864 0.07511577 7 24
1.6512755 0.10259577 0.037601486 9 23
1.6660361 -0.11370838 0 48 22
1.6837194 0.10436466 -0.038355835 9 21
1.7215235 -0.11817276 -0.078842446 16 20
1.7861 -0.12330879 -0.15759537 8 18
1.5376505 -0.11015167 0.23567036 8 28
1.5912158 -0.11407868 0.1491489 48 26
1.6107841 0.094934344 0.10983856 9 25
1.6364617 -0.11739156 0.074882858 7 24
1.6441392 0.096381202 0.037427403 9 23
1.6705948 -0.12017927 0 46 22
1.6766061 0.097745538 -0.038181756 15 21
1.7186098 -0.12399837 -0.078725986 30 20
1.7856362 -0.12985434 -0.15759537 8 18
1.5347939 -0.11532976 0.23528402 46 28
1.558647 0.08686278 0.1863087 7 27
1.5883265 -0.11944228 0.14891101 9 26
1.6111057 0.089311078 0.10983856 8 25
1.6410221 -0.12348461 0.07511577 8 24
1.6419702 0.090500236 0.037369378 9 23
1.6701652 -0.12600999 0 36 22
1.6694509 0.091471337 -0.038007673 29 21
1.7206565 -0.13018829 -0.078842446 40 20
1.7826895 -0.13589424 -0.15737183 8 18
1.539306 -0.12108095 0.2360567 57 28
1.5490288 0.080888204 0.18509692 9 27
1.5953639 -0.12530358 0.14962466 7 26
1.613898 0.083819851 0.11001208 9 25
1.6356022 -0.12881327 0.074882858 40 24
1.6447719 0.084900692 0.037427403 8 23
1.6746992 -0.13223933 0 21 22
1.672241 0.08606685 -0.038065702 43 21
1.7201916 -0.13619369 -0.078842446 44 20
1.7822292 -0.14180511 -0.15737183 8 18
1.5413576 -0.1263902 0.23644306 55 28
1.5616806 0.07637658 0.18661162 9 27
1.5998768 -0.13128558 0.15010041 7 26
1.6091855 0.078217775 0.10966504 9 25
1.637655 -0.13444409 0.074999318 47 24
1.6450444 0.079445966 0.037427403 8 23
1.6692687 -0.13737546 0 34 22
1.6725311 0.080229118 -0.038065702 46 21
1.7147534 -0.14148025 -0.078609534 16 20
1.7866856 -0.14844383 -0.1578189 8 18
1.5433676 -0.13198376 0.23682939 54 28
1.55698 0.070691906 0.18600574 9 27
1.5969296 -0.13665378 0.14986253 7 26
1.6094487 0.072600186 0.10966504 9 25
1.6396636 -0.14037609 0.07511577 47 24
1.6453247 0.073416039 0.037427403 9 23
1.6712697 -0.14341846 0 43 22
1.672801 0.074390411 -0.038065702 46 21
1.7216866 -0.14841713 -0.078958906 7 20
1.7737544 -0.15359022 -0.15670121 10 18
1.5379536 -0.13719359 0.2360567 54 28
1.559708 0.065092191 0.1863087 9 27
1.5988964 -0.14273059 0.15010041 7 26
1.609704 0.066700771 0.10966504 9 25
1.639138 -0.14638481 0.07511577 42 24
1.6455708 0.067672335 0.037427403 9 23
1.6757122 -0.1499953 0 47 22
1.6705651 0.068153247 -0.038007673 26 21
1.7261322 -0.15487872 -0.079191819 6 20
1.7731795 -0.16009031 -0.15670121 23 18
1.5374655 -0.14256121 0.2360567 56 28
1.5549664 0.059449945 0.1857028 9 27
1.6008661 -0.14854424 0.15033828 7 26
1.607435 0.060983106 0.10949152 9 25
1.6485622 -0.15304217 0.075581603 33 24
1.6333098 0.061439376 0.037137266 13 23
1.6776674 -0.15607855 0 46 22
1.6782854 0.062611923 -0.038181756 7 21
1.7230947 -0.16066809 -0.079075366 6 20
1.7676522 -0.16580763 -0.15625413 24 18
1.541901 -0.14813833 0.23682939 55 28
1.5576348 0.054383665 0.18600574 9 27
1.6053185 -0.15433519 0.15081403 7 26
1.6101208 0.055742409 0.10966504 9 25
1.6480457 -0.15850817 0.075581603 15 24
1.631007 0.055933382 0.037079241 27 23
1.6771407 -0.16164105 0 46 22
1.685977 0.057311773 -0.038355835 6 21
1.7300086 -0.16711096 -0.079424739 6 20
1.7794828 -0.1728877 -0.15737183 18 18
1.5438321 -0.15376799 0.23721574 58 28
1.5627757 0.049109861 0.18661162 9 27
1.5973419 -0.15918727 0.15010041 7 26
1.6103054 0.050121699 0.10966504 9 25
1.6474823 -0.16425994 0.075581603 8 24
1.6386951 0.050195817 0.037253324 41 23
1.6815407 -0.16799793 0 44 22
1.6861668 0.051426265 -0.038355835 6 21
1.7269001 -0.17319828 -0.079308279 6 20
1.7739142 -0.17859322 -0.15692475 17 18
1.5383451 -0.15891075 0.23644306 45 28
1.5604649 0.043308925 0.1863087 10 27
1.5992228 -0.16530003 0.15033828 40 26
1.6179572 0.044436038 0.1101856 9 25
1.6518366 -0.17081751 0.075814523 10 24
1.6363621 0.044403862 0.037195295 47 23
1.6784272 -0.17389905 0 43 22
1.693839 0.045457784 -0.038529918 6 21
1.7287685 -0.17948624 -0.079424739 6 20
1.7732477 -0.18509373 -0.15692475 15 18
1.5023518 0.037644051 0.2832101 8 29
1.5402365 -0.16454548 0.23682939 49 28
1.565568 0.03798981 0.18691458 9 27
1.5936878 -0.17034553 0.14986253 36 26
1.6156093 0.038724497 0.11001208 9 25
1.6462647 -0.17604478 0.075581603 45 24
1.6390058 0.038754437 0.037253324 45 23
1.6802955 -0.18002638 0 24 22
1.6914887 0.039482966 -0.038471889 6 21
1.7355796 -0.18632881 -0.079774112 10 20
1.7849671 -0.19263345 -0.15804245 10 18
1.5000199 0.032342654 0.28273648 17 29
1.5421075 -0.1701954 0.23721574 55 28
1.5607293 0.032413863 0.1863087 10 27
1.5955874 -0.17590557 0.15010041 20 26
1.6082544 0.032920212 0.10949152 9 25
1.6406765 -0.18123524 0.07534869 50 24
1.6416297 0.03308709 0.037311349 31 23
1.6871102 -0.1867253 0 7 22
1.6841141 0.033712626 -0.03829781 7 21
1.7274734 -0.19155087 -0.079424739 38 20
1.7280016 0.034347113 -0.11722939 8 19
1.7892672 -0.19910839 -0.15848951 9 18
1.5074817 0.027514746 0.28415728 14 29
1.546442 -0.17587349 0.23798843 53 28
1.560828 0.027238118 0.1863087 10 27
1.6023805 -0.18232837 0.15081403 9 26
1.6008742 0.027447147 0.10897096 13 25
1.6450282 -0.18724638 0.075581603 49 24
1.6417303 0.027643068 0.037311349 9 23
1.6889653 -0.19260542 0 6 22
1.6892195 0.027923619 -0.038413864 7 21
1.7268287 -0.19727832 -0.079424739 40 20
1.7330933 0.028706327 -0.1175747 8 19
1.7935081 -0.20592701 -0.15893659 8 18
1.5100229 0.022292756 0.28463086 12 29
1.5433661 -0.18097934 0.2376021 51 28
1.5609137 0.021789644 0.1863087 10 27
1.5967916 -0.18733387 0.15033828 7 26
1.6009601 0.021858888 0.10897096 29 25
1.6418847 -0.19269308 0.07546515 49 24
1.6343234 0.021515714 0.037137266 6 23
1.6907654 -0.19879498 0 6 22
1.6793104 0.021882154 -0.038181756 27 21
1.7310535 -0.20419753 -0.079657651 28 20
1.7281954 0.022584273 -0.11722939 8 19
1.7927784 -0.21218626 -0.15893659 8 18
1.50764 0.016726822 0.28415728 12 29
1.5475956 -0.18723516 0.23837478 44 28
1.5634643 0.016097914 0.18661162 9 27
1.5960944 -0.19318514 0.15033828 7 26
1.6010295 0.015990926 0.10897096 41 25
1.6411674 -0.19870959 0.07546515 49 24
1.6468844 0.015950317 0.037427403 6 23
1.6900253 -0.20499061 0 6 22
1.6818784 0.015754072 -0.038239781 46 21
1.7402447 -0.21145615 -0.080123484 10 20
1.7332543 0.016303942 -0.1175747 8 19
1.7944599 -0.21906047 -0.15916014 8 18
1.5076892 0.011464074 0.28415728 10 29
1.5542845 -0.19356225 0.23953381 37 28
1.5635109 0.010640306 0.18661162 9 27
1.5954102 -0.19875535 0.15033828 9 26
1.6035696 0.010422217 0.10914448 50 25
1.6429416 -0.20474924 0.075581603 49 24
1.636933 0.010124747 0.037195295 6 23
1.6892995 -0.21088864 0 6 22
1.6819233 0.0098831244 -0.038239781 43 21
1.746929 -0.21846844 -0.080472864 9 20
1.7308066 0.010235374 -0.11740204 8 19
1.7936842 -0.22532296 -0.15916014 8 18
1.5101748 0.0062153256 0.28463086 10 29
1.5487003 -0.19835201 0.23876113 28 28
1.5610571 0.0051704436 0.1863087 9 27
1.5996785 -0.20468333 0.15081403 8 26
1.6035962 0.0048246514 0.10914448 50 25
1.6397403 -0.21016215 0.07546515 47 24
1.6419572 0.0044316608 0.037311349 7 23
1.6835945 -0.216141 0 6 22
1.6794474 0.0042955792 -0.038181756 36 21
1.7461557 -0.22456503 -0.080472864 8 20
1.7358198 0.0042128228 -0.11774734 8 19
1.7978655 -0.23191291 -0.15960722 8 18
1.5126417 0.0012133692 0.28510448 11 29
1.5529308 -0.20413736 0.23953381 21 28
1.5685103 5.4573175e-06 0.1872175 10 27
1.5940204 -0.20961027 0.15033828 42 26
1.5986154 -0.00049918552 0.10879744 37 25
1.6538875 -0.21757248 0.076163903 30 24
1.6444619 -0.0012981209 0.037369378 7 23
1.6878248 -0.22238238 0 7 22
1.6894495 -0.0015615781 -0.038413864 28 21
1.7453612 -0.23065887 -0.080472864 8 20
1.7283422 -0.0015473042 -0.11722939 8 19
1.7871732 -0.23686649 -0.15871306 8 18
1.5126359 -0.0043307478 0.28510448 11 29
1.5570667 -0.2104965 0.2403065 12 28
1.5709815 -0.0057486179 0.18752046 10 27
1.6006387 -0.21646196 0.15105191 56 26
1.6085787 -0.006382776 0.10949152 15 25
1.6456559 -0.22261865 0.075814523 7 24
1.6419481 -0.0070313774 0.037311349 7 23
1.6845216 -0.2282282 0 38 22
1.6844338 -0.0077380063 -0.03829781 13 21
1.7420712 -0.23641099 -0.080356404 8 20
1.7358068 -0.0079054907 -0.11774734 8 19
1.79616 -0.24477212 -0.15960722 8 18
1.5150664 -0.0096223745 0.28557807 12 29
1.5636605 -0.21695909 0.24146554 10 28
1.5560625 -0.011149173 0.1857028 14 27
1.602338 -0.22239338 0.15128979 55 26
1.6110406 -0.012012525 0.10966504 7 25
1.6522881 -0.22940181 0.076163903 6 24
1.6494113 -0.012809914 0.037485432 15 23
1.6886661 -0.23480189 0 45 22
1.6893952 -0.013650882 -0.038413864 8 21
1.7412353 -0.24249052 -0.080356404 8 20
1.7357688 -0.013964539 -0.11774734 8 19
1.7878978 -0.2499969 -0.15893659 7 18
1.5174783 -0.014931019 0.28605166 13 29
1.5604489 -0.22206451 0.24107918 10 28
1.5634586 -0.016648343 0.18661162 28 27
1.5991284 -0.22735205 0.15105191 53 26
1.6109889 -0.017636031 0.10966504 7 25
1.6564212 -0.23587859 0.076396815 6 24
1.6418589 -0.018494073 0.037311349 30 23
1.6853616 -0.24033889 0 35 22
1.6943388 -0.01930277 -0.038529918 9 21
1.7453219 -0.24927948 -0.080589324 8 20
1.7382034 -0.020048665 -0.11792 8 19
1.7919878 -0.25663641 -0.15938367 8 18
1.5125113 -0.019906525 0.28510448 13 29
1.5645912 -0.22795701 0.24185188 10 28
1.5609134 -0.021802116 0.1863087 40 27
1.598325 -0.23293267 0.15105191 49 26
1.6109215 -0.022978166 0.10966504 7 25
1.6630418 -0.24246076 0.076746188 6 24
1.6467868 -0.024004001 0.037427403 22 23
1.6944486 -0.24738377 0 17 22
1.6842648 -0.02508265 -0.03829781 30 21
1.7469561 -0.25543016 -0.080705784 8 20
1.7256583 -0.025645062 -0.11705674 8 19
1.5124326 -0.025186054 0.28510448 13 29
1.5637859 -0.23341706 0.24185188 10 28
1.5608279 -0.027250588 0.1863087 49 27
1.5999629 -0.23888129 0.15128979 48 26
1.6083378 -0.028560713 0.10949152 7 25
1.659716 -0.24789225 0.076629736 7 24
1.6466877 -0.030039618 0.037427403 9 23
1.7034628 -0.25478891 0 9 22
1.684167 -0.030961679 -0.03829781 47 21
1.7484773 -0.2622048 -0.080822244 8 20
1.7330393 -0.031795241 -0.1175747 9 19
1.5147845 -0.030775066 0.28557807 12 29
1.5580379 -0.23839302 0.24107918 10 28
1.5631984 -0.033019632 0.18661162 49 27
1.5941576 -0.24398407 0.15081403 45 26
1.6082222 -0.034455374 0.10949152 7 25
1.6662004 -0.25511727 0.076979108 7 24
1.6490718 -0.035838045 0.037485432 7 23
1.7000469 -0.2606487 0 8 22
1.6840422 -0.037134249 -0.03829781 47 21
1.7475514 -0.26830655 -0.080822244 8 20
1.7279241 -0.038044211 -0.11722939 9 19
1.5122136 -0.036008056 0.28510448 13 29
1.5620756 -0.24460122 0.24185188 9 28
1.5655547 -0.038533181 0.18691458 39 27
1.6080451 -0.25187796 0.15224129 42 26
1.6031057 -0.039952263 0.10914448 7 25
1.6578997 -0.25976247 0.076629736 7 24
1.6439394 -0.04147552 0.037369378 7 23
1.6991266 -0.26658136 0 8 22
1.6839024 -0.043012429 -0.03829781 48 21
1.7490708 -0.27479562 -0.080938697 8 20
1.7203009 -0.043895371 -0.11671145 12 19
1.5120788 -0.041286446 0.28510448 16 29
1.5709656 -0.25162861 0.24339725 9 28
1.5579685 -0.043800265 0.18600574 20 27
1.61207 -0.25828364 0.15271705 9 26
1.6079426 -0.045681953 0.10949152 11 25
1.6545175 -0.26514962 0.076513276 39 24
1.6537782 -0.047485854 0.037601486 7 23
1.7006537 -0.27291009 0 8 22
1.6887387 -0.049027912 -0.038413864 47 21
1.7530313 -0.2816979 -0.081171617 8 20
1.7301095 -0.050175142 -0.11740204 20 19
1.5192864 -0.046778947 0.28652525 12 29
1.5676409 -0.25670817 0.24301092 9 28
1.5677279 -0.049536265 0.1872175 7 27
1.6160692 -0.26472044 0.15319282 6 26
1.6077733 -0.051294442 0.10949152 27 25
1.6560458 -0.27133036 0.076629736 44 24
1.651104 -0.053181559 0.037543457 7 23
1.6972243 -0.2784369 0 8 22
1.6885571 -0.054922409 -0.038413864 46 21
1.7520373 -0.28781539 -0.081171617 8 20
1.7274309 -0.056136578 -0.11722939 27 19
1.5166605 -0.052001864 0.28605166 13 29
1.5740417 -0.26341191 0.24416994 9 28
1.5650654 -0.054925214 0.18691458 7 27
1.6102744 -0.2692506 0.15271705 6 26
1.6150621 -0.057159591 0.11001208 12 25
1.6649383 -0.27877182 0.077095568 40 24
1.6459126 -0.058773704 0.037427403 18 23
1.7011721 -0.28519258 0 8 22
1.6933615 -0.060693394 -0.038529918 45 21
1.7485596 -0.29351294 -0.081055157 8 20
1.7322096 -0.062338434 -0.1175747 31 19
1.5066671 -0.056678057 0.28415728 22 29
1.5658572 -0.26737276 0.24301092 9 28
1.5673544 -0.060206223 0.1872175 8 27
1.619135 -0.27655908 0.15366857 7 26
1.6198483 -0.062700398 0.11035912 8 25
1.6615436 -0.28386766 0.076979108 20 24
1.6457087 -0.064231426 0.037427403 41 23
1.7125354 -0.29295567 0 8 22
1.6931393 -0.066603966 -0.038529918 33 21
1.7500376 -0.29973438 -0.081171617 8 20
1.7319934 -0.068082303 -0.1175747 36 19
1.5162715 -0.062324159 0.28605166 29 29
1.5770776 -0.27497515 0.24494264 9 28
1.5621755 -0.065476894 0.18661162 20 27
1.6108066 -0.28091663 0.15295492 10 26
1.6221113 -0.068455741 0.11053264 7 25
1.6679214 -0.29096287 0.077328481 9 24
1.6479595 -0.070365742 0.037485432 47 23
1.706578 -0.29806522 0 8 22
1.6928965 -0.072513714 -0.038529918 9 21
1.7587645 -0.30788118 -0.08163745 8 20
1.7317452 -0.074127674 -0.1175747 39 19
1.5086753 -0.06756378 0.28463086 30 29
1.568766 -0.27944398 0.24378361 9 28
1.5644044 -0.071311228 0.18691458 32 27
1.609766 -0.28681865 0.15295492 30 26
1.6193581 -0.074290082 0.11035912 7 25
1.6619278 -0.29619142 0.077095568 9 24
1.6452069 -0.076006129 0.037427403 48 23
1.7054741 -0.30431813 0 8 22
1.7051035 -0.079280533 -0.038820054 6 21
1.7339534 -0.080586605 -0.11774734 39 19
1.5108825 -0.072943978 0.28510448 28 29
1.5750695 -0.2862533 0.24494264 9 28
1.5691035 -0.077007115 0.18752046 42 27
1.6014112 -0.29109082 0.15224129 41 26
1.6165978 -0.079823025 0.1101856 7 25
1.6682529 -0.30334061 0.077444941 8 24
1.6449316 -0.0817485 0.037427403 48 23
1.7117783 -0.31162208 0 8 22
1.7023197 -0.085110754 -0.038762026 6 21
1.7361525 -0.086759709 -0.11792 39 19
1.515522 -0.078463323 0.28605166 19 29
1.5688251 -0.082483843 0.18752046 45 27
1.6077764 -0.29776925 0.15295492 51 26
1.6163093 -0.085465521 0.1101856 7 25
1.6647292 -0.3087036 0.077328481 9 24
1.6471323 -0.087618954 0.037485432 49 23
1.7106801 -0.31759542 0 8 22
1.6995324 -0.090625882 -0.038704 6 21
1.7333485 -0.09268982 -0.11774734 43 19
1.5201558 -0.083750606 0.28699887 11 29
1.5734987 -0.087955058 0.18812634 29 27
1.6067274 -0.30337965 0.15295492 51 26
1.6209975 -0.09109728 0.11053264 9 25
1.6686029 -0.31515568 0.077561401 9 24
1.6493281 -0.093217894 0.037543457 47 23
1.7120736 -0.32373407 0 8 22
1.7091876 -0.097110651 -0.038936108 6 21
1.738012 -0.098713145 -0.11809264 40 19
1.522305 -0.089196026 0.28747246 10 29
1.5657498 -0.093017213 0.1872175 7 27
1.6056585 -0.30898631 0.15295492 46 26
1.61569 -0.096465327 0.1101856 29 25
1.6674927 -0.32097825 0.077561401 9 24
1.6489754 -0.099262349 0.037543457 46 23
1.710933 -0.32970834 0 8 22
1.7063433 -0.10292931 -0.03887808 7 21
1.7376568 -0.10477933 -0.11809264 34 19
1.5268682 -0.095072106 0.28841963 10 29
1.5753061 -0.099364787 0.18842927 7 27
1.6118395 -0.31631687 0.15366857 36 26
1.6227932 -0.10284844 0.11070616 50 25
1.6663051 -0.32708779 0.077561401 9 24
1.6486188 -0.10501775 0.037543457 27 23
1.7121655 -0.3364622 0 8 22
1.6959767 -0.10855842 -0.038645972 7 21
1.7372612 -0.11114746 -0.11809264 26 19
1.5216277 -0.10008705 0.28747246 10 29
1.5699967 -0.10454102 0.18782339 7 27
1.6181011 -0.32313204 0.15438218 12 26
1.6124697 -0.10786171 0.11001208 51 25
1.6676013 -0.33339503 0.077677861 9 24
1.660712 -0.11159137 0.037833594 8 23
1.718333 -0.34391788 0 8 22
1.7005951 -0.11451055 -0.038762026 22 21
1.7368627 -0.11721095 -0.11809264 19 19
1.5261858 -0.10546288 0.28841963 10 29
1.5795447 -0.11042361 0.18903515 7 27
1.6242776 -0.33027571 0.15509583 9 26
1.6145912 -0.11337919 0.1101856 52 25
1.6713797 -0.3399249 0.077910781 8 24
1.6578394 -0.1169257 0.037775565 6 23
1.719632 -0.35011601 0 8 22
1.6927052 -0.11992693 -0.038587943 29 21
1.7364644 -0.12296995 -0.11809264 30 19
1.5209112 -0.11044203 0.28747246 10 29
1.5717241 -0.115403 0.18812634 7 27
1.6279876 -0.33695877 0.15557158 9 26
1.6141857 -0.11901448 0.1101856 51 25
1.6726278 -0.34626639 0.078027233 8 24
1.6573997 -0.1230012 0.037775565 7 23
1.6972616 -0.12619834 -0.038704 18 21
1.7409993 -0.12939331 -0.11843794 43 19
1.5204962 -0.11601571 0.28747246 10 29
1.5712905 -0.12116288 0.18812634 7 27
1.6316106 -0.34395653 0.15604733 9 26
1.6187122 -0.12530743 0.11053264 51 25
1.6762331 -0.35343131 0.078260154 9 24
1.6594524 -0.12897587 0.037833594 7 23
1.7067559 -0.13318177 -0.038936108 9 21
1.73554 -0.13539256 -0.11809264 45 19
1.5249764 -0.12170515 0.28841963 10 29
1.5758057 -0.12703809 0.18873222 7 27
1.6328936 -0.34988987 0.1562852 9 26
1.6132927 -0.1305622 0.1101856 52 25
1.6725482 -0.35875341 0.078143694 8 24
1.6540093 -0.13437024 0.03771754 9 23
1.7038136 -0.13864169 -0.03887808 7 21
1.742515 -0.14204738 -0.1186106 45 19
1.527011 -0.1269609 0.28889325 10 29
1.5704294 -0.13185543 0.18812634 18 27
1.6292315 -0.35505447 0.15604733 9 26
1.6153364 -0.13611701 0.11035912 43 25
1.6786673 -0.36590275 0.078493066 8 24
1.6560454 -0.14006135 0.037775565 23 23
1.7182631 -0.14583528 -0.039226241 6 21
1.7420344 -0.14782497 -0.1186106 44 19
1.5265588 -0.13229039 0.28889325 10 29
1.577377 -0.13797365 0.18903515 41 27
1.630411 -0.36128098 0.1562852 9 26
1.6223058 -0.14239773 0.11087968 23 25
1.6749423 -0.37121665 0.078376614 8 24
1.6655062 -0.14670381 0.038007673 33 23
1.7127637 -0.15139918 -0.039110187 6 21
1.7464771 -0.15433705 -0.1189559 42 19
1.5211734 -0.13745077 0.28794605 10 29
1.581804 -0.14419702 0.18964103 49 27
1.6339301 -0.36835533 0.15676096 9 26
1.6267408 -0.1487897 0.11122672 7 25
1.6784414 -0.37845799 0.078609534 8 24
1.6574898 -0.15213287 0.037833594 22 23
1.7121972 -0.15767576 -0.039110187 9 21
1.7434157 -0.16051199 -0.11878324 41 19
1.5231284 -0.14298528 0.28841963 10 29
1.581291 -0.14971766 0.18964103 50 27
1.6326343 -0.37405658 0.15676096 9 26
1.6286947 -0.15469928 0.11140025 7 25
1.6844103 -0.38599727 0.078958906 8 24
1.6619254 -0.15838461 0.037949648 6 23
1.7016833 -0.16271412 -0.03887808 34 21
1.7428448 -0.16659667 -0.11878324 40 19
1.5226201 -0.14830112 0.28841963 10 29
1.5782888 -0.15499777 0.1893381 52 27
1.6313848 -0.37946853 0.15676096 9 26
1.6206976 -0.15966123 0.11087968 8 25
1.7025048 -0.39642987 0.079890572 9 24
1.6613625 -0.16418482 0.037949648 6 23
1.7061092 -0.16884138 -0.038994133 44 21
1.744735 -0.17292184 -0.1189559 39 19
1.5294483 -0.1540758 0.28984043 10 29
1.5827047 -0.16072454 0.18994398 53 27
1.6348928 -0.38631177 0.15723671 9 26
1.6226407 -0.16528378 0.1110532 19 25
1.6732428 -0.17094521 0.038239781 6 23
1.7079962 -0.17504708 -0.039052162 44 21
1.7466333 -0.17895737 -0.11912854 35 19
1.5484365 -0.16141862 0.2936292 12 29
1.582134 -0.1662482 0.18994398 52 27
1.6335343 -0.39201626 0.15723671 9 26
1.6146121 -0.17017387 0.11053264 31 25
1.6651475 -0.17629828 0.038065702 6 23
1.7098606 -0.18126799 -0.039110187 44 21
1.7435175 -0.18479379 -0.1189559 22 19
1.5815139 -0.1720459 0.18994398 49 27
1.6345037 -0.39859363 0.15747459 9 26
1.6164571 -0.17635733 0.11070616 42 25
1.6670067 -0.18237783 0.038123727 6 23
1.7091846 -0.18753371 -0.039110187 44 21
1.7527466 -0.19225678 -0.1196465 9 19
1.5858368 -0.17811173 0.19054987 31 27
1.6355172 -0.40489787 0.15771246 9 26
1.6183106 -0.18227415 0.11087968 38 25
1.6663601 -0.18819566 0.038123727 7 23
1.7134874 -0.1940542 -0.039226241 44 21
1.7595006 -0.19920528 -0.12016445 8 19
1.5802743 -0.18308267 0.18994398 31 27
1.6365784 -0.41092843 0.15795034 9 26
1.6300532 -0.18934228 0.11174729 18 25
1.6731418 -0.1948678 0.03829781 10 23
1.7053858 -0.19887736 -0.039052162 44 21
1.7637498 -0.20591745 -0.12050975 8 19
1.5845877 -0.18890196 0.19054987 49 27
1.6375448 -0.4172563 0.15818822 9 26
1.6244627 -0.19416213 0.11140025 6 25
1.6625237 -0.19953017 0.038065702 35 23
1.7096449 -0.20541833 -0.039168216 44 21
1.7630574 -0.21176513 -0.12050975 8 19
1.5863482 -0.19500749 0.19085279 51 27
1.6311876 -0.42200246 0.15771246 22 26
1.6361185 -0.20162152 0.11226784 6 25
1.6642979 -0.2056351 0.038123727 50 23
1.7113613 -0.21198684 -0.039226241 44 21
1.7622693 -0.21822563 -0.12050975 8 19
1.5856578 -0.20054369 0.19085279 50 27
1.6345171 -0.42896357 0.15818822 20 26
1.6304556 -0.20671143 0.1119208 6 25
1.6610903 -0.21113183 0.038065702 50 23
1.710611 -0.2179593 -0.039226241 41 21
1.7639712 -0.22468747 -0.1206824 8 19
1.5849481 -0.20607746 0.19085279 49 27
1.6306057 -0.4340232 0.15795034 17 26
1.6321977 -0.21272019 0.11209433 6 25
1.6628218 -0.21724898 0.038123727 52 23
1.7123184 -0.22425015 -0.039284267 28 21
1.7582294 -0.23020279 -0.12033709 8 19
1.5817957 -0.21100786 0.19054987 46 27
1.6363634 -0.44138184 0.15866399 15 26
1.6413732 -0.21943884 0.11278841 6 25
1.6645697 -0.22309032 0.038181756 51 23
1.7165204 -0.23058568 -0.039400321 10 21
1.7624009 -0.23668915 -0.1206824 8 19
1.5835087 -0.21686099 0.19085279 45 27
1.6430684 -0.22550243 0.11296193 7 25
1.663741 -0.22918975 0.038181756 50 23
1.7280867 -0.23826556 -0.039690454 8 21
1.7640351 -0.24317685 -0.12085505 8 19
1.5851611 -0.22300532 0.19115575 36 27
1.6397607 -0.23117854 0.11278841 10 25
1.6678814 -0.23568814 0.03829781 49 23
1.7296771 -0.24494469 -0.039748482 8 21
1.7656018 -0.24998696 -0.12102769 8 19
1.5819165 -0.2281867 0.19085279 14 27
1.6315373 -0.23584157 0.11226784 34 25
1.6670485 -0.24150869 0.03829781 49 23
1.7263376 -0.25062525 -0.039690454 8 21
1.7696559 -0.25685823 -0.12137299 8 19
1.5811101 -0.2337072 0.19085279 6 27
1.6282365 -0.24117354 0.11209433 49 25
1.6661953 -0.24732628 0.03829781 48 23
1.7279698 -0.25671247 -0.039748482 8 21
1.7638136 -0.26230696 -0.12102769 8 19
1.5925978 -0.24078524 0.19236751 6 27
1.6274278 -0.24657163 0.11209433 47 25
1.6678374 -0.25322181 0.038355835 42 23
1.7344774 -0.26385996 -0.039922561 8 21
1.7629341 -0.26815456 -0.12102769 8 19
1.5892944 -0.24596716 0.19206455 7 27
1.6290222 -0.25262943 0.11226784 46 25
1.6668981 -0.25933304 0.038355835 28 23
1.7310756 -0.26953173 -0.039864536 8 21
1.7669171 -0.27506724 -0.12137299 8 19
1.5834793 -0.25102103 0.19145867 7 27
1.6305492 -0.25898597 0.11244137 47 25
1.6684517 -0.26553932 0.038413864 10 23
1.7325448 -0.27626476 -0.039922561 8 21
1.7683606 -0.28193077 -0.12154565 8 19
1.5874937 -0.25733352 0.19206455 7 27
1.6296352 -0.26467609 0.11244137 48 25
1.674917 -0.27255526 0.038587943 9 23
1.7291518 -0.28161025 -0.039864536 8 21
1.5915294 -0.26339933 0.19267043 7 27
1.6336704 -0.27088735 0.11278841 50 25
1.6740038 -0.27810797 0.038587943 8 23
1.7355562 -0.28886518 -0.040038615 8 21
1.5906003 -0.26895317 0.19267043 10 27
1.6351744 -0.27700117 0.11296193 46 25
1.6803672 -0.28548694 0.038762026 8 23
1.7320727 -0.2945061 -0.03998059 8 21
1.5847119 -0.27394331 0.19206455 36 27
1.6316903 -0.2825706 0.11278841 47 25
1.6793605 -0.29135075 0.038762026 8 23
1.7383708 -0.30212614 -0.040154673 8 21
1.5959685 -0.28161085 0.19357927 53 27
1.6331505 -0.28869504 0.11296193 45 25
1.6857182 -0.29850793 0.038936108 8 23
1.727513 -0.30615824 -0.039922561 8 21
1.5974689 -0.28733733 0.1938822 52 27
1.6420045 -0.29586378 0.11365601 30 25
1.6896396 -0.30497721 0.039052162 9 23
1.7387341 -0.31439304 -0.040212698 8 21
1.5964562 -0.29291177 0.1938822 49 27
1.6434152 -0.30204085 0.11382953 13 25
1.6909689 -0.31161743 0.039110187 9 23
1.7400845 -0.32091036 -0.040270727 8 21
1.5953718 -0.29876113 0.1938822 47 27
1.6521047 -0.30988702 0.11452361 9 25
1.6874139 -0.31706011 0.039052162 9 23
1.7462671 -0.3286626 -0.040444806 8 21
1.5943193 -0.3043282 0.1938822 43 27
1.6485627 -0.31518731 0.11435009 9 25
1.6862969 -0.32294834 0.039052162 8 23
1.5956839 -0.31036165 0.19418515 42 27
1.6547985 -0.32235989 0.11487066 9 25
1.6851593 -0.32883266 0.039052162 8 23
1.5922109 -0.31517324 0.1938822 42 27
1.6561674 -0.328327 0.11504417 9 25
1.6840596 -0.33441907 0.039052162 8 23
1.5862341 -0.31975582 0.19327632 35 27
1.6599019 -0.33508605 0.11539122 9 25
1.6877233 -0.34157377 0.039168216 8 23
1.5972097 -0.32804552 0.19479103 27 27
1.6611061 -0.34166658 0.11556474 9 25
1.6914179 -0.34846464 0.039284267 8 23
1.5911951 -0.33261067 0.19418515 24 27
1.6574616 -0.34695539 0.11539122 9 25
1.6877444 -0.35385728 0.039226241 8 23
1.6046523 -0.34095818 0.1960028 21 27
1.656302 -0.3524498 0.11539122 9 25
1.6890068 -0.35996959 0.039284267 8 23
1.6058788 -0.34707806 0.19630574 10 27
1.6574999 -0.35875329 0.11556474 8 25
1.7072867 -0.37007144 0.039748482 8 23
1.611869 -0.35455003 0.19721456 9 27
1.6537374 -0.36429295 0.11539122 9 25
1.7718365 -0.39077115 0.041315213 10 23
1.6154667 -0.36125025 0.19782044 9 27
1.6597592 -0.37168783 0.11591178 9 25
1.6093546 -0.36579427 0.19721456 9 27
1.6560193 -0.37692922 0.11573827 9 25
1.6105517 -0.37168354 0.1975175 9 27
1.6596216 -0.38353482 0.11608531 9 25
1.6164949 -0.37899172 0.19842632 9 27
1.6582726 -0.38932562 0.11608531 9 25
1.6126804 -0.38434225 0.19812338 9 27
1.6592612 -0.39597631 0.11625882 9 25
1.6161546 -0.39112949 0.19872926 9 27
1.6602936 -0.40234971 0.11643235 9 25
1.6147794 -0.39676857 0.19872926 9 27
1.6206812 -0.40391088 0.19963808 9 27
1.6168547 -0.40896067 0.19933514 9 27
1.6177493 -0.41549778 0.19963808 9 27
1.6234962 -0.42300874 0.20054691 9 27
1.6791539 0.19650194 -0.077212021 7 20
1.684793 0.19119613 -0.077444941 20 20
1.6747854 0.18445119 0 7 22
1.687933 0.18558367 -0.077561401 9 20
1.6480395 0.17601229 0 7 22
1.6985049 0.18073469 -0.078027233 8 20
1.6561351 0.17072998 0 9 22
1.696641 0.17455235 -0.077910781 21 20
1.6542327 0.16470356 0 8 22
1.6922692 0.1681415 -0.077677861 28 20
1.6572866 0.15916391 0 8 22
1.6878732 0.16176333 -0.077444941 26 20
1.6503364 0.15298492 0 8 22
1.6834265 0.15571171 -0.077212021 24 20
1.6608219 0.14809828 0 8 22
1.6889615 0.14997591 -0.077444941 13 20
1.622236 0.13900356 0.074300557 9 24
1.6588626 0.14180043 0 8 22
1.6919633 0.14428839 -0.077561401 8 20
1.6202223 0.13313891 0.074184105 9 24
1.6618391 0.13620999 0 8 22
1.6974351 0.13878199 -0.077794321 7 20
1.6231668 0.12767492 0.074300557 9 24
1.6623045 0.13040826 0 8 22
1.7028891 0.13323919 -0.078027233 7 20
1.621091 0.12210742 0.074184105 9 24
1.6577414 0.12452721 0 8 22
1.7033217 0.12759148 -0.078027233 8 20
1.6240187 0.11634007 0.074300557 8 24
1.6606807 0.11862528 0 8 22
1.6963042 0.12082502 -0.077677861 8 20
1.6244149 0.11067048 0.074300557 9 24
1.6610845 0.1128277 0 8 22
1.6967157 0.11490308 -0.077677861 8 20
1.5770558 0.10226202 0.14772163 8 26
1.6198066 0.10468418 0.074067645 9 24
1.6589732 0.10687132 0 8 22
1.6995987 0.10913654 -0.077794321 11 20
1.5724348 0.096458659 0.14724588 9 26
1.6126666 0.0988639 0.073718272 8 24
1.656823 0.10122026 0 8 22
1.7024441 0.10364841 -0.077910781 9 20
1.5752466 0.09110947 0.14748375 9 26
1.6179885 0.093515456 0.073951185 8 24
1.6596621 0.095576666 0 8 22
1.7077993 0.097686753 -0.078143694 8 20
1.5755699 0.085335292 0.14748375 9 26
1.6233081 0.087847754 0.074184105 9 24
1.6600014 0.089493066 0 8 22
1.70813 0.091724828 -0.078143694 8 20
1.5783439 0.079957448 0.14772163 9 26
1.6285932 0.082426526 0.074417017 9 24
1.6628007 0.083820589 0 8 22
1.7084397 0.085761786 -0.078143694 8 20
1.5810994 0.074561268 0.14795952 9 26
1.6238818 0.076512873 0.074184105 8 24
1.6530936 0.077560447 0 15 22
1.7037393 0.07957112 -0.077910781 8 20
1.5763651 0.069106713 0.14748375 9 26
1.624139 0.070843995 0.074184105 8 24
1.6508564 0.071684472 0 30 22
1.7065018 0.073728047 -0.078027233 10 20
1.5741099 0.063506909 0.14724588 9 26
1.6293557 0.06565211 0.074417017 9 24
1.6435907 0.065919124 0 45 22
1.6942713 0.067291468 -0.077444941 15 20
1.5158688 0.055687264 0.23180692 13 28
1.5743321 0.057737086 0.14724588 9 26
1.6295853 0.05967978 0.074417017 9 24
1.6463196 0.0599823 0 50 22
1.7044791 0.061725568 -0.077910781 25 20
1.5185226 0.050473996 0.23219326 17 28
1.5745242 0.052241288 0.14724588 9 26
1.6297837 0.053991105 0.074417017 9 24
1.6515166 0.054393131 0 49 22
1.699692 0.055618569 -0.077677861 32 20
1.5310345 0.045522191 0.23412499 11 28
1.5746888 0.04701969 0.14724588 9 26
1.6299622 0.048301771 0.074417017 9 24
1.6491975 0.048557695 0 50 22
1.6973796 0.049615469 -0.077561401 37 20
1.5336461 0.040506486 0.23451132 13 28
1.5823069 0.041709036 0.14795952 10 26
1.622624 0.042709388 0.074067645 12 24
1.6518484 0.043150444 0 50 22
1.6975347 0.043986481 -0.077561401 42 20
1.5313089 0.035099797 0.23412499 17 28
1.5824429 0.036185496 0.14795952 10 26
1.6252599 0.037098721 0.074184105 21 24
1.6544886 0.037437383 0 49 22
1.7001812 0.037816711 -0.077677861 42 20
1.5314274 0.029487034 0.23412499 12 28
1.5800767 0.030341014 0.14772163 10 26
1.6104037 0.030874867 0.073485352 43 24
1.6546146 0.031373128 0 50 22
1.697806 0.031838156 -0.077561401 44 20
1.5339905 0.024176521 0.23451132 13 28
1.5851498 0.024896562 0.1481974 10 26
1.6129986 0.025289059 0.073601805 51 24
1.6522143 0.025561912 0 49 22
1.6979069 0.025911514 -0.077561401 43 20
1.5315958 0.018795023 0.23412499 11 28
1.587712 0.019667242 0.14843526 10 26
1.613077 0.019658489 0.073601805 51 24
1.6547934 0.019821066 0 49 22
1.697987 0.019984554 -0.077561401 45 20
1.5390593 0.013771574 0.23528402 13 28
1.5778167 0.014050264 0.14748375 11 26
1.6181277 0.014346708 0.073834725 49 24
1.65485 0.014333465 0 48 22
1.6980463 0.014057351 -0.077561401 44 20
1.5341595 0.0081115793 0.23451132 15 28
1.5853236 0.0082958499 0.1481974 10 26
1.6156722 0.008406288 0.073718272 51 24
1.6548914 0.0082680415 0 48 22
1.7030796 0.008147412 -0.077794321 43 20
1.4889796 0.0022390625 0.33650082 9 30
1.5341785 0.0027563137 0.23451132 15 28
1.5728995 0.002757644 0.147008 21 26
1.6156918 0.0027664884 0.073718272 52 24
1.6549102 0.0024913417 0 33 22
1.7055949 0.0022025055 -0.077910781 43 20
1.4841071 -0.0029414559 0.33537352 19 30
1.5341789 -0.0025989858 0.23451132 14 28
1.5778773 -0.0024730617 0.14748375 36 26
1.6206861 -0.002889036 0.073951185 51 24
1.6649088 -0.0033185491 0 10 22
1.7155813 -0.0037860139 -0.078376614 38 20
1.479218 -0.0078297593 0.33424622 13 30
1.5391016 -0.0077183922 0.23528402 13 28
1.5803478 -0.0079969373 0.14772163 52 26
1.6206675 -0.0082634091 0.073951185 50 24
1.6648885 -0.0088395672 0 22 22
1.7035974 0.21365494 -0.039052162 8 21
1.7105649 -0.0094410703 -0.078143694 9 20
1.4864883 -0.013068386 0.3359372 14 30
1.5390652 -0.013090812 0.23528402 13 28
1.5803102 -0.013513331 0.14772163 53 26
1.6181318 -0.013895701 0.073834725 50 24
1.6573478 -0.014575138 0 33 22
1.6919301 0.2061775 -0.038762026 17 21
1.718013 -0.015489142 -0.078493066 6 20
1.4791241 -0.018414531 0.33424622 13 30
1.5365372 -0.018698057 0.23489767 14 28
1.5777614 -0.019271487 0.14748375 52 26
1.620567 -0.019860353 0.073951185 49 24
1.6572833 -0.020649524 0 43 22
1.667858 0.19700691 -0.038181756 14 21
1.7079566 -0.021646401 -0.078027233 6 20
1.4814862 -0.023620032 0.3348099 22 30
1.5364625 -0.024061458 0.23489767 14 28
1.580173 -0.024821352 0.14772163 53 26
1.6229846 -0.025559779 0.074067645 44 24
1.659701 -0.026477592 0 49 22
1.6536396 0.18945502 -0.037833594 15 21
1.7203552 -0.027826067 -0.078609534 6 20
1.5388386 -0.029475432 0.23528402 11 28
1.5825701 -0.030112073 0.14795952 53 26
1.6253824 -0.031276327 0.074184105 36 24
1.6620978 -0.032322787 0 48 22
1.6691604 0.18564968 -0.038181756 9 21
1.7127571 -0.033674162 -0.078260154 6 20
1.5387324 -0.034578241 0.23528402 12 28
1.5799674 -0.035576589 0.14772163 52 26
1.6277661 -0.036725819 0.074300557 33 24
1.6594821 -0.03777412 0 47 22
1.6747673 0.18036456 -0.03829781 8 21
1.712636 -0.039353684 -0.078260154 6 20
1.5361334 -0.039881539 0.23489767 19 28
1.5823214 -0.041159671 0.14795952 51 26
1.6226356 -0.04227072 0.074067645 42 24
1.6668372 -0.043773357 0 28 22
1.6679302 0.17372976 -0.038123727 8 21
1.7124804 -0.045630544 -0.078260154 7 20
1.5335081 -0.045434758 0.23451132 37 28
1.5871346 -0.047113497 0.14843526 51 26
1.6249658 -0.048295263 0.074184105 50 24
1.6691644 -0.049960416 0 8 22
1.6760151 0.16837566 -0.03829781 8 21
1.7197988 -0.051843263 -0.078609534 27 20
1.5284032 -0.050616745 0.23373863 49 28
1.5794991 -0.052395392 0.14772163 39 26
1.6247873 -0.053967159 0.074184105 50 24
1.634253 0.1589338 0.037311349 8 23
1.663983 -0.055612959 0 6 22
1.6666436 0.16154523 -0.038065702 8 21
1.7121202 -0.057584699 -0.078260154 40 20
1.5306854 -0.056045517 0.23412499 55 28
1.5818036 -0.057727143 0.14795952 31 26
1.624589 -0.059638396 0.074184105 49 24
1.6248456 0.15228046 0.037079241 9 23
1.6737714 -0.06180314 0 6 22
1.6671699 0.15601754 -0.038065702 8 21
1.7094133 -0.063464902 -0.078143694 44 20
1.5304911 -0.061121143 0.23412499 55 28
1.5865654 -0.063454136 0.14843526 12 26
1.6293726 -0.065231934 0.074417017 48 24
1.6378115 0.14774905 0.037369378 9 23
1.6685616 -0.067145593 0 6 22
1.6776601 0.15110837 -0.03829781 8 21
1.7091813 -0.069431476 -0.078143694 44 20
1.5277894 -0.066619076 0.23373863 51 28
1.5838362 -0.069156744 0.1481974 9 26
1.6266277 -0.071091026 0.074300557 48 24
1.640807 0.14225069 0.037427403 9 23
1.6782941 -0.07371261 0 7 22
1.6757129 0.14473973 -0.038239781 8 21
1.7114232 -0.075510494 -0.078260154 43 20
1.5374156 -0.072430834 0.23528402 9 28
1.5860707 -0.07480564 0.14843526 45 26
1.6313584 -0.077010833 0.074533477 48 24
1.6338224 0.13588971 0.037253324 9 23
1.6705353 -0.079205431 0 7 22
1.6737174 0.13867949 -0.038181756 8 21
1.7136434 -0.081606008 -0.078376614 43 20
1.5322202 -0.077540159 0.23451132 7 28
1.5857998 -0.0803416 0.14843526 52 26
1.6084427 0.12864724 0.10983856 4 25
1.6335737 -0.082834698 0.074649937 10 24
1.639269 0.13059014 0.037369378 9 23
1.6752418 -0.085297011 0 7 22
1.6741914 0.1328363 -0.038181756 8 21
1.7133482 -0.087587245 -0.078376614 43 20
1.7854775 -0.092298694 -0.15737183 8 18
1.534421 -0.082757354 0.23489767 7 28
1.5880096 -0.085737482 0.14867315 52 26
1.6014012 0.12272963 0.109318 8 25
1.6457572 -0.08894185 0.07523223 7 24
1.6347313 0.12448026 0.037253324 9 23
1.6699574 -0.090574481 0 32 22
1.6771145 0.1274768 -0.038239781 8 21
1.7180188 -0.093846217 -0.078609534 41 20
1.7801895 -0.097939312 -0.15692475 8 18
1.5415041 -0.088817596 0.2360567 7 28
1.5901691 -0.091703981 0.14891101 52 26
1.6018405 0.11685937 0.109318 9 25
1.6404344 -0.094678789 0.074999318 6 24
1.6376482 0.118958 0.037311349 9 23
1.6671188 -0.096546747 0 47 22
1.6725854 0.12096117 -0.038123727 8 21
1.7276524 -0.10043507 -0.079075366 9 20
1.7798187 -0.10446338 -0.15692475 8 18
1.5436502 -0.094352148 0.23644306 7 28
1.5873723 -0.096821703 0.14867315 52 26
1.607214 0.11162034 0.10966504 9 25
1.6400939 -0.1004044 0.074999318 6 24
1.6430396 0.11359299 0.037427403 9 23
1.6692666 -0.10252203 0 49 22
1.6754704 0.11558966 -0.038181756 8 21
1.7223065 -0.10615148 -0.078842446 7 20
1.7794623 -0.1103649 -0.15692475 8 18
