# .PCD v0.7 - Point Cloud Data file format
VERSION 0.7
FIELDS x y z intensity ring
SIZE 4 4 4 4 2
TYPE F F F F U
COUNT 1 1 1 1 1
WIDTH 1225
HEIGHT 1
VIEWPOINT 0 0 0 1 0 0 0
POINTS 1225
DATA ascii
1.1596122 -0.15245651 -0.026344251 8 21
1.1349659 -0.1492748 -0.076829277 8 19
1.0331509 -0.13867997 0.12299403 6 27
1.0603442 -0.14263541 0.072011061 36 25
1.1591275 -0.15609878 0.026344251 8 23
1.1640282 -0.15716188 -0.026460305 8 21
1.1245489 -0.15192142 -0.076138675 8 19
1.0498745 -0.14461598 0.12511462 6 27
1.0647825 -0.14700675 0.072358102 16 25
1.1684815 -0.16149208 0.026576359 8 23
1.180807 -0.16358946 -0.026866494 8 21
1.1067137 -0.1534856 -0.074930124 8 19
1.0444474 -0.14759684 0.12450874 6 27
1.0815536 -0.15313116 0.073572747 9 25
1.1678817 -0.1657737 0.026576359 8 23
1.1752785 -0.16701716 -0.02675044 8 21
1.1160511 -0.15873106 -0.075620733 8 19
1.0785162 -0.15674108 0.073399231 9 25
1.164822 -0.16949461 0.02651833 8 23
1.1721845 -0.17096803 -0.026692413 8 21
1.0804302 -0.1608666 0.073572747 11 25
1.1840055 -0.17646663 0.026982548 8 23
1.1691383 -0.17449038 -0.026634384 8 21
1.0774243 -0.16407862 0.073399231 20 25
1.1834137 -0.18039197 0.026982548 8 23
1.1660507 -0.17819794 -0.026576359 8 21
1.0793101 -0.16821706 0.073572747 21 25
1.1852146 -0.1851088 0.027040575 8 23
1.1456609 -0.17921859 -0.026112143 8 21
1.0860775 -0.17333449 0.074093312 19 25
1.1820925 -0.18885562 0.026982548 8 23
1.1425275 -0.1830263 -0.026054114 8 21
1.0780787 -0.17593609 0.073572747 10 25
1.1863611 -0.19377646 0.027098602 8 23
1.1369469 -0.18621586 -0.02593806 9 21
1.106989 -0.18455525 0.075654998 8 25
1.1930757 -0.1991359 0.027272681 8 23
1.1190615 -0.18713674 -0.025531873 12 21
1.0916134 -0.18574765 0.074613869 7 25
1.1923733 -0.20329931 0.027272681 8 23
1.1110077 -0.18979529 -0.025357792 31 21
1.0958414 -0.19059122 0.07496091 7 25
1.18673 -0.20661284 0.027156627 8 23
1.1103047 -0.19386606 -0.025357792 46 21
1.0779738 -0.19140176 0.073746271 7 25
1.1933864 -0.2120509 0.02733071 8 23
1.1071597 -0.19730742 -0.025299765 48 21
1.1975592 -0.21709707 0.027446764 8 23
1.1040392 -0.20053649 -0.025241738 32 21
1.1820809 -0.21837293 0.027098602 8 23
1.1057911 -0.20483899 -0.025299765 28 21
1.1640735 -0.21949773 0.026692413 8 23
1.0976985 -0.20732227 -0.025125684 31 21
1.1583894 -0.22262652 0.026576359 7 23
1.1042969 -0.21274656 -0.025299765 20 21
1.150244 -0.22524317 0.026402276 7 23
1.1372302 -0.22663973 0.026112143 7 23
1.116789 -0.22686796 0.025647927 7 23
1.1135415 -0.23026402 0.0255899 7 23
1.112731 -0.23414961 0.0255899 8 23
0.80476087 0.37769637 -0.039828826 26 20
0.80024934 0.33878303 -0.03889716 63 20
0.80603808 0.33790696 -0.039130077 58 20
0.8094629 0.33618423 -0.039246533 68 20
0.81068969 0.33321518 -0.039246533 64 20
0.8033669 0.32712007 0 99 22
0.8095324 0.32944778 -0.039130077 68 20
0.80128992 0.32319006 0.03866424 113 24
0.81067747 0.32662001 -0.039130077 56 20
0.82932121 0.33374745 -0.077121131 5 18
0.80003583 0.3196106 0.038547784 114 24
0.80557489 0.32164422 0 99 22
0.80943435 0.32301018 -0.039013617 54 20
0.83048111 0.33085051 -0.077121131 6 18
0.80114663 0.316816 0.038547784 113 24
0.80436546 0.31791723 0 100 22
0.81061286 0.32004127 -0.039013617 50 20
0.82699364 0.32613412 -0.076674052 8 18
0.80319464 0.31406251 0 100 22
0.80706853 0.31540361 -0.0387807 46 20
0.82353956 0.32130238 -0.076226972 20 18
0.80195218 0.31036055 0 101 22
0.81515872 0.31526932 -0.039130077 46 20
0.82233101 0.31753466 -0.07600344 31 18
0.80213988 0.30738115 0.038431324 108 24
0.80303073 0.30755937 0 101 22
0.82092333 0.31419557 -0.039362993 44 20
0.8257075 0.31568936 -0.076226972 32 18
0.80549192 0.30559939 0.038547784 106 24
0.80872589 0.30665556 0 102 22
0.81494838 0.3088344 -0.039013617 41 20
0.82913554 0.31368044 -0.076450512 35 18
0.80421352 0.3019141 0.038431324 104 24
0.80744851 0.30295846 0 102 22
0.81607485 0.30584541 -0.039013617 41 20
0.8348937 0.31251857 -0.076897591 31 18
0.81665194 0.30314675 0.079926684 7 26
0.81468827 0.30241698 0.03889716 102 24
0.80151522 0.29740602 0 104 22
0.81245011 0.30127028 -0.0387807 45 20
0.82902163 0.30688071 -0.076226972 32 18
0.81536692 0.29944229 0.079688802 8 26
0.81808531 0.30042627 0.039013617 100 24
0.80489755 0.29546186 0 103 22
0.81115007 0.29757836 -0.03866424 39 20
0.82774752 0.30313465 -0.07600344 34 18
0.82147837 0.29841554 0.039130077 100 24
0.81062806 0.29434493 0 104 22
0.82158244 0.29812881 -0.039130077 46 20
0.83109134 0.3012307 -0.076226972 34 18
0.8080101 0.29054114 0.078737296 70 26
0.8177591 0.29401189 0.03889716 98 24
0.81159973 0.29165518 0 105 22
0.82256657 0.29540271 -0.039130077 56 20
0.83448374 0.29916224 -0.076450512 33 18
0.80667251 0.28689104 0.078499421 82 26
0.82349056 0.29281706 0.039130077 98 24
0.81732839 0.29048285 0 107 22
0.83071023 0.29487434 -0.039479453 55 20
0.83317405 0.29542127 -0.076226972 34 18
0.81476837 0.28639024 0.079213053 80 26
0.82220018 0.28897476 0.039013617 98 24
0.81366599 0.28584009 0 105 22
0.83173442 0.29197282 -0.039479453 63 20
0.82719547 0.28991261 -0.07555636 36 18
0.81336093 0.28287536 0.078975171 84 26
0.82320386 0.28610298 0.039013617 97 24
0.82411343 0.28625548 0 108 22
0.83038735 0.28825474 -0.039362993 58 20
0.83521616 0.28959745 -0.076226972 34 18
0.82140982 0.28244424 0.079688802 78 26
0.82414812 0.2833716 0.039013617 96 24
0.82032543 0.28190804 0 109 22
0.83133864 0.28549945 -0.039362993 54 20
0.83386451 0.28587866 -0.07600344 35 18
0.82946551 0.28196028 0.080402434 74 26
0.82749861 0.28129077 0.039130077 96 24
0.82367361 0.2798411 0 109 22
0.80361772 0.39322478 -0.019961281 6 21
0.83469683 0.28339276 -0.039479453 55 20
0.83957773 0.28455296 -0.076450512 34 18
0.84929419 0.28749534 -0.11972716 4 16
0.82577103 0.27734551 0.079926684 78 26
0.84037071 0.28220141 0.039712369 89 24
0.82706583 0.2776098 0 108 22
0.8380996 0.28111979 -0.039595909 70 20
0.84061503 0.28147385 -0.076450512 35 18
0.85739303 0.28671926 -0.12075929 6 16
0.83146191 0.27601761 0.080402434 66 26
0.83897865 0.27848548 0.039595909 81 24
0.82328022 0.27315861 0 107 22
0.83670342 0.27741259 -0.039479453 75 20
0.84632409 0.28009075 -0.076897591 37 18
0.86309469 0.28526738 -0.12144738 15 16
0.8276397 0.27171826 0.079926684 56 26
0.83994561 0.27555519 0.039595909 78 24
0.82422876 0.27028316 0 105 22
0.83529162 0.27371857 -0.039362993 82 20
0.84961659 0.27805132 -0.077121131 39 18
0.84754705 0.27705887 -0.11903907 27 16
0.83332145 0.27035168 0.080402434 51 26
0.8432321 0.27353296 0.039712369 78 24
0.82512045 0.26754844 0 101 22
0.83857232 0.27171093 -0.039479453 84 20
0.85058206 0.27508393 -0.077121131 41 18
0.85322541 0.27560934 -0.11972716 29 16
0.83426005 0.26744118 0.080402434 51 26
0.84656179 0.27134421 0.039828826 68 24
0.83081478 0.26618013 0 99 22
0.83718222 0.2678805 -0.039362993 84 20
0.84916341 0.27136108 -0.076897591 63 18
0.86362553 0.27561766 -0.12110333 28 16
0.8399837 0.26587173 0.080878191 49 26
0.84755063 0.26823956 0.039828826 64 24
0.82939929 0.26238522 0 98 22
0.84049517 0.26570335 -0.039479453 83 20
0.85490519 0.26973364 -0.077344678 71 18
0.86226636 0.27171201 -0.12075929 25 16
0.8337298 0.26087332 0.080164559 49 26
0.84371114 0.26380086 0.039595909 63 24
0.83269823 0.26022819 0 98 22
0.83903193 0.26202941 -0.039362993 86 20
0.85103709 0.26542625 -0.076897591 76 18
0.86789465 0.27031234 -0.12144738 25 16
0.80026877 0.24744761 0.12556209 6 28
0.83939439 0.25941917 0.080640309 43 26
0.84696901 0.26173294 0.039712369 58 24
0.8359471 0.25819719 0 95 22
0.8398962 0.25924563 -0.039362993 83 20
0.85672134 0.26390833 -0.077344678 75 18
0.86646438 0.26655883 -0.12110333 25 16
0.81294852 0.24822833 0.1274938 8 28
0.84029484 0.25648758 0.080640309 41 26
0.85265815 0.26022094 0.039945286 54 24
0.83684331 0.2552776 0 93 22
0.85040355 0.25905269 -0.039828826 80 20
0.85286939 0.25947845 -0.076897591 78 18
0.87213165 0.2649608 -0.12179142 25 16
0.82331991 0.24807291 0.12903918 26 28
0.83645993 0.25198239 0.080164559 39 26
0.85121322 0.25637978 0.039828826 55 24
0.84016901 0.25292334 0 75 22
0.84890944 0.25536919 -0.039712369 69 20
0.85858792 0.25777104 -0.077344678 73 18
0.86597598 0.25964642 -0.12075929 25 16
0.82181162 0.24449927 0.12865284 39 28
0.83733433 0.24906106 0.080164559 40 26
0.84731203 0.25199509 0.039595909 52 24
0.84344494 0.25069535 0 61 22
0.85219139 0.25310948 -0.039828826 29 20
0.8028537 0.35510457 -0.058355723 9 19
0.85709339 0.25407064 -0.077121131 77 18
0.87875748 0.26010734 -0.12247951 27 16
0.8321467 0.24438883 0.13019821 38 28
0.84058833 0.24683183 0.080402434 40 26
0.84818661 0.24903588 0.039595909 49 24
0.84671539 0.24844754 0 60 22
0.86506039 0.25361684 -0.040411122 12 20
0.86275804 0.25246415 -0.077568218 77 18
0.87014604 0.25428325 -0.12110333 29 16
0.85194397 0.24708445 0.13328896 37 28
0.84857786 0.24610464 0.081116065 39 26
0.84900779 0.24622181 0.039595909 48 24
0.84032595 0.24356855 0 73 22
0.86349624 0.25005803 -0.040294662 9 20
0.86359048 0.24960175 -0.077568218 72 18
0.87336534 0.25207722 -0.12144738 29 16
0.85517758 0.24478288 0.13367532 37 28
0.83985466 0.2404256 0.080164559 38 26
0.85226458 0.24393794 0.039712369 46 24
0.84117109 0.2406338 0 79 22
0.86921281 0.24825142 -0.040527578 8 20
0.86206037 0.2459086 -0.077344678 37 18
0.87185675 0.24835449 -0.12110333 30 16
0.86558402 0.24430707 0.13522071 37 28
0.85271388 0.24069619 0.08135394 32 26
0.85315293 0.24081261 0.039712369 37 24
0.84927076 0.23956728 0 81 22
0.80018866 0.3406302 -0.019381013 64 21
0.86766875 0.24454422 -0.040411122 8 20
0.86775315 0.24408406 -0.077791758 24 18
0.8775323 0.24648497 -0.12179142 29 16
0.86405045 0.24062738 0.13483436 36 28
0.85110849 0.23720503 0.081116065 33 26
0.85880315 0.23916109 0.039945286 36 24
0.85010177 0.23660132 0 85 22
0.80131382 0.33797482 -0.019381013 67 21
0.87333232 0.24284033 -0.040644038 9 20
0.86855775 0.24120514 -0.077791758 20 18
0.87356931 0.2422618 -0.12110333 30 16
0.86961013 0.23905846 0.13560705 36 28
0.8567338 0.23554017 0.081591815 34 26
0.8475436 0.23303178 0.039362993 37 24
0.8508817 0.23378098 0 84 22
0.80709571 0.33711511 -0.019497067 66 21
0.86449349 0.23732217 -0.040178202 11 20
0.80086064 0.33448365 -0.057665121 28 19
0.8717975 0.23882382 -0.078015298 38 18
0.87918973 0.24050614 -0.12179142 31 16
0.86089736 0.2334594 0.13406166 36 28
0.86476129 0.2344843 0.082305454 34 26
0.84593999 0.22942427 0.039246533 38 24
0.85169262 0.23080944 0 85 22
0.81057447 0.33525744 -0.019555094 69 21
0.87018198 0.23544475 -0.040411122 12 20
0.80432534 0.33264574 -0.057837773 27 19
0.87503123 0.23642287 -0.078238837 73 18
0.86806256 0.23423964 -0.1200712 35 16
0.85697168 0.22903892 0.13328896 36 28
0.86320913 0.23067667 0.082067572 33 26
0.84918946 0.22696097 0.039362993 37 24
0.80013138 0.32779747 0.019264959 103 23
0.85494977 0.22832529 0 85 22
0.80717707 0.33037782 -0.01943904 73 21
0.87099856 0.23240583 -0.040411122 13 20
0.80323362 0.32874429 -0.057665121 26 19
0.87107646 0.23194453 -0.077791758 82 18
0.87370443 0.23231734 -0.12075929 37 16
0.86493593 0.22791645 0.13444801 34 28
0.87600911 0.23095576 0.08325696 32 26
0.80643791 0.32743704 0.058129411 8 25
0.84997654 0.22399536 0.039362993 39 24
0.85090321 0.22407839 0 86 22
0.80826819 0.32769933 -0.01943904 75 21
0.86938787 0.22873457 -0.040294662 20 20
0.80437624 0.32593849 -0.057665121 25 19
0.87184083 0.22905466 -0.077791758 82 18
0.8768667 0.23004125 -0.12110333 58 16
0.86090291 0.22381598 0.13367532 33 28
0.87680995 0.22789651 0.08325696 32 26
0.85313308 0.22179782 0.039479453 36 24
0.85890538 0.22312316 0 84 22
0.80940711 0.32487592 -0.01943904 74 21
0.87497902 0.22709326 -0.040527578 38 20
0.81007659 0.32514027 -0.058010422 25 19
0.87987095 0.22786516 -0.078462377 82 18
0.88486087 0.22882143 -0.12213546 69 16
0.8616789 0.22080949 0.13367532 27 28
0.88966167 0.22789323 0.084446348 30 26
0.80170459 0.31915322 0.05760885 20 25
0.8514815 0.2182046 0.039362993 39 24
0.85483211 0.21889545 0 85 22
0.81285632 0.32297799 -0.019497067 77 21
0.86854249 0.22204696 -0.040178202 68 20
0.81120658 0.3223106 -0.058010422 23 19
0.8758328 0.22357249 -0.078015298 82 18
0.88565427 0.2257313 -0.12213546 70 16
0.86727518 0.21884653 0.13444801 29 28
0.88807642 0.22402804 0.084208466 29 26
0.85227549 0.2150823 0.039362993 39 24
0.85805434 0.21636608 0 83 22
0.81635809 0.32091743 -0.019555094 76 21
0.87173545 0.21961799 -0.040294662 75 20
0.80542672 0.31657845 -0.057492472 24 19
0.87906265 0.22096203 -0.078238837 81 18
0.89128202 0.22367759 -0.12282355 69 16
0.87043226 0.21640787 0.13483436 31 28
0.90093601 0.22389905 0.085397854 29 26
0.85302114 0.21210602 0.039362993 43 24
0.86365986 0.21456312 0 80 22
0.81747341 0.31806588 -0.019555094 77 21
0.87249672 0.21657373 -0.040294662 78 20
0.81349224 0.3164975 -0.058010422 31 19
0.88224709 0.21848486 -0.078462377 80 18
0.88724685 0.21938796 -0.12213546 70 16
0.86878186 0.21278654 0.13444801 30 28
0.89683646 0.21973731 0.084922098 29 26
0.86103743 0.21089129 0.039712369 63 24
0.86197376 0.21095879 0 78 22
0.81852359 0.31535324 -0.019555094 77 21
0.87810194 0.21470127 -0.040527578 76 20
0.81691694 0.31455868 -0.05818307 34 19
0.88538706 0.21614268 -0.078685917 79 18
0.89037669 0.21702512 -0.12247951 69 16
0.87188518 0.21047804 0.13483436 28 28
0.90243918 0.21776143 0.085397854 28 26
0.86416107 0.20861484 0.039828826 74 24
0.85780513 0.20693879 0 78 22
0.81961942 0.31249413 -0.019555094 75 21
0.87398744 0.21047734 -0.040294662 76 20
0.82261139 0.31363794 -0.058528371 35 19
0.88371378 0.21247458 -0.078462377 81 18
0.88871962 0.21334361 -0.12213546 67 16
0.87024617 0.20671616 0.13444801 30 28
0.90323126 0.21445237 0.085397854 27 26
0.80021423 0.30230787 0.057088286 99 25
0.86735094 0.20601723 0.039945286 77 24
0.80430043 0.30355039 0.019148905 115 23
0.86585933 0.20550728 0 70 22
0.81842315 0.30859968 -0.019497067 72 21
0.87714815 0.2079955 -0.040411122 75 20
0.82142425 0.30973437 -0.058355723 38 19
0.88691109 0.20980151 -0.078685917 80 18
0.89431816 0.21121155 -0.12282355 66 16
0.87336898 0.20423363 0.13483436 27 28
0.89427572 0.20905551 0.084446348 27 26
0.80126464 0.29951277 0.057088286 98 25
0.86806482 0.20298837 0.039945286 81 24
0.80769408 0.301622 0.019206932 113 23
0.86413556 0.20192082 0 32 22
0.82417381 0.30750132 -0.019613121 70 21
0.87786883 0.20493242 -0.040411122 57 20
0.82483464 0.30774349 -0.058528371 41 19
0.89249092 0.20782204 -0.079132989 75 18
0.88539702 0.20586883 -0.12144738 60 16
0.84107983 0.19338478 0.19164202 7 30
0.87166816 0.20063569 0.13444801 27 28
0.89253747 0.20553622 0.084208466 28 26
0.80230522 0.29671401 0.057088286 97 25
0.87363815 0.20106526 0.040178202 76 24
0.80640006 0.29792795 0.019148905 112 23
0.87458622 0.20112038 0 10 22
0.82518893 0.3047666 -0.019613121 71 21
0.87614357 0.20131359 -0.040294662 23 20
0.82122928 0.30312207 -0.05818307 42 19
0.89317524 0.20486128 -0.079132989 76 18
0.85989237 0.31750962 -0.10092954 6 17
0.89090496 0.20402545 -0.12213546 31 16
0.84647024 0.19165806 0.19276932 10 30
0.87714905 0.19882417 0.13522071 28 28
0.8835358 0.2002428 0.08325696 29 26
0.80796385 0.29577988 0.05743533 96 25
0.87673706 0.19871312 0.040294662 81 24
0.80738354 0.29525217 0.019148905 110 23
0.87768805 0.19876525 0 6 22
0.8285929 0.3027485 -0.019671148 68 21
0.8865546 0.20058784 -0.040760498 8 20
0.81988978 0.29953471 -0.058010422 39 19
0.8963151 0.2022846 -0.079356529 76 18
0.84462667 0.30864432 -0.098939389 18 17
0.90127951 0.20306829 -0.12351163 11 16
0.86854261 0.19341303 0.1978422 27 30
0.87301362 0.19469784 0.13444801 28 28
0.87936866 0.19608611 0.082781211 29 26
0.81133378 0.29381359 0.05760885 96 25
0.87742537 0.19565153 0.040294662 80 24
0.8108083 0.2931475 0.019206932 109 23
0.87593496 0.19516264 0 6 22
0.82964456 0.29985434 -0.019671148 68 21
0.88972282 0.19787335 -0.040876955 6 20
0.82093036 0.29667094 -0.058010422 39 19
0.89458364 0.19862081 -0.079132989 78 18
0.85742062 0.30979812 -0.10036093 18 17
0.89472646 0.19833086 -0.12247951 6 16
0.88591009 0.19383132 0.20178777 29 30
0.87372136 0.19149679 0.13444801 28 28
0.87035233 0.19075468 0.081829697 30 26
0.80302268 0.28744891 0.056914765 98 25
0.87813652 0.1924343 0.040294662 80 24
0.80947566 0.28946716 0.019148905 105 23
0.87664443 0.19195087 0 5 22
0.82838684 0.29596409 -0.019613121 68 21
0.88308549 0.19318323 -0.040527578 6 20
0.82670474 0.29535139 -0.058355723 41 19
0.89773965 0.19586559 -0.079356529 78 18
0.85148686 0.30427676 -0.099508002 19 17
0.90028882 0.19609256 -0.12316759 6 16
0.84846276 0.1826354 0.19276932 27 30
0.8768003 0.18896013 0.13483436 26 28
0.87584817 0.18890485 0.082305454 30 26
0.80636978 0.28548318 0.057088286 98 25
0.87880296 0.18936785 0.040294662 82 24
0.81989688 0.28999999 0.019381013 105 23
0.88709027 0.19097048 0 6 22
0.8293637 0.29321542 -0.019613121 68 21
0.88863987 0.19113792 -0.040760498 6 20
0.83007985 0.29330125 -0.058528371 49 19
0.89351267 0.19185381 -0.078909449 80 18
0.85020423 0.30046865 -0.099223696 22 17
0.89851171 0.19259287 -0.12282355 7 16
0.87052041 0.18430725 0.1978422 30 30
0.87500459 0.18554516 0.13444801 26 28
0.80337113 0.28172308 0.099667571 5 27
0.85945165 0.18227501 0.080640309 34 26
0.8143661 0.28530139 0.05760885 96 25
0.88187027 0.18696454 0.040411122 61 24
0.82085401 0.28727952 0.019381013 103 23
0.89261264 0.18905191 0 7 22
0.82802516 0.28948721 -0.019555094 58 21
0.89415765 0.18921228 -0.040993415 6 20
0.82869601 0.28971738 -0.058355723 61 19
0.90392709 0.19076705 -0.079803608 44 18
0.85588056 0.2993001 -0.099792317 23 17
0.90887547 0.19147404 -0.12419972 8 16
0.85207206 0.17734608 0.19333297 23 30
0.87806618 0.18298762 0.13483436 27 28
0.82074547 0.28465557 0.10178816 6 27
0.86252022 0.17977555 0.080878191 35 26
0.81535703 0.28245699 0.05760885 95 25
0.88007158 0.18338168 0.040294662 73 24
0.817182 0.2826218 0.019264959 101 23
0.88836962 0.18492787 0 8 22
0.83139056 0.28741831 -0.019613121 68 21
0.89484513 0.18593375 -0.040993415 8 20
0.83205706 0.28764436 -0.058528371 64 19
0.90214819 0.18711077 -0.079580069 73 18
0.84759051 0.29289058 -0.098655082 25 17
0.90468633 0.18730786 -0.12351163 10 16
0.85271633 0.1742219 0.19333297 24 30
0.87630993 0.17927907 0.13444801 26 28
0.85829461 0.17562756 0.080402434 38 26
0.82110131 0.28109547 0.057955891 91 25
0.88563347 0.18114376 0.040527578 79 24
0.81816345 0.2797676 0.019264959 99 23
0.88904142 0.18167059 0 9 22
0.8348012 0.28518367 -0.019671148 75 21
0.90528071 0.18478344 -0.041459247 8 20
0.83546364 0.28540558 -0.05870102 66 19
0.89794564 0.1828212 -0.079132989 79 18
0.85565221 0.29235849 -0.099508002 24 17
0.90779454 0.18447809 -0.12385568 11 16
0.86526555 0.17360972 0.19615124 20 30
0.87450761 0.17573848 0.13406166 24 28
0.80162883 0.27154818 0.09906169 39 27
0.86866671 0.1745674 0.08135394 45 26
0.82443762 0.27903381 0.058129411 87 25
0.8887099 0.17853712 0.040644038 80 24
0.81913507 0.27690995 0.019264959 97 23
0.89212245 0.17905216 0 11 22
0.83106029 0.28065538 -0.019555094 81 21
0.90347058 0.18113725 -0.041342791 9 20
0.83409411 0.28168294 -0.058528371 68 19
0.90102124 0.18016803 -0.079356529 79 18
0.85196561 0.28776744 -0.098939389 26 17
0.91086245 0.18178701 -0.12419972 14 16
0.86108446 0.16965885 0.19502394 18 30
0.86784244 0.17126839 0.13290262 23 28
0.80257177 0.26874831 0.09906169 47 27
0.8643555 0.17073359 0.080878191 65 26
0.83013231 0.27775016 0.058476452 79 25
0.8893277 0.17543386 0.040644038 79 24
0.82246494 0.27484781 0.019322986 96 23
0.88783407 0.17498209 0 13 22
0.83672303 0.27949479 -0.019671148 87 21
0.90409732 0.17798243 -0.041342791 10 20
0.84216273 0.28115866 -0.059046321 68 19
0.90894699 0.17860192 -0.080027148 81 18
0.85767233 0.28637785 -0.099508002 25 17
0.90902919 0.1782947 -0.12385568 18 16
0.85207272 0.16497521 0.19276932 17 30
0.86840564 0.16838957 0.13290262 23 28
0.80581206 0.26687241 0.099364631 63 27
0.87227917 0.1691182 0.081591815 74 26
0.83341426 0.27578595 0.058649972 73 25
0.8899045 0.17248377 0.040644038 79 24
0.81867737 0.27039406 0.019206932 96 23
0.88104272 0.17062901 0 16 22
0.83295137 0.27499211 -0.019555094 89 21
0.89244783 0.17248574 -0.040760498 11 20
0.83835822 0.27678746 -0.05870102 71 19
0.90467274 0.17449658 -0.079580069 82 18
0.85866678 0.28338224 -0.099508002 26 17
0.91451138 0.17604512 -0.12454376 49 16
0.8550657 0.16229913 0.19333297 19 30
0.87144458 0.16566078 0.13328896 22 28
0.81149745 0.2654739 0.099970512 60 27
0.8704471 0.16546135 0.08135394 75 26
0.83205116 0.27194804 0.058476452 68 25
0.89053077 0.16922095 0.040644038 81 24
0.82911116 0.27066386 0.01943904 92 23
0.88903403 0.16877963 0 34 22
0.83870161 0.27350023 -0.019671148 74 21
0.90040845 0.17074759 -0.041109871 11 20
0.84410501 0.27527246 -0.059046321 68 19
0.91020167 0.17209311 -0.080027148 80 18
0.86201006 0.28115982 -0.099792317 27 17
0.91271615 0.17223869 -0.12419972 71 16
0.85323143 0.15887374 0.19276932 20 30
0.87444687 0.1630646 0.13367532 21 28
0.81477821 0.26340976 0.10027345 64 27
0.8808099 0.16422234 0.082305454 70 26
0.83536637 0.26981512 0.058649972 59 25
0.88865995 0.16565973 0.040527578 80 24
0.82767445 0.26699406 0.019381013 93 23
0.88470006 0.16477183 0 70 22
0.84202796 0.27134413 -0.019729175 69 21
0.89117396 0.16580032 -0.040644038 35 20
0.84268916 0.2715528 -0.058873672 64 19
0.90589821 0.16801845 -0.079580069 84 18
0.8582623 0.27661243 -0.099223696 26 17
0.92061961 0.17038631 -0.12523185 75 16
0.86576647 0.158051 0.19558759 18 30
0.86771828 0.15869647 0.13251628 22 28
0.81805444 0.26132596 0.10057639 54 27
0.87645137 0.16041659 0.081829697 71 26
0.83392942 0.26613268 0.058476452 61 25
0.88923275 0.16255671 0.040527578 82 24
0.83335966 0.26563472 0.019497067 85 23
0.89019066 0.16256891 0 78 22
0.84292316 0.26855037 -0.019729175 70 21
0.90157855 0.16445747 -0.041109871 67 20
0.83650881 0.2663199 -0.058355723 52 19
0.91625357 0.1667738 -0.080474228 80 18
0.86395186 0.27513507 -0.099792317 26 17
0.91386735 0.16602209 -0.12419972 80 16
0.86628592 0.15517916 0.19558759 19 30
0.87310427 0.15667851 0.13328896 21 28
0.823645 0.26011992 0.10118228 57 27
0.8794567 0.15778968 0.082067572 69 26
0.83243102 0.26260877 0.058302931 59 25
0.89222604 0.16004196 0.040644038 82 24
0.84138095 0.26514313 0.019671148 74 23
0.88826299 0.15918107 0 78 22
0.84385544 0.26560634 -0.019729175 72 21
0.90457821 0.16190089 -0.041226331 70 20
0.83738732 0.26354444 -0.058355723 28 19
0.90947318 0.16227989 -0.079803608 81 18
0.86485952 0.27226856 -0.099792317 26 17
0.921758 0.16411595 -0.12523185 75 16
0.8572222 0.15049435 0.19333297 20 30
0.87851334 0.15447323 0.13406166 23 28
0.81744742 0.25500584 0.10027345 52 27
0.88735855 0.15599346 0.082781211 63 26
0.83810049 0.26119885 0.058649972 55 25
0.90262181 0.15863194 0.041109871 77 24
0.83519387 0.25981033 0.019497067 77 23
0.89373994 0.15693225 0 78 22
0.83762378 0.2604132 -0.019555094 74 21
0.91254807 0.15985954 -0.041575707 75 20
0.83830214 0.26061982 -0.058355723 16 19
0.91984934 0.16079609 -0.080697767 79 18
0.85874206 0.26686615 -0.098939389 28 17
0.91500419 0.15963809 -0.12419972 71 16
0.86737406 0.14897621 0.19558759 20 30
0.87420309 0.15042675 0.13328896 24 28
0.82785487 0.25495654 0.10148522 47 27
0.883017 0.15190831 0.082305454 64 26
0.84381551 0.25960526 0.058997013 51 25
0.89827281 0.15448794 0.040876955 79 24
0.84325671 0.25911555 0.019671148 55 23
0.89184427 0.15323813 0 78 22
0.84095991 0.25808132 -0.019613121 75 21
0.90571356 0.15542376 -0.041226331 66 20
0.84401619 0.25902218 -0.05870102 10 19
0.91797715 0.15700963 -0.080474228 78 18
0.86678571 0.26607287 -0.099792317 31 17
0.91558307 0.15628338 -0.12419972 68 16
0.86548597 0.1455498 0.19502394 20 30
0.88203287 0.14858706 0.13444801 24 28
0.82399553 0.25060755 0.10087934 39 27
0.89333594 0.15061027 0.08325696 50 26
0.84710079 0.2573899 0.059170533 49 25
0.89880657 0.15135144 0.040876955 77 24
0.8465457 0.25690287 0.019729175 52 23
0.89237374 0.15012407 0 77 22
0.84659058 0.25675514 -0.019729175 74 21
0.90132314 0.15144557 -0.040993415 24 20
0.85683924 0.25972456 -0.05956427 7 19
0.9135794 0.15315299 -0.080027148 79 18
0.8605842 0.26086456 -0.098939389 35 17
0.92586923 0.1548572 -0.1255759 69 16
0.87558079 0.14423828 0.19727854 19 30
0.88983476 0.14684987 0.13560705 26 28
0.82957113 0.24931565 0.10148522 38 27
0.88157403 0.14549515 0.082067572 27 26
0.8574962 0.25747436 0.059864614 40 25
0.90176851 0.14877063 0.040993415 76 24
0.84978497 0.25481871 0.019787202 49 23
0.90273744 0.14876629 0 56 22
0.84508938 0.2530748 -0.019671148 77 21
0.91414583 0.15045433 -0.041575707 8 20
0.85530859 0.25615963 -0.059391622 5 19
0.91656655 0.15036032 -0.080250688 78 18
0.86857671 0.26016673 -0.099792317 37 17
0.92151499 0.15083601 -0.12488781 68 16
0.88502902 0.26546124 -0.15501083 4 15
0.8760789 0.14118105 0.19727854 17 30
0.88302374 0.14257987 0.13444801 31 28
0.83519042 0.24784379 0.1020911 35 27
0.88945001 0.1435888 0.082781211 8 26
0.84883314 0.25161794 0.059170533 40 25
0.90474862 0.1460139 0.041109871 76 24
0.84588021 0.2504186 0.019671148 47 23
0.90078205 0.14522231 0 20 22
0.85554677 0.25298443 -0.019903254 72 21
0.90726602 0.14608917 -0.041226331 6 20
0.86097699 0.25460002 -0.059736926 5 19
0.9220047 0.14793731 -0.080697767 74 18
0.87661916 0.25926572 -0.10064524 51 17
0.92448187 0.14800406 -0.12523185 64 16
0.88595027 0.26237029 -0.15501083 9 15
0.87418348 0.1375965 0.19671489 18 30
0.88598114 0.1397212 0.13483436 32 28
0.83371359 0.24407703 0.10178816 32 27
0.8948642 0.1412472 0.08325696 6 26
0.8545332 0.24991845 0.059517574 38 25
0.90281004 0.14231396 0.040993415 79 24
0.84439528 0.24660929 0.019613121 46 23
0.91119039 0.14345136 0 8 22
0.85402733 0.24928957 -0.019845227 74 21
0.91519904 0.14390904 -0.041575707 6 20
0.85951203 0.25073767 -0.05956427 5 19
0.92005473 0.14433794 -0.080474228 78 18
0.87518108 0.25534892 -0.10036093 60 17
0.92499286 0.14477612 -0.12523185 34 16
0.88454378 0.25842434 -0.15458144 13 15
1.0249807 0.15857832 -0.28682721 10 13
0.87463498 0.13469684 0.19671489 17 30
0.88643968 0.13678241 0.13483436 35 28
0.83451837 0.24131098 0.10178816 33 27
0.90027273 0.13886952 0.083732717 5 26
0.85296321 0.24638459 0.059344053 38 25
0.90574592 0.13969406 0.041109871 78 24
0.84045172 0.24226236 0.019497067 46 23
0.90671754 0.13967955 0 7 22
0.85489231 0.24630693 -0.019845227 74 21
0.91816497 0.14108695 -0.041692164 5 20
0.86512804 0.24928017 -0.059909575 5 19
0.92547715 0.14186843 -0.080921307 76 18
0.8760671 0.25229239 -0.10036093 65 17
0.92794114 0.14191498 -0.1255759 20 16
0.88780499 0.25602391 -0.15501083 15 15
1.0350372 0.15641557 -0.28957853 14 13
0.87030381 0.13077863 0.19558759 16 30
0.87716162 0.13208583 0.13328896 38 28
0.83539718 0.2382507 0.10178816 34 27
0.89092833 0.13411132 0.082781211 5 26
0.85625714 0.24394663 0.059517574 37 25
0.90378153 0.13600773 0.040993415 76 24
0.84609634 0.24070835 0.019613121 41 23
0.91711587 0.1378179 0 7 22
0.8557893 0.24317195 -0.019845227 74 21
0.91371089 0.13715148 -0.041459247 5 20
0.86363876 0.24541935 -0.059736926 5 19
0.92106402 0.13775054 -0.080474228 35 18
0.88171709 0.25060374 -0.10092954 69 17
0.92845505 0.13851294 -0.1255759 14 16
0.87212455 0.2481598 -0.15200509 16 15
1.0474693 0.15453023 -0.29301769 15 13
0.87316579 0.1280873 0.19615124 18 30
0.88250655 0.12972943 0.13406166 40 28
0.83861065 0.23601219 0.1020911 33 27
0.9012202 0.1325811 0.083732717 7 26
0.85230541 0.2395931 0.059170533 35 25
0.89930749 0.13213801 0.040760498 37 24
0.85174018 0.23911783 0.019729175 39 23
0.91759133 0.13461572 0 9 22
0.85659099 0.24033271 -0.019845227 74 21
0.91665584 0.13431738 -0.041575707 6 20
0.87168884 0.24444295 -0.060254876 5 19
0.93137431 0.13611254 -0.081368387 20 18
0.88258648 0.24752446 -0.10092954 70 17
0.92890924 0.13543332 -0.1255759 14 16
0.88483208 0.24847518 -0.15415205 19 15
1.0575212 0.1522226 -0.29576904 15 13
0.8735857 0.12519106 0.19615124 16 30
0.86825734 0.12473202 0.1317436 56 28
0.83699954 0.23255885 0.10178816 33 27
0.90414172 0.12978211 0.083970591 8 26
0.85549647 0.23743904 0.059344053 34 25
0.90715909 0.13020162 0.041109871 27 24
0.85493517 0.23696625 0.019787202 38 23
0.92298377 0.13226974 0 9 22
0.85742468 0.23734118 -0.019845227 75 21
0.92204207 0.13197286 -0.041808624 5 20
0.87009287 0.24087901 -0.060082223 6 19
0.93677551 0.13355197 -0.081815466 19 18
0.88101047 0.24392712 -0.10064524 74 17
0.94163811 0.13390456 -0.12729611 15 16
0.89039427 0.24686836 -0.15501083 19 15
1.048497 0.1473968 -0.29301769 16 13
0.88125646 0.12313385 0.1978422 16 30
0.83601487 0.22989918 0.16054887 9 29
0.87113446 0.12203698 0.13212994 75 28
0.84019768 0.2302985 0.1020911 33 27
0.89965838 0.12594719 0.083494842 9 26
0.85391647 0.23378614 0.059170533 33 25
0.9100821 0.12737447 0.041226331 69 24
0.85097969 0.23250039 0.019671148 46 23
0.91353285 0.1276865 0 12 22
0.86306643 0.23567674 -0.019961281 73 21
0.91509706 0.12757577 -0.041459247 7 20
0.8661201 0.23651324 -0.059736926 7 19
0.93970305 0.13061827 -0.082039006 45 18
0.88429302 0.24135685 -0.10092954 73 17
0.93473923 0.12961374 -0.12626398 21 16
0.89841503 0.2455703 -0.15629901 19 15
1.0561762 0.14451525 -0.2950812 16 13
0.87445915 0.11893667 0.19615124 16 30
0.82264757 0.22293963 0.15770729 21 29
0.87157583 0.11884328 0.13212994 80 28
0.84343004 0.22787146 0.10239404 32 27
0.90011406 0.12264893 0.083494842 9 26
0.85717368 0.2313112 0.059344053 32 25
0.90806758 0.12370685 0.041109871 80 24
0.85178602 0.2295285 0.019671148 57 23
0.90656078 0.12334415 0 15 22
0.85910112 0.23119955 -0.019845227 75 21
0.92296278 0.12537156 -0.041808624 7 20
0.87420082 0.23530141 -0.060254876 8 19
0.93523896 0.12651716 -0.081591927 78 18
0.88513011 0.23826861 -0.10092954 73 17
0.93520796 0.12618689 -0.12626398 61 16
0.89451426 0.24113798 -0.15544023 20 15
1.0447586 0.13926527 -0.29164201 16 13
0.88211501 0.1168246 0.1978422 10 30
0.82579041 0.22070742 0.15818089 22 29
0.87933326 0.11675712 0.13328896 82 28
0.84422028 0.22492597 0.10239404 32 27
0.9104079 0.12079176 0.084446348 10 26
0.86038417 0.22896571 0.059517574 30 25
0.91344661 0.12118135 0.041342791 81 24
0.8525821 0.2265538 0.019671148 64 23
0.90946496 0.12050134 0 17 22
0.86231685 0.22884704 -0.019903254 73 21
0.92587125 0.12247068 -0.04192508 8 20
0.8677904 0.23030941 -0.059736926 9 19
0.93073601 0.12261299 -0.081144847 84 18
0.88835537 0.23582117 -0.10121386 73 17
0.93564278 0.12292163 -0.12626398 78 16
0.90486449 0.24057043 -0.15715779 20 15
1.0452384 0.13561752 -0.29164201 18 13
0.88010103 0.11343948 0.19727854 19 30
0.84078693 0.22161813 0.16102245 26 29
0.87728512 0.11337654 0.13290262 79 28
0.84500027 0.22197771 0.10239404 31 27
0.90586567 0.11714566 0.083970591 11 26
0.86117816 0.22596101 0.059517574 30 25
0.91634154 0.11830594 0.041459247 85 24
0.85095173 0.22293623 0.019613121 71 23
0.90491956 0.11669844 0 35 22
0.86307102 0.22598624 -0.019903254 74 21
0.93372595 0.12017703 -0.042274456 8 20
0.86617792 0.22664092 -0.05956427 10 19
0.93854892 0.12045952 -0.081815466 82 18
0.8843708 0.23144819 -0.10064524 74 17
0.9458729 0.1210528 -0.12764016 77 16
0.90331799 0.2367796 -0.1567284 20 15
1.0385498 0.13108066 -0.28957853 18 13
0.88288975 0.11081758 0.1978422 20 30
0.851013 0.22132702 0.16291684 26 29
0.87765622 0.11046674 0.13290262 75 28
0.85773396 0.22232087 0.10390875 30 27
0.90873903 0.11428748 0.084208466 10 26
0.85468477 0.2212092 0.058997013 30 25
0.91920733 0.11557224 0.041575707 84 24
0.8565225 0.22137739 0.019729175 73 23
0.91026407 0.11430806 0 79 22
0.86143631 0.22234091 -0.019845227 75 21
0.92916214 0.11647047 -0.04204154 8 20
0.85968518 0.22187753 -0.059046321 22 19
0.93896365 0.11718264 -0.081815466 84 18
0.88513339 0.22851424 -0.10064524 74 17
0.94628966 0.11775035 -0.12764016 81 16
0.89456713 0.23129125 -0.15501083 21 15
1.0413649 0.12792389 -0.29026636 19 13
0.88327122 0.10773505 0.1978422 18 30
0.85653269 0.21958764 0.16386405 28 29
0.8780365 0.10740247 0.13290262 72 28
0.85610217 0.21870457 0.10360581 30 27
0.89924842 0.10993084 0.08325696 29 26
0.86028141 0.2194708 0.059344053 29 25
0.91712558 0.11206591 0.041459247 85 24
0.85974848 0.21885984 0.019787202 70 23
0.91562212 0.11172371 0 84 22
0.86704814 0.22057825 -0.019961281 73 21
0.92958272 0.11306415 -0.04204154 8 20
0.86528516 0.22011833 -0.059391622 50 19
0.93442184 0.11331641 -0.081368387 86 18
0.88837057 0.22588705 -0.10092954 74 17
0.94669491 0.11444647 -0.12764016 82 16
0.90017891 0.22923924 -0.15586962 21 15
1.0322777 0.12298956 -0.28751501 22 13
0.88607967 0.10477691 0.19840586 14 30
0.86446679 0.21826948 0.16528483 27 29
0.87842423 0.10418359 0.13290262 68 28
0.86651766 0.21801376 0.10481758 31 27
0.90211737 0.1069211 0.083494842 61 26
0.85624576 0.21508759 0.058997013 29 25
0.92249137 0.10927953 0.041692164 83 24
0.85566211 0.2146278 0.019671148 70 23
0.91850895 0.1086548 0 83 22
0.86785078 0.21739888 -0.019961281 74 21
0.92501026 0.10924454 -0.041808624 30 20
0.86850375 0.21755807 -0.05956427 59 19
0.9373045 0.11017572 -0.081591927 83 18
0.89156133 0.22339483 -0.10121386 70 17
0.94710803 0.1109759 -0.12764016 83 16
0.89619929 0.22488399 -0.15501083 22 15
1.0327008 0.11938549 -0.28751501 22 13
0.90096271 0.10331226 0.20178777 13 30
0.8676039 0.21584988 0.16575842 27 29
0.87632799 0.10084049 0.13251628 64 28
0.86005223 0.21317658 0.10390875 30 27
0.90246707 0.10392898 0.083494842 64 26
0.86182988 0.21330918 0.059344053 29 25
0.92286724 0.10605876 0.041692164 84 24
0.86368006 0.2134587 0.019845227 68 23
0.90894508 0.10433153 0 87 22
0.86856693 0.2145198 -0.019961281 74 21
0.92042249 0.10545824 -0.041575707 67 20
0.87651712 0.21633773 -0.060082223 60 19
0.94508839 0.10789698 -0.082262546 79 18
0.88751608 0.21907787 -0.10064524 70 17
0.94993192 0.10810886 -0.12798421 80 16
0.88981098 0.21996187 -0.15372266 25 15
1.0355004 0.11604247 -0.28820285 26 13
0.89161497 0.09927012 0.19953316 20 30
0.87069732 0.21356295 0.16623202 26 29
0.87665761 0.097933926 0.13251628 47 28
0.87279952 0.213302 0.10542346 28 27
0.90777218 0.10131828 0.083970591 67 26
0.85768998 0.20925438 0.058997013 30 25
0.92321384 0.10299783 0.041692164 83 24
0.8619566 0.20999517 0.019787202 63 23
0.91425663 0.10185851 0 83 22
0.86931038 0.21148661 -0.019961281 74 21
0.92076713 0.10240544 -0.041575707 33 20
0.86996448 0.21164136 -0.05956427 59 19
0.93803275 0.10379319 -0.081591927 81 18
0.8906495 0.21672729 -0.10092954 68 17
0.95030344 0.10479233 -0.12798421 81 16
0.89770925 0.2187786 -0.15501083 25 15
1.0239295 0.11133511 -0.28476366 27 13
0.90406728 0.097432278 0.20235142 21 30
0.86666852 0.20935628 0.16528483 25 29
0.89418828 0.096689515 0.13522071 19 28
0.87112778 0.20966674 0.10512052 28 27
0.90812033 0.098148949 0.083970591 63 26
0.86326188 0.20743799 0.059344053 31 25
0.92853469 0.10029927 0.04192508 81 24
0.86272049 0.20683452 0.019787202 58 23
0.9220652 0.099453107 0 82 22
0.87004334 0.20845085 -0.019961281 73 21
0.92610353 0.099552043 -0.041808624 9 20
0.87554556 0.20977877 -0.059909575 36 19
0.94581866 0.10129644 -0.082262546 79 18
0.8962658 0.21463121 -0.10149816 64 17
0.95805198 0.10224586 -0.12901634 79 16
0.891325 0.21374448 -0.15372266 28 15
1.017158 0.10684406 -0.28270018 31 13
0.89714885 0.093379639 0.20066047 24 30
0.85788357 0.20388117 0.16339043 25 29
0.90436566 0.094413355 0.13676608 8 28
0.88395643 0.20936485 0.10663522 26 27
0.90599817 0.0945675 0.083732717 37 26
0.86401635 0.2042726 0.059344053 33 25
0.92641169 0.096642114 0.041808624 81 24
0.8585754 0.20265998 0.019671148 30 23
0.91993636 0.095819831 0 82 22
0.87080157 0.20526059 -0.019961281 73 21
0.92892992 0.096571095 -0.04192508 6 20
0.86903077 0.20483181 -0.059391622 21 19
0.94866091 0.098079488 -0.082486078 77 18
0.89700949 0.21150135 -0.10149816 37 17
0.96088403 0.09898182 -0.12936038 76 16
0.89925182 0.21234918 -0.15501083 30 15
1.0127411 0.10281792 -0.28132448 31 13
0.9023174 0.090722792 0.20178777 19 30
0.86575592 0.20258327 0.16481122 24 29
0.88709712 0.20684803 0.10693816 26 27
0.92118293 0.092866696 0.08515998 12 26
0.86715162 0.20182742 0.059517574 34 25
0.93171406 0.093896866 0.04204154 78 24
0.86171055 0.20023419 0.019729175 17 23
0.92275327 0.092852466 0 81 22
0.87637889 0.20336282 -0.020077337 71 21
0.92677593 0.093084246 -0.041808624 5 20
0.87216842 0.20236745 -0.05956427 11 19
0.9489975 0.094767444 -0.082486078 77 18
0.8880704 0.20609684 -0.10036093 18 17
0.95875901 0.095387623 -0.12901634 78 16
0.89279538 0.20751671 -0.15372266 34 15
1.0154865 0.099511281 -0.28201234 31 13
0.90505338 0.087801777 0.20235142 23 30
0.86645776 0.19955999 0.16481122 23 29
0.88297933 0.202627 0.10633228 26 27
0.92644072 0.090282433 0.085635729 7 26
0.86785084 0.19879925 0.059517574 51 25
0.9320361 0.090644009 0.04204154 79 24
0.85996932 0.19666111 0.019671148 10 23
0.92556065 0.089866586 0 39 22
0.87704855 0.20045553 -0.020077337 71 21
0.92958146 0.090083636 -0.04192508 5 20
0.87772936 0.20044555 -0.059909575 8 19
0.95922267 0.092553794 -0.083380245 66 18
0.89362437 0.20411479 -0.10092954 9 17
0.95660472 0.091976434 -0.12867229 75 16
0.9031117 0.2066218 -0.15544023 50 15
1.0086476 0.095303684 -0.27994883 30 13
0.89806283 0.084136508 0.20066047 28 30
0.86472237 0.19613591 0.16433764 18 29
0.88364643 0.19969782 0.10633228 26 27
0.92427194 0.086821139 0.085397854 5 26
0.86607397 0.19536476 0.059344053 65 25
0.93481839 0.087780401 0.042158 78 24
0.87767392 0.19769923 0.020077337 7 23
0.93083286 0.087251723 0 15 22
0.87286896 0.19628283 -0.019961281 71 21
0.94977075 0.088814698 -0.042856749 6 20
0.89054805 0.20030291 -0.060772825 6 19
0.9521004 0.088530488 -0.082709618 21 18
0.89913982 0.2022534 -0.10149816 6 17
0.96185231 0.089082099 -0.12936038 73 16
0.90859419 0.20472129 -0.15629901 62 15
1.0281107 0.093660951 -0.28545153 26 13
0.91290897 0.082277395 0.20404238 32 30
0.86779606 0.19365762 0.16481122 20 29
0.90558141 0.081935287 0.13676608 5 28
0.88918 0.19770241 0.10693816 25 27
0.9320066 0.084248908 0.086111486 5 26
0.85945094 0.19069937 0.058823492 72 25
0.93511909 0.084516741 0.042158 77 24
0.87595379 0.19393414 0.020019308 6 23
0.93113172 0.084001981 0 9 22
0.8833043 0.19542074 -0.020193391 68 21
0.94760221 0.085115366 -0.042740289 6 20
0.88637441 0.19610244 -0.060427524 5 19
0.95488417 0.085422657 -0.082933158 10 18
0.8998751 0.19895652 -0.10149816 5 17
0.95969045 0.085509978 -0.12901634 51 16
0.90693527 0.20085081 -0.15586962 67 15
1.042816 0.091116384 -0.28957853 20 13
0.93334353 0.20709641 -0.21097136 10 14
0.90592319 0.078319438 0.20235142 35 30
0.86131108 0.188878 0.16339043 23 29
0.91572052 0.079445779 0.13831146 6 28
0.88747573 0.19390582 0.10663522 24 27
0.9298293 0.080623254 0.085873604 5 26
0.86501455 0.18862422 0.059170533 73 25
0.92795724 0.080459282 0.041808624 32 24
0.89126939 0.1941057 0.020367472 6 23
0.93392456 0.080798276 0 9 22
0.88157374 0.1916444 -0.020135364 69 21
0.96033615 0.082851939 -0.043322586 6 20
0.88952285 0.1933888 -0.060600173 6 19
0.9527095 0.081715196 -0.082709618 10 18
0.91026664 0.19795097 -0.1026354 5 17
0.96740055 0.082607105 -0.13004847 27 16
0.90282083 0.19662273 -0.15501083 75 15
1.0551053 0.088454157 -0.29301769 19 13
0.93647593 0.20419952 -0.21152949 13 14
0.90619105 0.075156689 0.20235142 37 30
0.86915958 0.1874429 0.16481122 21 29
0.9209162 0.076646738 0.13908415 6 28
0.88814718 0.19080675 0.10663522 23 27
0.93010503 0.077377059 0.085873604 6 26
0.8656677 0.1856036 0.059170533 76 25
0.93321079 0.077621914 0.04204154 23 24
0.88949895 0.19046353 0.020309445 6 23
0.94167662 0.078140579 0 11 22
0.88956541 0.19015303 -0.020309445 56 21
0.95315176 0.078898393 -0.042973209 7 20
0.89506751 0.19133841 -0.060945474 6 19
0.95795316 0.078785919 -0.083156705 11 18
0.91337961 0.19529808 -0.10291971 5 17
0.96521455 0.079033323 -0.12970442 62 16
0.90831536 0.19451438 -0.15586962 79 15
1.0769736 0.086456522 -0.29920822 18 13
0.93956441 0.20144643 -0.21208762 15 14
0.896734 0.071245603 0.20009682 42 30
0.86740869 0.183892 0.16433764 22 29
0.92364073 0.073622018 0.13947049 7 28
0.89851427 0.18978272 0.10784698 23 27
0.94028139 0.075061195 0.086825117 6 26
0.87118816 0.1836229 0.059517574 78 25
0.93845582 0.074748844 0.042274456 22 24
0.89260274 0.1878788 0.020367472 7 23
0.93695843 0.074468575 0 15 22
0.88774663 0.18668115 -0.020251418 69 21
0.95591122 0.075762384 -0.043089665 8 20
0.888412 0.1866547 -0.060427524 7 19
0.95324367 0.07522846 -0.082709618 14 18
0.92134374 0.19366036 -0.10377263 5 17
0.96547139 0.075832114 -0.12970442 80 16
0.90658015 0.19082884 -0.15544023 79 15
0.94022727 0.1983296 -0.21208762 17 14
0.9066816 0.068986759 0.20235142 52 30
0.87041527 0.18152241 0.16481122 20 29
0.91649002 0.070012152 0.13831146 8 28
0.88456869 0.18373436 0.10602934 23 27
0.933092 0.071227849 0.086111486 8 26
0.86691105 0.17970695 0.059170533 77 25
0.94616997 0.072189003 0.042623833 59 24
0.88588274 0.18337807 0.020193391 7 23
0.94218665 0.071729027 0 15 22
0.8908391 0.18409358 -0.020309445 71 21
0.95366675 0.072408721 -0.042973209 8 20
0.90123129 0.18626408 -0.061290774 8 19
0.96840066 0.072989538 -0.084050864 19 18
0.91468775 0.18907641 -0.10291971 6 17
0.96573019 0.072461523 -0.12970442 82 16
0.91443908 0.1893387 -0.1567284 77 15
0.94329876 0.19554721 -0.21264574 17 14
0.9044987 0.065493234 0.20178777 62 30
0.85665399 0.17533667 0.16196965 13 29
0.91181272 0.066306271 0.13753878 10 28
0.88766634 0.18099341 0.10633228 23 27
0.94327694 0.06850528 0.087062992 9 26
0.87244886 0.17753643 0.059517574 78 25
0.94144589 0.068370491 0.042390916 82 24
0.89389265 0.18164271 0.020367472 8 23
0.93994939 0.068100438 0 23 22
0.88905978 0.18032385 -0.020251418 73 21
0.9564169 0.069087058 -0.043089665 9 20
0.89213634 0.18095027 -0.060600173 9 19
0.96120965 0.068922505 -0.083380245 55 18
0.91294175 0.18522237 -0.1026354 6 17
0.97587055 0.069603764 -0.1310806 79 16
0.91271472 0.18548892 -0.15629901 78 15
0.936849 0.19061227 -0.21097136 19 14
0.8974309 0.061851293 0.20009682 78 30
0.85966599 0.17283596 0.16244325 10 29
0.9194321 0.063616708 0.1386978 15 28
0.87856501 0.17591819 0.10512052 25 27
0.93854415 0.064880617 0.086587235 10 26
0.87061906 0.17399442 0.059344053 76 25
0.94167876 0.065083817 0.042390916 85 24
0.87982315 0.175547 0.020019308 9 23
0.94018137 0.064818978 0 77 22
0.88723403 0.17672449 -0.020193391 76 21
0.95665222 0.065748125 -0.043089665 9 20
0.89031786 0.17734122 -0.060427524 10 19
0.96641356 0.065894276 -0.083827324 82 18
0.91845196 0.18301804 -0.10320401 7 17
0.97116578 0.065873004 -0.13039251 83 16
0.9133566 0.18230183 -0.15629901 80 15
0.94228554 0.18830842 -0.21208762 17 14
0.84692365 0.16790479 0.22106981 8 31
0.89521056 0.058565367 0.19953316 83 30
0.84822959 0.16742285 0.16007526 13 29
0.92211354 0.060562856 0.13908415 10 28
0.8791737 0.17285036 0.10512052 25 27
0.93378675 0.061452799 0.086111486 10 26
0.87122107 0.17095433 0.059344053 78 25
0.94439256 0.061954025 0.042507373 87 24
0.88043064 0.17247479 0.020019308 10 23
0.93790692 0.061379328 0 88 22
0.8902666 0.17426808 -0.020251418 75 21
0.95687592 0.062408391 -0.043089665 9 20
0.89337778 0.17471762 -0.060600173 15 19
0.96662676 0.06268917 -0.083827324 83 18
0.92395782 0.18077751 -0.10377263 8 17
0.97385025 0.062805906 -0.13073654 83 16
0.91640306 0.17959258 -0.1567284 79 15
0.94290477 0.18518265 -0.21208762 17 14
0.84984529 0.1655641 0.22171433 11 31
0.89783114 0.055741288 0.20009682 82 30
0.8608225 0.16698046 0.16244325 16 29
0.91737825 0.057209127 0.13831146 10 28
0.87243629 0.16850194 0.10421169 28 27
0.9339956 0.058192901 0.086111486 10 26
0.87667835 0.16902205 0.059691094 78 25
0.94708562 0.058971372 0.042623833 88 24
0.87854469 0.16907519 0.019961281 19 23
0.94309634 0.058567051 0 87 22
0.8908695 0.17115942 -0.020251418 76 21
0.95957047 0.059383471 -0.043206125 8 20
0.89150435 0.17127696 -0.060427524 46 19
0.96683979 0.059314638 -0.083827324 83 18
0.90992486 0.17486133 -0.10206678 11 17
0.97406363 0.05940615 -0.13073654 84 16
0.9169935 0.1765527 -0.1567284 78 15
0.94593704 0.18235764 -0.21264574 21 14
0.85041809 0.1625966 0.22171433 19 31
0.89315665 0.052334167 0.19896951 79 30
0.87104064 0.16583806 0.16433764 17 29
0.92743653 0.054563202 0.13985683 10 28
0.87301922 0.16545554 0.10421169 31 27
0.93667775 0.055072516 0.086349361 39 26
0.87726301 0.16596085 0.059691094 77 25
0.94977903 0.055805773 0.042740289 87 24
0.88406801 0.16679411 0.020077337 46 23
0.94579107 0.055415101 0 87 22
0.89146149 0.16804865 -0.020251418 75 21
0.96227515 0.056005474 -0.043322586 15 20
0.89454639 0.16863258 -0.060600173 61 19
0.96952701 0.056077503 -0.084050864 83 18
0.91299921 0.17199139 -0.10235109 29 17
0.98168242 0.05641517 -0.13176867 84 16
0.92489117 0.1745801 -0.15801658 71 15
0.94656783 0.1790546 -0.21264574 23 14
0.85100836 0.15947856 0.22171433 16 31
0.9006393 0.049442641 0.20066047 75 30
0.87405449 0.16310145 0.16481122 17 29
0.92269725 0.050903358 0.13908415 8 28
0.86386544 0.16041508 0.10299993 33 27
0.94432884 0.052032396 0.087062992 71 26
0.8852182 0.16412841 0.060211658 74 25
0.94997716 0.052324288 0.042740289 86 24
0.88464481 0.16370711 0.020077337 59 23
0.94349128 0.051816955 0 87 22
0.89452797 0.16524076 -0.020309445 74 21
0.95747697 0.052384768 -0.043089665 51 20
0.89025581 0.16443351 -0.060254876 67 19
0.96972603 0.052523632 -0.084050864 83 18
0.92335892 0.17063436 -0.10348832 47 17
0.98188251 0.052816745 -0.13176867 85 16
0.92791539 0.17180528 -0.15844597 75 15
0.94482285 0.17513371 -0.21208762 23 14
0.85868317 0.15783755 0.22364789 22 31
0.90080637 0.046298523 0.20066047 66 30
0.89151216 0.16318965 0.16812639 18 29
0.92533624 0.047803748 0.13947049 31 28
0.86686027 0.15785003 0.10330287 40 27
0.93704784 0.048368439 0.086349361 69 26
0.88088059 0.16013186 0.059864614 73 25
0.95264828 0.04913079 0.042856749 85 24
0.8827529 0.16016525 0.020019308 64 23
0.94866043 0.04876836 0 85 22
0.90001553 0.16302134 -0.020425498 73 21
0.96763122 0.049530204 -0.043555502 16 20
0.8957302 0.16222709 -0.060600173 68 19
0.9748776 0.049378999 -0.084497944 80 18
0.91906333 0.16651177 -0.10291971 55 17
0.98206091 0.049389016 -0.13176867 85 16
0.92366534 0.16767263 -0.15758719 74 15
0.94303191 0.17139259 -0.21152949 27 14
0.85447693 0.15396878 0.22235885 15 31
0.90582883 0.043374814 0.20178777 64 30
0.89449131 0.16051689 0.16859999 18 29
0.92549747 0.044573434 0.13947049 15 28
0.86252254 0.15393746 0.10269699 63 27
0.94217515 0.045489203 0.086825117 71 26
0.88388836 0.15750025 0.060038138 71 25
0.95281398 0.045805126 0.042856749 80 24
0.88822567 0.15797152 0.020135364 63 23
0.94882482 0.045456622 0 87 22
0.90055114 0.16003589 -0.020425498 73 21
0.96280879 0.045925666 -0.043322586 6 20
0.89629096 0.15909941 -0.060600173 68 19
0.98001093 0.046370085 -0.084945023 76 18
0.92697209 0.16462469 -0.10377263 57 17
0.98221928 0.046132114 -0.13176867 85 16
0.92182136 0.1640096 -0.15715779 71 15
0.94119716 0.16783039 -0.21097136 29 14
0.86211503 0.15241639 0.22429241 15 31
0.91813505 0.040882833 0.20460603 59 30
0.89985144 0.15841408 0.16954719 20 29
0.92564023 0.04150413 0.13947049 5 28
0.86547148 0.15151113 0.10299993 68 27
0.93735534 0.041989088 0.086349361 33 26
0.88195014 0.15413222 0.059864614 70 25
0.95545566 0.042751111 0.042973209 80 24
0.88628364 0.15458903 0.020077337 53 23
0.94897038 0.042309955 0 86 22
0.89618212 0.15602082 -0.020309445 75 21
0.9754312 0.043257684 -0.043904878 4 20
0.89926958 0.15656072 -0.060772825 66 19
0.98016685 0.042948928 -0.084945023 68 18
0.91772962 0.1598195 -0.1026354 27 17
0.98237437 0.042703249 -0.13176867 86 16
0.92478526 0.16138162 -0.15758719 67 15
0.93457896 0.16326694 -0.20929699 31 14
0.86264181 0.14940612 0.22429241 14 31
0.91097069 0.037395921 0.20291507 42 30
0.89072746 0.15357715 0.1676528 18 29
0.92331135 0.038176678 0.13908415 5 28
0.87088442 0.14934161 0.10360581 74 27
0.94495654 0.039007358 0.087062992 9 26
0.88985407 0.15233521 0.060385179 66 25
0.95060831 0.039221343 0.042740289 82 24
0.8893069 0.15176673 0.020135364 24 23
0.9491123 0.038997173 0 87 22
0.89672124 0.15289161 -0.020309445 75 21
0.96809685 0.039394662 -0.043555502 5 20
0.90718281 0.1546981 -0.061290774 60 19
0.99026352 0.039906114 -0.085839175 18 18
0.91830921 0.15645477 -0.1026354 12 17
0.98251742 0.039273858 -0.13176867 85 16
0.92779714 0.15841193 -0.15801658 62 15
0.9327423 0.15958637 -0.20873886 35 14
0.86794436 0.14706399 0.22558145 12 31
0.9184041 0.034311801 0.20460603 19 30
0.88886493 0.14989656 0.16717921 18 29
