# .PCD v0.7 - Point Cloud Data file format
VERSION 0.7
FIELDS x y z intensity ring
SIZE 4 4 4 4 2
TYPE F F F F U
COUNT 1 1 1 1 1
WIDTH 1150
HEIGHT 1
VIEWPOINT 0 0 0 1 0 0 0
POINTS 1150
DATA ascii
-0.11194603 -0.50577784 -0.13825484 86 13
-0.050397582 -0.55410653 -0.1194388 73 14
-0.11219658 -0.5045687 -0.1667129 86 12
-0.04873465 -0.54723942 -0.20808628 73 11
-0.11056129 -0.49069488 -0.24857485 92 9
-0.048883777 -0.5554499 -0.24552268 75 10
-0.11445976 -0.50344932 -0.29097021 92 8
-0.045237873 -0.5381549 -0.34190163 82 7
-0.11318482 -0.49141908 -0.35745123 90 6
-0.045063496 -0.56159836 -0.44744086 94 5
-0.11571261 -0.49314693 -0.45088306 91 4
-0.03722287 -0.48435032 -0.47851059 9 3
-0.097358614 -0.40951911 -0.45603138 4 2
-0.028426761 -0.38374776 -0.4593859 6 1
-0.079611048 -0.33248881 -0.43201771 6 0
-0.051205039 -0.55428153 0.13921598 73 31
-0.11401211 -0.51193261 0.11329425 83 30
-0.052196726 -0.56023824 0.10182302 68 29
-0.11100718 -0.49942994 0.074564554 79 28
-0.051847834 -0.55111516 0.063314661 66 27
-0.11346871 -0.51022685 0.046623897 77 26
-0.052489661 -0.5561617 0.036439329 63 25
-0.11384886 -0.51187521 0.022825878 78 24
-0.052329358 -0.55228609 0.012069613 64 23
-0.11239561 -0.5050602 0 72 22
-0.052522138 -0.55226779 -0.012069613 64 21
-0.11126118 -0.49965933 -0.022243585 74 20
-0.052653898 -0.55365372 -0.036083862 61 19
-0.11507761 -0.51523721 -0.044260826 74 18
-0.053363502 -0.56141371 -0.060557727 65 17
-0.11354355 -0.50771093 -0.067432538 78 16
-0.051898595 -0.54717737 -0.089743115 73 15
-0.11263523 -0.50069886 -0.13687916 84 13
-0.05264689 -0.55634516 -0.11999694 74 14
-0.11395717 -0.50417399 -0.1667129 88 12
-0.05125298 -0.55399221 -0.21089825 76 11
-0.11135215 -0.48598671 -0.24622981 91 9
-0.050822362 -0.55527586 -0.24552268 76 10
-0.114742 -0.49679971 -0.2870906 92 8
-0.047626127 -0.54418397 -0.34610534 82 7
-0.11536247 -0.49295527 -0.35896584 90 6
-0.046874188 -0.55953538 -0.44582558 91 5
-0.11700501 -0.49098435 -0.44915554 91 4
-0.039039809 -0.48592734 -0.48033002 9 3
-0.098468959 -0.407592 -0.45412329 4 2
-0.029974841 -0.38666892 -0.46336326 6 1
-0.080771171 -0.33220887 -0.43201771 6 0
-0.05313953 -0.55409938 0.13921598 74 31
-0.1163463 -0.51390469 0.1138579 83 30
-0.054377474 -0.56249696 0.10229662 70 29
-0.11385941 -0.50385314 0.075337246 81 28
-0.05354118 -0.54845995 0.063011721 67 27
-0.11413109 -0.50497752 0.046148144 77 26
-0.054198604 -0.55349189 0.036265809 64 25
-0.11675678 -0.51634163 0.023058794 78 24
-0.054723814 -0.55707681 0.012185666 64 23
-0.11303402 -0.4997927 0 73 22
-0.054215252 -0.54959273 -0.012011586 65 21
-0.11356641 -0.50170118 -0.022360044 75 20
-0.05411851 -0.54850054 -0.035738561 63 19
-0.11575262 -0.50998062 -0.043813746 75 18
-0.055322874 -0.56122404 -0.060557727 64 17
-0.11475597 -0.50489926 -0.067088492 79 16
-0.054038346 -0.54944485 -0.090172507 72 15
-0.11492829 -0.50264329 -0.137567 87 13
-0.054361366 -0.55373174 -0.1194388 74 14
-0.11463814 -0.49917248 -0.16507845 88 12
-0.052553885 -0.54688591 -0.20808628 79 11
-0.11304788 -0.48559508 -0.24622981 91 9
-0.052353304 -0.55058783 -0.24339694 77 10
-0.11847042 -0.50471854 -0.29226339 93 8
-0.049170978 -0.5398888 -0.34330288 82 7
-0.1170825 -0.4925496 -0.35896584 93 6
-0.048046984 -0.54985988 -0.43774903 89 5
-0.11871815 -0.49057293 -0.44915554 95 4
-0.040868204 -0.48749751 -0.48214942 10 3
-0.10068198 -0.41037813 -0.45793945 4 2
-0.030995477 -0.38202894 -0.45739722 6 1
-0.081211954 -0.329119 -0.42794207 6 0
-0.055073377 -0.55391055 0.13921598 75 31
-0.11702709 -0.50875294 0.1127306 82 30
-0.055638634 -0.55497307 0.10087583 69 29
-0.11618067 -0.50585753 0.075723588 81 28
-0.056171466 -0.55567992 0.063920543 69 27
-0.11580503 -0.50459629 0.046148144 78 26
-0.055889554 -0.55081707 0.036092289 64 25
-0.11571139 -0.50377345 0.022476502 80 24
-0.055941578 -0.54941976 0.012011586 61 23
-0.11591884 -0.50426322 0 74 22
-0.056037471 -0.54940999 -0.012011586 63 21
-0.11474672 -0.49887043 -0.022243585 75 20
-0.055547785 -0.5433439 -0.035393264 61 19
-0.11744315 -0.50959396 -0.043813746 72 18
-0.056798551 -0.5560835 -0.05998911 65 17
-0.11756389 -0.50933671 -0.067776576 77 16
-0.055955935 -0.54925293 -0.090172507 73 15
-0.11557383 -0.49756148 -0.13619132 85 13
-0.055491526 -0.5462718 -0.11776444 74 14
-0.11747416 -0.50336617 -0.1667129 88 12
-0.054367132 -0.54670858 -0.20808628 82 11
-0.11621173 -0.49165654 -0.24974738 92 9
-0.054486271 -0.55265462 -0.24445981 77 10
-0.1191322 -0.50016505 -0.28967699 94 8
-0.051424053 -0.54383826 -0.34610534 82 7
-0.11966744 -0.49602085 -0.3619951 91 6
-0.049870118 -0.54969752 -0.43774903 89 5
-0.11990406 -0.48842391 -0.44742805 95 4
-0.041932177 -0.48052341 -0.47487172 9 3
-0.10043982 -0.40378267 -0.45030713 4 2
-0.032606099 -0.38645595 -0.46336326 5 1
-0.081575267 -0.32604438 -0.42386642 6 0
-0.056909911 -0.55372483 0.13921598 73 31
-0.11871353 -0.50836205 0.1127306 81 30
-0.057720788 -0.55722827 0.10134943 69 29
-0.11671521 -0.5006634 0.074950904 79 28
-0.058013864 -0.55549061 0.063920543 68 27
-0.11699022 -0.50176775 0.045910265 77 26
-0.057715822 -0.55062866 0.036092289 64 25
-0.1179588 -0.50581658 0.02259296 78 24
-0.058109909 -0.55170786 0.012069613 65 23
-0.11874744 -0.50874031 0 76 22
-0.058708742 -0.55667096 -0.012185666 62 21
-0.11648741 -0.49846685 -0.022243585 75 20
-0.057850748 -0.54811943 -0.035738561 64 19
-0.11922125 -0.5091809 -0.043813746 77 18
-0.057988886 -0.54846841 -0.059136182 67 17
-0.11991663 -0.51133162 -0.068120621 76 16
-0.057872843 -0.54905421 -0.090172507 72 15
-0.11787226 -0.4994919 -0.13687916 87 13
-0.057641756 -0.54849946 -0.11832256 73 14
-0.11812021 -0.49836001 -0.16507845 89 12
-0.056370556 -0.54650569 -0.20808628 79 11
-0.11740168 -0.48910338 -0.24857485 91 9
-0.056634299 -0.55471325 -0.24552268 76 10
-0.12045135 -0.497648 -0.28838378 93 8
-0.052938882 -0.53953236 -0.34330288 83 7
-0.12051826 -0.49172023 -0.35896584 92 6
-0.052223098 -0.55331218 -0.44097963 91 5
-0.12124676 -0.48623013 -0.44570053 94 4
-0.043693099 -0.4803665 -0.47487172 10 3
-0.10225474 -0.404993 -0.45221522 4 2
-0.033421408 -0.37878287 -0.45341986 6 1
-0.083507642 -0.32854402 -0.42794207 6 0
-0.057959273 -0.54390043 0.1366379 74 31
-0.12000326 -0.50555623 0.11216695 82 30
-0.058758546 -0.54724562 0.099455044 70 29
-0.11854945 -0.50023228 0.074950904 81 28
-0.059537549 -0.55033755 0.063314661 69 27
-0.11941285 -0.50375468 0.046148144 76 26
-0.059733592 -0.55041343 0.036092289 64 25
-0.11863918 -0.50052589 0.022360044 77 24
-0.05951634 -0.54652995 0.011953559 66 23
-0.11943641 -0.50344163 0 75 22
-0.060748648 -0.5564521 -0.012185666 65 21
-0.11822667 -0.49805719 -0.022243585 75 20
-0.060119148 -0.5503841 -0.035911214 60 19
-0.12167346 -0.51116037 -0.044037286 75 18
-0.060938094 -0.55814368 -0.060273416 64 17
-0.12062123 -0.50607616 -0.067432538 78 16
-0.059533328 -0.54639941 -0.089743115 75 15
-0.11847416 -0.49440771 -0.13550349 85 13
-0.059904329 -0.55070835 -0.11888068 75 14
-0.11873275 -0.49335557 -0.16344401 87 12
-0.058042862 -0.54399991 -0.20714895 79 11
-0.12292743 -0.50366789 -0.25678253 93 9
-0.05788897 -0.54775798 -0.24233407 77 10
-0.12166722 -0.49514925 -0.2870906 93 8
-0.055418275 -0.54552674 -0.34750658 82 7
-0.12174403 -0.48936886 -0.35745123 92 6
-0.053802364 -0.5493266 -0.43774903 89 5
-0.12339605 -0.48755342 -0.44742805 95 4
-0.045519952 -0.48191899 -0.47669116 10 3
-0.1020912 -0.39836776 -0.44458291 4 2
-0.034994304 -0.38168344 -0.45739722 6 1
-0.084280118 -0.3268514 -0.42590424 6 0
-0.060364135 -0.54849911 0.13792694 74 31
-0.12118626 -0.50276887 0.11160329 80 30
-0.060668431 -0.54703712 0.099455044 71 29
-0.11794153 -0.49021992 0.073405527 81 28
-0.061458223 -0.55012631 0.063314661 67 27
-0.12176333 -0.50575179 0.046386018 78 26
-0.06165453 -0.55020159 0.036092289 64 25
-0.12276497 -0.50981033 0.022825878 79 24
-0.061960112 -0.55128866 0.012069613 66 23
-0.11940529 -0.49573785 0 75 22
-0.061883479 -0.54878223 -0.012011586 67 21
-0.12056018 -0.5000667 -0.022360044 75 20
-0.061234519 -0.54273236 -0.035393264 63 19
-0.1240522 -0.51315033 -0.044260826 76 18
-0.062351238 -0.55298889 -0.059704799 65 17
-0.12179426 -0.5032478 -0.067088492 78 16
-0.061175976 -0.54373962 -0.089313723 73 15
-0.12135648 -0.49865684 -0.13687916 86 13
-0.061304159 -0.54565006 -0.11776444 73 14
-0.12045415 -0.4929381 -0.16344401 88 12
-0.060184482 -0.54609883 -0.20808628 81 11
-0.12360302 -0.4989543 -0.25443748 93 9
-0.060270563 -0.55205375 -0.24445981 76 10
-0.1223394 -0.49057469 -0.2845042 91 8
-0.056086235 -0.53296924 -0.33909914 82 7
-0.12295486 -0.48701501 -0.35593662 90 6
-0.056084637 -0.55293411 -0.44097963 93 5
-0.12417942 -0.48362392 -0.443973 96 4
-0.047201887 -0.48175713 -0.47669116 9 3
-0.10181212 -0.39176705 -0.43695059 4 2
-0.036064975 -0.37854034 -0.45341986 6 1
-0.086177982 -0.3293508 -0.42997989 6 0
-0.06227839 -0.54828507 0.13792694 74 31
-0.12294053 -0.50234282 0.11160329 82 30
-0.062845662 -0.54926199 0.09992864 70 29
-0.12203881 -0.49939245 0.074950904 80 28
-0.063104972 -0.54744196 0.063011721 68 27
-0.1222382 -0.50051516 0.045910265 78 26
-0.063574716 -0.54998302 0.036092289 62 25
-0.12333719 -0.50453204 0.02259296 77 24
-0.06333036 -0.54610115 0.011953559 66 23
-0.12173939 -0.49774387 0 76 22
-0.063702971 -0.54857403 -0.012011586 66 21
-0.12290915 -0.5020659 -0.022476502 75 20
-0.062574349 -0.53755814 -0.035047963 63 19
-0.12454674 -0.50790453 -0.043813746 76 18
-0.064281151 -0.55276787 -0.059704799 66 17
-0.12226097 -0.49803665 -0.066400409 79 16
-0.062800787 -0.54107511 -0.088884331 73 15
-0.12250961 -0.49589935 -0.13619132 86 13
-0.063382365 -0.54786575 -0.11832256 74 14
-0.12159491 -0.49022403 -0.16262679 90 12
-0.061242964 -0.53898418 -0.20527431 74 11
-0.12525694 -0.49854162 -0.25443748 93 9
-0.061468791 -0.54509079 -0.24127121 78 10
-0.12503475 -0.4943096 -0.2870906 93 8
-0.058159482 -0.53482962 -0.34050038 82 7
-0.12557524 -0.49045315 -0.35896584 92 6
-0.057351381 -0.54704893 -0.43613371 89 5
-0.12671183 -0.48670217 -0.44742805 95 4
-0.048313346 -0.47647735 -0.47123286 9 3
-0.104378 -0.39610454 -0.44267482 4 2
-0.037184335 -0.37690979 -0.45143119 6 1
-0.086502954 -0.32627016 -0.42590424 6 0
-0.063826561 -0.54567516 0.13728242 74 31
-0.12460567 -0.50193238 0.11160329 82 30
-0.063838199 -0.54173321 0.098507859 69 29
-0.12248489 -0.49419543 0.074178211 79 28
-0.064075947 -0.53983295 0.062102895 70 27
-0.12276613 -0.49525955 0.045434512 79 26
-0.064830936 -0.54481363 0.035745248 67 25
-0.1250096 -0.50412029 0.02259296 78 24
-0.065426052 -0.5483712 0.012011586 67 23
-0.12400171 -0.49976128 0 74 22
-0.065903433 -0.5508312 -0.012069613 66 21
-0.12273685 -0.49439228 -0.022127127 75 20
-0.064641975 -0.53982532 -0.035220612 62 19
-0.12693055 -0.50988036 -0.044037286 75 18
-0.066113845 -0.55255163 -0.059704799 66 17
-0.1246078 -0.50000703 -0.066744447 76 16
-0.065156594 -0.54575741 -0.089743115 75 15
-0.12474789 -0.49781924 -0.13687916 87 13
-0.064739279 -0.54279917 -0.11720631 75 14
-0.12439343 -0.49439541 -0.16426124 90 12
-0.06286525 -0.53646392 -0.20433699 82 11
-0.12644096 -0.49596441 -0.25326493 94 9
-0.063776582 -0.54938185 -0.24339694 80 10
-0.1245921 -0.48559099 -0.28191778 93 8
-0.059492704 -0.53051645 -0.33769789 82 7
-0.12575723 -0.48424426 -0.35442197 93 6
-0.059456069 -0.54874349 -0.43774903 87 5
-0.12793921 -0.48451218 -0.44570053 94 4
-0.050815798 -0.48483732 -0.48033002 9 3
-0.10404856 -0.38950735 -0.4350425 4 2
-0.03864076 -0.37828606 -0.45341986 6 1
-0.088417783 -0.3287566 -0.42997989 6 0
-0.066008978 -0.54784846 0.13792694 73 31
-0.12635699 -0.50149435 0.11160329 81 30
-0.065444119 -0.53906888 0.098034263 70 29
-0.1229832 -0.48897946 0.073405527 80 28
-0.066249885 -0.54207063 0.062405836 68 27
-0.12449417 -0.49482799 0.045434512 77 26
-0.066732287 -0.54458404 0.035745248 68 25
-0.1249092 -0.49642339 0.022243585 79 24
-0.066847093 -0.54316378 0.011895532 65 23
-0.12574545 -0.49932536 0 74 22
-0.067531154 -0.54811591 -0.012011586 65 21
-0.12516911 -0.49635792 -0.022243585 74 20
-0.065937907 -0.53464311 -0.034875315 62 19
-0.12994975 -0.51425731 -0.044484366 75 18
-0.067845374 -0.54983926 -0.059420493 65 17
-0.12573493 -0.49717098 -0.066400409 77 16
-0.066576645 -0.54062349 -0.088884331 73 15
-0.12536561 -0.49270537 -0.13550349 87 13
-0.06691961 -0.54498988 -0.11776444 75 14
-0.12620465 -0.49393618 -0.16426124 89 12
-0.065899812 -0.54543865 -0.20808628 77 11
-0.12760854 -0.49338502 -0.25209242 94 9
-0.065014206 -0.54240036 -0.24020834 79 10
-0.1280193 -0.49133444 -0.28579739 93 8
-0.061891846 -0.53441048 -0.34050038 83 7
-0.12856482 -0.48762137 -0.35745123 91 6
-0.060859621 -0.54282987 -0.43290305 88 5
-0.12875986 -0.48055401 -0.44224548 95 4
-0.052244153 -0.48123646 -0.47669116 10 3
-0.10627416 -0.39225397 -0.43885866 4 2
-0.03973395 -0.37512618 -0.44944251 5 1
-0.088442117 -0.32424906 -0.42386642 5 0
-0.067155972 -0.5404076 0.13599338 74 31
-0.12880816 -0.50338483 0.11216695 83 30
-0.068006717 -0.54369962 0.098981455 70 29
-0.12726165 -0.49808711 0.074950904 80 28
-0.068236224 -0.54182416 0.062405836 70 27
-0.12630697 -0.49436834 0.045434512 76 26
-0.068125151 -0.53938437 0.035398208 68 25
-0.12798512 -0.50079596 0.022476502 75 24
-0.06813696 -0.5379653 0.011779478 63 23
-0.12694499 -0.49644178 0 74 22
-0.069843382 -0.55034554 -0.012069613 65 21
-0.12627147 -0.49350134 -0.022127127 75 20
-0.067897029 -0.53439784 -0.034875315 62 19
-0.13057591 -0.50895905 -0.044037286 76 18
-0.069160588 -0.54466832 -0.058851875 67 17
-0.12693001 -0.49431109 -0.066056363 78 16
-0.067866489 -0.53549838 -0.08802554 74 15
-0.12830698 -0.49691385 -0.13687916 88 13
-0.068326898 -0.53990293 -0.11664818 75 14
-0.12732491 -0.49120826 -0.16344401 90 12
-0.067252904 -0.5406028 -0.20621163 83 11
-0.12941602 -0.49291396 -0.25209242 94 9
-0.067439847 -0.5466643 -0.24233407 85 10
-0.13029024 -0.49295044 -0.2870906 93 8
-0.063522182 -0.53213418 -0.33909914 82 7
-0.1276487 -0.47757551 -0.3498781 91 6
-0.062335983 -0.53882098 -0.42967245 89 5
-0.12898682 -0.47487772 -0.43706292 95 4
-0.053923666 -0.48105115 -0.47669116 10 3
-0.10639412 -0.38719833 -0.43313444 4 2
-0.04149849 -0.37950724 -0.45540854 6 1
-0.091564454 -0.33090028 -0.43405554 6 0
-0.069041938 -0.54016989 0.13599338 77 31
-0.12869799 -0.49586767 0.11047598 81 30
-0.069602042 -0.54102284 0.098507859 71 29
-0.12647909 -0.48808688 0.073405527 78 28
-0.069511957 -0.53665769 0.061799955 72 27
-0.1273112 -0.4915404 0.045196638 77 26
-0.070627511 -0.5440926 0.035745248 68 25
-0.13100661 -0.50517547 0.022709418 78 24
-0.070637435 -0.5426839 0.011895532 65 23
-0.12803891 -0.49357846 0 74 22
-0.071044095 -0.54515129 -0.011953559 66 21
-0.12607957 -0.48581427 -0.021777751 76 20
-0.070385456 -0.53910655 -0.035220612 65 19
-0.13162605 -0.50611609 -0.043813746 75 18
-0.070750974 -0.54195929 -0.058567569 66 17
-0.12856852 -0.49388748 -0.066056363 78 16
-0.070349246 -0.54014546 -0.088884331 75 15
-0.1294215 -0.49414051 -0.13619132 87 13
-0.070116907 -0.53967339 -0.11664818 75 14
-0.12781656 -0.48619628 -0.16180956 88 12
-0.069045238 -0.54037678 -0.20621163 83 11
-0.12989429 -0.48822001 -0.24974738 94 9
-0.067976661 -0.53519487 -0.23701973 78 10
-0.12967028 -0.48425967 -0.28191778 94 8
-0.06586311 -0.53602171 -0.34190163 82 7
-0.1313511 -0.48481789 -0.35593662 90 6
-0.063907087 -0.53671539 -0.42805713 86 5
-0.13202788 -0.47966644 -0.44224548 94 4
-0.054961298 -0.47575635 -0.47123286 9 3
-0.10767753 -0.38684338 -0.43313444 4 2
-0.042599972 -0.3778607 -0.45341986 6 1
-0.092661254 -0.33059481 -0.43405554 5 0
-0.070832826 -0.53993797 0.13599338 77 31
-0.13097161 -0.4977909 0.11103964 81 30
-0.071085535 -0.53835404 0.098034263 71 29
-0.12873498 -0.49005094 0.073791869 79 28
-0.071291201 -0.53642428 0.061799955 71 27
-0.12966907 -0.49349719 0.045434512 75 26
-0.071795024 -0.53890818 0.035398208 68 25
-0.13074587 -0.49750069 0.022360044 78 24
-0.072436653 -0.54244667 0.011895532 65 23
-0.1316136 -0.50039625 0 76 22
-0.073267207 -0.54737866 -0.012011586 66 21
-0.12898175 -0.4902181 -0.022010669 74 20
-0.071852885 -0.53639668 -0.035047963 65 19
-0.13403721 -0.50805843 -0.044037286 76 18
-0.072547793 -0.5417217 -0.058567569 68 17
-0.13029172 -0.49343568 -0.066056363 77 16
-0.071509913 -0.53502405 -0.08802554 74 15
-0.12917861 -0.48674771 -0.13412783 86 13
-0.072311632 -0.54184234 -0.11720631 76 14
-0.1300468 -0.48804998 -0.16262679 90 12
-0.070058443 -0.53323454 -0.20339964 83 11
-0.1315977 -0.48776361 -0.24974738 93 9
-0.070314348 -0.5394569 -0.23914547 80 10
-0.13135986 -0.48380408 -0.28191778 94 8
-0.06739153 -0.53374481 -0.34050038 82 7
-0.13089646 -0.47669557 -0.3498781 92 6
-0.065558232 -0.53459388 -0.42644182 89 5
-0.13370143 -0.47920269 -0.44224548 95 4
-0.057388514 -0.48237675 -0.47851059 10 3
-0.11082552 -0.39267108 -0.44076675 4 2
-0.043918692 -0.37770969 -0.45341986 5 1
-0.092591658 -0.32610041 -0.42794207 6 0
-0.07271713 -0.53968745 0.13599338 79 31
-0.13270843 -0.4973307 0.11103964 80 30
-0.072964303 -0.53810257 0.098034263 74 29
-0.13109113 -0.49198246 0.074178211 78 28
-0.073487572 -0.53863251 0.062102895 70 27
-0.13204215 -0.49544346 0.045672391 78 26
-0.074656188 -0.54607165 0.035918768 68 25
-0.13117468 -0.49222073 0.022127127 79 24
-0.07367292 -0.5372352 0.011779478 66 23
-0.13335949 -0.49993381 0 75 22
-0.074518964 -0.54216456 -0.011895532 65 21
-0.1300378 -0.48735487 -0.021894209 73 20
-0.074053377 -0.53861493 -0.035220612 63 19
-0.13515617 -0.50518483 -0.043813746 76 18
-0.073129475 -0.53161663 -0.057430334 68 17
-0.13136244 -0.49058872 -0.065712318 79 16
-0.074024253 -0.53965414 -0.088884331 75 15
-0.1308769 -0.48629382 -0.13412783 88 13
-0.074202567 -0.54158664 -0.11720631 76 14
-0.13174963 -0.48759305 -0.16262679 89 12
-0.072517164 -0.53758341 -0.20527431 83 11
-0.13448483 -0.49155521 -0.25209242 94 9
-0.071328536 -0.53247565 -0.23595686 78 10
-0.13420361 -0.48746264 -0.2845042 94 8
-0.069254234 -0.53350639 -0.34050038 83 7
-0.13255966 -0.47623578 -0.3498781 92 6
-0.067652479 -0.53625613 -0.42805713 88 5
-0.13537334 -0.47873303 -0.44224548 95 4
-0.059071977 -0.4821735 -0.47851059 10 3
-0.11128553 -0.389182 -0.43695059 4 2
-0.044902287 -0.37454265 -0.44944251 5 1
-0.094141915 -0.32716343 -0.42997989 5 0
-0.074280664 -0.53703612 0.13534887 77 31
-0.13315085 -0.49216783 0.10991233 81 30
-0.074187793 -0.53297895 0.09708707 72 29
-0.13149834 -0.48675862 0.073405527 78 28
-0.07503438 -0.53591353 0.061799955 70 27
-0.1317919 -0.4877806 0.044958759 77 26
-0.075220078 -0.53592247 0.035224687 68 25
-0.13223015 -0.48935187 0.022010669 76 24
-0.076316431 -0.54191446 0.011895532 67 23
-0.13377769 -0.49464428 0 74 22
-0.076073118 -0.53942472 -0.011837505 67 21
-0.13314952 -0.49169022 -0.022127127 75 20
-0.07525868 -0.53341085 -0.034875315 65 19
-0.13625671 -0.50230962 -0.043590207 76 18
-0.075413689 -0.53380591 -0.057714641 69 17
-0.1343926 -0.49490091 -0.066400409 78 16
-0.074671507 -0.52961802 -0.087166756 74 15
-0.13265838 -0.48581085 -0.13412783 87 13
-0.075436212 -0.53649491 -0.11609006 77 14
-0.13353586 -0.48710689 -0.16262679 92 12
-0.074179694 -0.53501678 -0.20433699 82 11
-0.13559979 -0.48895791 -0.25091991 94 9
-0.074172787 -0.53893995 -0.23914547 79 10
-0.13481849 -0.48285171 -0.28191778 95 8
-0.07094574 -0.5311954 -0.33909914 83 7
-0.13375403 -0.47383541 -0.34836349 93 6
-0.068675466 -0.52843064 -0.4215959 88 5
-0.13763459 -0.47996807 -0.443973 95 4
-0.06063493 -0.48025134 -0.47669116 9 3
-0.11310375 -0.39033949 -0.43885866 4 2
-0.046793193 -0.37889084 -0.45540854 5 1
-0.094087578 -0.32265615 -0.42386642 5 0
-0.075919852 -0.53436726 0.13470435 79 31
-0.13626383 -0.49636832 0.11103964 80 30
-0.076140754 -0.53270346 0.09708707 73 29
-0.13394491 -0.48865262 0.073791869 80 28
-0.076656155 -0.53317696 0.061497014 70 27
-0.13558407 -0.49448591 0.045672391 76 26
-0.07821735 -0.54305345 0.035745248 69 25
-0.13603501 -0.49608055 0.022360044 78 24
-0.078207605 -0.54164469 0.011895532 66 23
-0.1335741 -0.48692662 0 76 22
-0.077702716 -0.53666711 -0.011779478 68 21
-0.13419345 -0.48881716 -0.022010669 75 20
-0.076866977 -0.53066158 -0.034702662 64 19
-0.13742599 -0.4994089 -0.043366667 77 18
-0.078655832 -0.54337835 -0.058851875 66 17
-0.13486962 -0.48963615 -0.065712318 78 16
-0.077201888 -0.53423238 -0.08802554 77 15
-0.13435337 -0.48534483 -0.13412783 87 13
-0.077065013 -0.53380132 -0.11553194 76 14
-0.13459246 -0.48436427 -0.16180956 90 12
-0.075416118 -0.53016239 -0.20246232 82 11
-0.13678311 -0.48633495 -0.24974738 93 9
-0.074831456 -0.52970946 -0.23489399 79 10
-0.13650315 -0.48237815 -0.28191778 94 8
-0.071446531 -0.52068132 -0.33209297 84 7
-0.13652101 -0.47718439 -0.35139275 91 6
-0.070761725 -0.53008032 -0.42321122 89 5
-0.13828205 -0.4760195 -0.44051796 95 4
-0.062101118 -0.47833514 -0.47487172 9 3
-0.11220332 -0.38218927 -0.42931825 4 2
-0.048115481 -0.37872517 -0.45540854 6 1
-0.09563572 -0.32371098 -0.42590424 5 0
-0.078458689 -0.53888267 0.13599338 78 31
-0.13666931 -0.49120241 0.10991233 78 30
-0.077999778 -0.53243446 0.09708707 75 29
-0.13430642 -0.48342833 0.073019177 80 28
-0.078516826 -0.53290617 0.061497014 70 27
-0.13663253 -0.49161476 0.045434512 77 26
-0.079053104 -0.53537053 0.035224687 71 25
-0.13572845 -0.48839316 0.022010669 78 24
-0.07938832 -0.53642035 0.011779478 68 23
-0.13663355 -0.49126869 0 74 22
-0.078864336 -0.53144485 -0.011663424 68 21
-0.13521898 -0.48594278 -0.021894209 75 20
-0.078718856 -0.53039002 -0.034702662 66 19
-0.14052688 -0.5037173 -0.043813746 76 18
-0.079845287 -0.53818345 -0.058283258 67 17
-0.13725425 -0.49154449 -0.066056363 79 16
-0.078367092 -0.52908379 -0.087166756 77 15
-0.13670638 -0.48718411 -0.13481565 87 13
-0.079618789 -0.53835362 -0.11664818 77 14
-0.13563153 -0.48162025 -0.16099234 91 12
-0.077589624 -0.53219086 -0.20339964 86 11
-0.13786466 -0.48373401 -0.24857485 95 9
-0.077620104 -0.53616804 -0.2380826 86 10
-0.13938569 -0.48600623 -0.2845042 95 8
-0.074096903 -0.52658385 -0.33629668 84 7
-0.1376223 -0.47479749 -0.3498781 92 6
-0.072860345 -0.53172195 -0.4248265 88 5
-0.13890362 -0.47207227 -0.43706292 94 4
-0.063770436 -0.47811547 -0.47487172 10 3
-0.11447966 -0.38488525 -0.43313444 4 2
-0.049803816 -0.38156256 -0.4593859 5 1
-0.096337825 -0.32199141 -0.42386642 5 0
-0.078957856 -0.5290429 0.13341531 79 31
-0.13771173 -0.48838109 0.10934868 77 30
-0.080210932 -0.53458816 0.097560667 74 29
-0.13667306 -0.48533106 0.073405527 80 28
-0.080376536 -0.53262883 0.061497014 69 27
-0.13826203 -0.49115896 0.045434512 77 26
-0.081283145 -0.53755891 0.035398208 69 25
-0.13674493 -0.48551559 0.021894209 78 24
-0.08017014 -0.52872169 0.011605397 64 23
-0.13903624 -0.49319202 0 75 22
-0.081353866 -0.53612584 -0.011779478 68 21
-0.13760275 -0.48786837 -0.022010669 74 20
-0.079842843 -0.52517724 -0.034357365 66 19
-0.14150931 -0.50085521 -0.043590207 76 18
-0.080999449 -0.53298694 -0.057714641 68 17
-0.13956772 -0.49346644 -0.066400409 77 16
-0.080213457 -0.52880704 -0.087166756 74 15
-0.13640293 -0.47977725 -0.13275215 85 13
-0.079636268 -0.52603102 -0.11385756 77 14
-0.13731188 -0.48114386 -0.16099234 90 12
-0.078692086 -0.52734292 -0.20152499 83 11
-0.14071262 -0.48751113 -0.25091991 94 9
-0.078527674 -0.52917409 -0.23489399 82 10
-0.14038999 -0.4834896 -0.28321099 94 8
-0.075364724 -0.52222055 -0.33349419 83 7
-0.14090568 -0.48005518 -0.35442197 92 6
-0.07360322 -0.52391356 -0.41836527 87 5
-0.14099364 -0.47333813 -0.43879044 93 4
-0.066019833 -0.48300192 -0.48033002 9 3
-0.11384901 -0.3783299 -0.42550209 4 2
-0.050880544 -0.37989211 -0.45739722 5 1
-0.097836919 -0.32305247 -0.42590424 5 0
-0.08177162 -0.53594661 0.13534887 80 31
-0.13933051 -0.48792174 0.10934868 76 30
-0.081622109 -0.53189117 0.09708707 77 29
-0.13759388 -0.48250294 0.073019177 80 28
-0.081407905 -0.52745092 0.060891133 71 27
-0.1392826 -0.48828316 0.045196638 76 26
-0.081955537 -0.52988726 0.034877647 69 25
-0.13974513 -0.48985645 0.022127127 77 24
-0.083409332 -0.53833914 0.011837505 68 23
-0.13858105 -0.48552534 0 76 22
-0.082852349 -0.53336716 -0.011721451 68 21
-0.13852352 -0.48501116 -0.021894209 75 20
-0.081955612 -0.52737576 -0.034530014 66 19
-0.1411702 -0.49318561 -0.042919587 75 18
-0.082766458 -0.53271544 -0.057714641 70 17
-0.14128938 -0.49297625 -0.066400409 78 16
-0.082698919 -0.53340912 -0.08802554 77 15
-0.14001934 -0.48624229 -0.13481565 86 13
-0.082919493 -0.5353893 -0.11609006 77 14
-0.13890666 -0.48068589 -0.16099234 92 12
-0.080871336 -0.52935773 -0.20246232 83 11
-0.14241348 -0.48701698 -0.25091991 96 9
-0.080282047 -0.52891082 -0.23489399 80 10
-0.13839434 -0.47069886 -0.27545178 94 8
-0.076804332 -0.51991808 -0.33209297 83 7
-0.13969786 -0.47004262 -0.34684888 90 6
-0.075693168 -0.52554345 -0.41998059 88 5
-0.14158233 -0.46938866 -0.4353354 93 4
-0.067023367 -0.47767031 -0.47487172 10 3
-0.11565091 -0.3794719 -0.42741019 4 2
-0.051625669 -0.37520453 -0.45143119 5 1
-0.099400684 -0.32408983 -0.42794207 5 0
-0.083011344 -0.53086698 0.13405983 79 31
-0.14111789 -0.4874078 0.10934868 81 30
-0.082830973 -0.52673513 0.096139885 74 29
-0.13866487 -0.47962567 0.072632834 78 28
-0.082964331 -0.52469611 0.060588192 72 27
-0.13966767 -0.48299408 0.044720881 77 26
-0.084655046 -0.53451335 0.035224687 70 25
-0.14224385 -0.49173692 0.022243585 76 24
-0.084620602 -0.5330894 0.011721451 68 23
-0.14035966 -0.48501414 0 78 22
-0.084425189 -0.53058988 -0.011663424 69 21
-0.13959515 -0.48210451 -0.021777751 75 20
-0.083507292 -0.524607 -0.034357365 68 19
-0.14438543 -0.49744147 -0.043366667 76 18
-0.085476652 -0.53731781 -0.058283258 71 17
-0.14239408 -0.49008021 -0.066056363 79 16
-0.083903246 -0.52823418 -0.087166756 75 15
-0.14043291 -0.48111749 -0.13343999 88 13
-0.084510528 -0.5326733 -0.11553194 77 14
-0.14201671 -0.48470217 -0.16262679 93 12
-0.082116246 -0.52447486 -0.20058766 87 11
-0.14292265 -0.4822638 -0.24857485 95 9
-0.081883259 -0.52637541 -0.23383114 83 10
-0.14136112 -0.47428316 -0.27803817 93 8
-0.079307884 -0.52373034 -0.33489543 87 7
-0.14200322 -0.47142887 -0.34836349 91 6
-0.077887394 -0.52715164 -0.4215959 86 5
-0.14491482 -0.47404239 -0.44051796 91 4
-0.06900724 -0.47911999 -0.47669116 9 3
-0.11557813 -0.37442562 -0.42168593 4 2
-0.05260241 -0.37200913 -0.44745383 5 1
-0.1010296 -0.32510248 -0.42997989 5 0
-0.085234284 -0.53296089 0.13470435 81 31
-0.14073092 -0.4799099 0.10765772 76 30
-0.085426129 -0.53129351 0.09708707 74 29
-0.14033824 -0.47913873 0.072632834 78 28
-0.085564919 -0.52930641 0.061194073 71 27
-0.14277308 -0.48727399 0.045196638 78 26
-0.086907893 -0.53667831 0.035398208 69 25
-0.14182165 -0.48405701 0.021894209 79 24
-0.086091667 -0.53032202 0.011663424 69 23
-0.14347941 -0.4893131 0 77 22
-0.087447137 -0.53769803 -0.011837505 67 21
-0.1419906 -0.48400748 -0.021894209 75 20
-0.085338011 -0.52431238 -0.034357365 66 19
-0.14540833 -0.49454862 -0.043143127 76 18
-0.086576335 -0.53210956 -0.057714641 72 17
-0.14339443 -0.48720777 -0.065712318 77 16
-0.085363053 -0.5255053 -0.086737365 75 15
-0.1407277 -0.47602078 -0.13206431 86 13
-0.085611165 -0.52756059 -0.11441568 78 14
-0.14302528 -0.48194155 -0.16180956 91 12
-0.084301874 -0.52647525 -0.20152499 85 11
-0.14525001 -0.4838737 -0.24974738 95 9
-0.083030917 -0.52161354 -0.2317054 87 10
-0.14238742 -0.47174168 -0.27674496 95 8
-0.081135556 -0.52345031 -0.33489543 83 7
-0.14246769 -0.46713156 -0.34533426 92 6
-0.079451896 -0.52498835 -0.41998059 88 5
-0.14602496 -0.47181025 -0.43879044 92 4
-0.070679262 -0.4788762 -0.47669116 10 3
-0.11688441 -0.37401989 -0.42168593 4 2
-0.05430923 -0.37482551 -0.45143119 6 1
-0.10127069 -0.32199258 -0.42590424 5 0
-0.085958049 -0.52550328 0.13277079 79 31
-0.14240526 -0.47941571 0.10765772 78 30
-0.086506233 -0.52614403 0.096139885 74 29
-0.14200988 -0.47864595 0.072632834 80 28
-0.087805353 -0.53145468 0.061497014 69 27
-0.14367011 -0.48441505 0.044958759 77 26
-0.088780724 -0.53637165 0.035398208 69 25
-0.1427895 -0.48116809 0.021777751 78 24
-0.087544434 -0.52755082 0.011605397 69 23
-0.14374225 -0.48402244 0 76 22
-0.088433109 -0.53247029 -0.011721451 69 21
-0.14295745 -0.4811182 -0.021777751 74 20
-0.08716768 -0.52401125 -0.034357365 67 19
-0.146327 -0.49168023 -0.042919587 75 18
-0.087640718 -0.52690017 -0.057146024 72 17
-0.14429191 -0.48435956 -0.065368272 78 16
-0.087196879 -0.52520412 -0.086737365 77 15
-0.14238846 -0.47552666 -0.13206431 88 13
-0.088134333 -0.53208572 -0.11553194 79 14
-0.14332594 -0.47692025 -0.16017513 91 12
-0.086047277 -0.52619278 -0.20152499 83 11
-0.14555018 -0.4791702 -0.24740234 96 9
-0.08590845 -0.52802616 -0.23489399 87 10
-0.14331579 -0.4692238 -0.27545178 96 8
-0.081708133 -0.51497781 -0.32929051 84 7
-0.14640169 -0.4742462 -0.35139275 94 6
-0.082036518 -0.53038365 -0.4248265 88 5
-0.14648989 -0.46788028 -0.4353354 92 4
-0.072757155 -0.48203304 -0.48033002 9 3
-0.1171279 -0.37055704 -0.41786978 4 2
-0.05471481 -0.36864156 -0.44347647 5 1
-0.10324015 -0.32440728 -0.42997989 5 0
-0.088086821 -0.52759969 0.13341531 81 31
-0.14612938 -0.48592883 0.10934868 77 30
-0.08825051 -0.52585423 0.096139885 76 29
-0.14359635 -0.47817239 0.072632834 79 28
-0.088362865 -0.52381396 0.060588192 70 27
-0.14536017 -0.48391062 0.044958759 77 26
-0.08975026 -0.53115231 0.035051167 70 25
-0.14365543 -0.4783034 0.021661293 77 24
-0.089699425 -0.5297237 0.011663424 70 23
-0.14607662 -0.48593414 0 78 22
-0.090698153 -0.53462434 -0.011779478 69 21
-0.14674127 -0.48780638 -0.022127127 75 20
-0.088498831 -0.52125859 -0.034184713 65 19
-0.14950006 -0.49592832 -0.043366667 77 18
-0.089387499 -0.52660662 -0.057146024 72 17
-0.14598176 -0.48385295 -0.065368272 79 16
-0.089338161 -0.5273422 -0.087166756 75 15
-0.14537963 -0.47964591 -0.13343999 87 13
-0.089200146 -0.52696562 -0.11441568 77 14
-0.1463024 -0.48095685 -0.16180956 91 12
-0.087141611 -0.52131367 -0.19965033 87 11
-0.14722188 -0.47865921 -0.24740234 96 9
-0.086579479 -0.52103633 -0.2317054 88 10
-0.14623743 -0.4728024 -0.27803817 95 8
-0.08437635 -0.52084047 -0.33349419 84 7
-0.14564401 -0.46615103 -0.34533426 92 6
-0.083599433 -0.52820784 -0.42321122 88 5
-0.14867763 -0.46908572 -0.43706292 91 4
-0.074439324 -0.48177618 -0.48033002 10 3
-0.11892411 -0.37168077 -0.41977787 4 2
-0.056644801 -0.37294745 -0.44944251 5 1
-0.10528377 -0.32679406 -0.43405554 5 0
-0.089927942 -0.52728897 0.13341531 82 31
-0.14782469 -0.48541579 0.10934868 77 30
-0.088875175 -0.51827896 0.094719097 77 29
-0.14380631 -0.47294843 0.071860142 80 28
-0.090190783 -0.52350235 0.060588192 72 27
-0.14484441 -0.47626701 0.044245128 79 26
-0.09119086 -0.52837622 0.034877647 71 25
-0.1467986 -0.48257101 0.021894209 78 24
-0.090810187 -0.52446216 0.01154737 70 23
-0.14703351 -0.48303279 0 75 22
-0.091317236 -0.52691084 -0.011605397 69 21
-0.14631277 -0.48010844 -0.021777751 76 20
-0.089488551 -0.51602781 -0.033839412 68 19
-0.15123026 -0.49540347 -0.043366667 78 18
-0.090490282 -0.52137715 -0.056577411 72 17
-0.14766984 -0.48334044 -0.065368272 79 16
-0.091270372 -0.52701122 -0.087166756 76 15
-0.14642072 -0.47681546 -0.13275215 88 13
-0.091039054 -0.52665102 -0.11441568 78 14
-0.14735807 -0.47816274 -0.16099234 93 12
-0.089051731 -0.52099085 -0.19965033 86 11
-0.14822531 -0.47603744 -0.24622981 97 9
-0.088120557 -0.51848269 -0.2306425 87 10
-0.14796937 -0.47226325 -0.27803817 95 8
-0.084973529 -0.51235062 -0.32788926 83 7
-0.14918156 -0.47129333 -0.3498781 94 6
-0.084060498 -0.51847214 -0.41513467 87 5
-0.1498342 -0.46682009 -0.4353354 93 4
-0.075947352 -0.47980496 -0.47851059 9 3
-0.11920319 -0.3681972 -0.41596171 4 2
-0.057351328 -0.36824059 -0.44347647 5 1
-0.10694177 -0.32777885 -0.43609333 5 0
-0.091456294 -0.52457434 0.13277079 80 31
-0.14668943 -0.47557402 0.10709407 77 30
-0.092011154 -0.52520925 0.096139885 78 29
-0.14701438 -0.47713259 0.072632834 79 28
-0.091689937 -0.52072227 0.060285252 72 27
-0.14881921 -0.482858 0.044958759 78 26
-0.092704929 -0.52558047 0.034704126 69 25
-0.14856632 -0.48202971 0.021894209 79 24
-0.093487725 -0.52906829 0.011663424 69 23
-0.14955011 -0.48487639 0 77 22
-0.094096944 -0.53149861 -0.011721451 69 21
-0.14798778 -0.4795948 -0.021777751 78 20
-0.091802932 -0.51815414 -0.034012061 67 19
-0.15006159 -0.48534322 -0.042472512 75 18
-0.093575396 -0.52840114 -0.057430334 72 17
-0.15018292 -0.48515821 -0.065712318 80 16
-0.092691921 -0.52426219 -0.086737365 75 15
-0.14663632 -0.47171769 -0.13137648 88 13
-0.091317967 -0.51670706 -0.11218318 78 14
-0.1483123 -0.47539327 -0.16017513 92 12
-0.090869792 -0.52067679 -0.19965033 85 11
-0.14996909 -0.47549099 -0.24622981 97 9
-0.090305679 -0.52040344 -0.2317054 89 10
-0.14830318 -0.46767142 -0.27545178 96 8
-0.087431327 -0.51613712 -0.33069173 83 7
-0.14959255 -0.46698782 -0.34684888 92 6
-0.086774141 -0.52382791 -0.41998059 85 5
-0.15032734 -0.46286297 -0.43188035 91 4
-0.077884905 -0.48123115 -0.48033002 9 3
-0.12055191 -0.36775786 -0.41596171 4 2
-0.058636382 -0.36803815 -0.44347647 5 1
-0.10761954 -0.32603231 -0.43405554 5 0
-0.09287487 -0.52187181 0.13212627 81 31
-0.1483486 -0.47505909 0.10709407 78 30
-0.0925816 -0.51762968 0.094719097 76 29
-0.14867899 -0.47661653 0.072632834 80 28
-0.092652008 -0.51551008 0.059679367 73 27
-0.15117085 -0.48473442 0.045196638 78 26
-0.094108477 -0.52279711 0.034530606 71 25
-0.15024801 -0.4815082 0.021894209 81 24
-0.094901659 -0.52627707 0.011605397 70 23
-0.14973074 -0.4795852 0 78 22
-0.094993517 -0.5262605 -0.011605397 71 21
-0.14815076 -0.47431451 -0.021544833 76 20
-0.0940433 -0.52028686 -0.034184713 68 19
-0.15317768 -0.48958927 -0.042919587 76 18
-0.095419295 -0.52807128 -0.057430334 72 17
-0.15029018 -0.47993797 -0.065024234 80 16
-0.094095394 -0.52150971 -0.086307973 77 15
-0.15047786 -0.47807094 -0.13343999 90 13
-0.093030922 -0.51640141 -0.11218318 78 14
-0.15069267 -0.47712231 -0.16099234 94 12
-0.091806151 -0.51580513 -0.19777569 85 11
-0.15222622 -0.47709131 -0.24740234 96 9
-0.090587288 -0.51116472 -0.2274539 89 10
-0.14985323 -0.46717706 -0.27545178 96 8
-0.088206246 -0.50970298 -0.32648802 88 7
-0.15238605 -0.47026697 -0.3498781 93 6
-0.087895349 -0.51977104 -0.41674998 88 5
-0.15358165 -0.46750307 -0.43706292 93 4
-0.079480298 -0.48097023 -0.48033002 10 3
-0.12073177 -0.36429703 -0.4121455 4 2
-0.059165914 -0.36334956 -0.4375104 5 1
-0.10587835 -0.31745535 -0.42182863 5 0
-0.093765229 -0.5168035 0.13083725 80 31
-0.15066729 -0.47688368 0.10765772 78 30
-0.093440026 -0.5124858 0.093771905 77 29
-0.1479972 -0.46906447 0.0714738 79 28
-0.094796613 -0.51764303 0.059982307 73 27
-0.15058337 -0.47709405 0.044483006 77 26
-0.095402971 -0.52002704 0.034357082 70 25
-0.15184392 -0.48100731 0.021894209 79 24
-0.096646339 -0.52595949 0.011605397 70 23
-0.15208368 -0.48146665 0 75 22
-0.09594731 -0.52100557 -0.011489342 71 21
-0.15124883 -0.47857636 -0.021777751 77 20
-0.095327735 -0.51751727 -0.034012061 67 19
-0.15412371 -0.48668107 -0.042696048 78 18
-0.09673135 -0.5253073 -0.057146024 72 17
-0.15272316 -0.48176757 -0.065368272 79 16
-0.094956234 -0.51634622 -0.085449189 76 15
-0.14984378 -0.47070861 -0.13137648 87 13
-0.095261961 -0.51847231 -0.11274131 79 14
-0.1500861 -0.46987817 -0.15854068 94 12
-0.093606092 -0.51548147 -0.19777569 85 11
-0.15182507 -0.47026336 -0.24388477 97 9
-0.09267287 -0.51309031 -0.22851677 89 10
-0.14947087 -0.46055609 -0.27157217 96 8
-0.090942509 -0.51552999 -0.33069173 87 7
-0.15150885 -0.46218535 -0.34381962 90 6
-0.089394897 -0.51757902 -0.41513467 87 5
-0.15347444 -0.46182898 -0.43188035 93 4
-0.080609277 -0.47730505 -0.47669116 9 3
-0.12200268 -0.36387339 -0.4121455 4 2
-0.060433876 -0.36314082 -0.4375104 5 1
-0.10983627 -0.3252922 -0.43405554 5 0
-0.095568642 -0.51647305 0.13083725 81 31
-0.15308325 -0.47867143 0.10822137 77 30
-0.095665589 -0.51457208 0.094245501 76 29
-0.1488716 -0.46619552 0.07108745 80 28
-0.096158803 -0.51486748 0.059679367 74 27
-0.15148002 -0.47419822 0.044245128 77 26
-0.098112054 -0.524598 0.034704126 69 25
-0.15352203 -0.48047435 0.021894209 80 24
-0.097225048 -0.51822591 0.011431315 72 23
-0.15299167 -0.4785549 0 78 22
-0.098665163 -0.52558452 -0.011605397 71 21
-0.15145847 -0.47326869 -0.021544833 75 20
-0.097133629 -0.51718134 -0.034012061 68 19
-0.15505135 -0.48377228 -0.042472512 78 18
-0.098656051 -0.52494919 -0.057146024 72 17
-0.15363708 -0.47887704 -0.065024234 80 16
-0.0977339 -0.52084011 -0.086307973 77 15
-0.151568 -0.47015622 -0.13137648 87 13
-0.097945973 -0.52293134 -0.11385756 79 14
-0.15401991 -0.47605866 -0.16099234 94 12
-0.095494784 -0.51513493 -0.19777569 86 11
-0.15276983 -0.4676351 -0.24271224 96 9
-0.094153658 -0.51051986 -0.2274539 89 10
-0.15183605 -0.46203434 -0.27286536 96 8
-0.092475101 -0.51315373 -0.32929051 89 7
-0.1519291 -0.45785815 -0.34079039 94 6
-0.091291308 -0.51724792 -0.41513467 90 5
-0.15399478 -0.45784423 -0.42842531 93 4
-0.082639068 -0.47869778 -0.47851059 9 3
-0.12009115 -0.35429034 -0.40069702 4 2
-0.061523542 -0.36142117 -0.43552172 5 1
-0.11006761 -0.32215482 -0.42997989 5 0
-0.097897835 -0.5184949 0.13148175 80 31
-0.15407592 -0.47579333 0.10765772 78 30
-0.097997032 -0.51663184 0.094719097 77 29
-0.15366186 -0.4750334 0.072632834 80 28
-0.099404499 -0.52183121 0.060588192 73 27
-0.1539935 -0.47600424 0.044483006 76 26
-0.10003413 -0.52423483 0.034704126 72 25
-0.15528201 -0.47990841 0.021894209 78 24
-0.099033393 -0.51788342 0.011431315 70 23
-0.15396421 -0.47561589 0 76 22
-0.10059085 -0.52521932 -0.011605397 69 21
-0.15232956 -0.47036475 -0.021428375 75 20
-0.098112702 -0.5119186 -0.033666763 70 19
-0.15760234 -0.48556572 -0.042696048 76 18
-0.09957578 -0.51971847 -0.056577411 74 17
-0.15539125 -0.47831073 -0.065024234 81 16
-0.098197304 -0.51323235 -0.08501979 77 15
-0.15547587 -0.47646898 -0.13343999 89 13
-0.097631052 -0.51059026 -0.11106694 80 14
-0.15493536 -0.47327614 -0.16017513 95 12
-0.097292371 -0.51479846 -0.19777569 87 11
-0.1551863 -0.46916491 -0.24388477 96 9
-0.095935136 -0.51018804 -0.2274539 90 10
-0.15481845 -0.46555522 -0.27545178 96 8
-0.094992638 -0.51690429 -0.33209297 88 7
-0.15481228 -0.46108937 -0.34381962 94 6
-0.092440836 -0.51316667 -0.41190404 87 5
-0.15618365 -0.45901144 -0.43015283 90 4
-0.083735898 -0.47502562 -0.47487172 9 3
-0.12192462 -0.35537165 -0.40260512 4 2
-0.063523144 -0.36568874 -0.44148776 5 1
-0.10876723 -0.31494552 -0.4197908 5 0
-0.099707119 -0.51815003 0.13148175 80 31
-0.15573579 -0.47525263 0.10765772 83 30
-0.10025431 -0.51869887 0.095192693 78 29
-0.15454029 -0.47215021 0.072246492 81 28
-0.10030223 -0.51660448 0.059982307 75 27
-0.15486941 -0.47310209 0.044245128 77 26
-0.10093393 -0.51898187 0.034357082 72 25
-0.15616883 -0.47699353 0.021777751 78 24
-0.10037393 -0.5150792 0.011373288 71 23
-0.15404606 -0.47033089 0 76 22
-0.10195614 -0.5224098 -0.01154737 71 21
-0.15475878 -0.47219977 -0.021544833 76 20
-0.1003655 -0.51402301 -0.033839412 70 19
-0.15772195 -0.48028809 -0.042248972 77 18
-0.10231846 -0.52424765 -0.057146024 73 17
-0.15705991 -0.47776541 -0.065024234 81 16
-0.10090784 -0.51772559 -0.085878581 77 15
-0.15484659 -0.46908665 -0.13137648 88 13
-0.10032184 -0.51503462 -0.11218318 78 14
-0.15583326 -0.47049305 -0.15935791 95 12
-0.099088751 -0.51445574 -0.19777569 85 11
-0.15753387 -0.47071078 -0.24505728 97 9
-0.098959513 -0.51652354 -0.2306425 90 10
-0.15575026 -0.46298751 -0.27415857 96 8
-0.095314212 -0.50842172 -0.32648802 87 7
-0.15707034 -0.4624261 -0.34533426 95 6
-0.093562983 -0.50908375 -0.40867344 89 5
-0.15778495 -0.45846343 -0.43015283 93 4
-0.08597897 -0.47810918 -0.47851059 10 3
-0.12424649 -0.35798791 -0.40642127 4 2
-0.064296558 -0.36247683 -0.4375104 5 1
-0.10937632 -0.31320101 -0.41775298 5 0
-0.10015486 -0.51068121 0.12954821 80 31
-0.15661693 -0.47239769 0.10709407 77 30
-0.10067554 -0.5111137 0.093771905 78 29
-0.15382645 -0.46458417 0.07108745 79 28
-0.10210489 -0.51625121 0.059982307 75 27
-0.15572694 -0.47019967 0.044007249 79 26
-0.10321822 -0.52107507 0.034530606 71 25
-0.1594243 -0.48117977 0.022010669 80 24
-0.10217128 -0.51472563 0.011373288 72 23
-0.15728086 -0.47452945 0 77 22
-0.10330302 -0.51959711 -0.011489342 72 21
-0.15720266 -0.47402355 -0.021661293 76 20
-0.10168414 -0.51122117 -0.033666763 70 19
-0.16019292 -0.48209414 -0.042472512 76 18
-0.10320164 -0.51901066 -0.056577411 74 17
-0.1579348 -0.47486806 -0.064680189 80 16
-0.10224618 -0.51495224 -0.085449189 77 15
-0.15648307 -0.46854329 -0.13137648 89 13
-0.10258192 -0.51707387 -0.11274131 80 14
-0.15747462 -0.46994624 -0.15935791 94 12
-0.10088394 -0.51410669 -0.19777569 88 11
-0.15702164 -0.46389419 -0.24153973 97 9
-0.099072091 -0.50728291 -0.22639103 93 10
-0.15666604 -0.46041903 -0.27286536 96 8
-0.098598965 -0.51622856 -0.33209297 88 7
-0.15868355 -0.46187499 -0.34533426 93 6
-0.096361965 -0.51438618 -0.41351935 88 5
-0.16119489 -0.46301994 -0.4353354 92 4
-0.087348744 -0.47611782 -0.47669116 9 3
-0.12330987 -0.35147163 -0.39878896 4 2
-0.066074573 -0.36523637 -0.44148776 5 1
-0.1094802 -0.31009489 -0.41367733 5 0
-0.1023091 -0.51271731 0.13019273 80 31
-0.15739807 -0.46956992 0.10653041 78 30
-0.101899 -0.5083679 0.093298309 78 29
-0.15536621 -0.46407151 0.07108745 80 28
-0.10381629 -0.51590979 0.059982307 74 27
-0.15888688 -0.47439334 0.044483006 78 26
-0.10494559 -0.5207299 0.034530606 72 25
-0.15780486 -0.47119054 0.021544833 80 24
-0.10445113 -0.51681799 0.011431315 72 23
-0.15885358 -0.47400525 0 78 22
-0.1050255 -0.5192517 -0.011489342 72 21
-0.15885635 -0.47347191 -0.021661293 76 20
-0.103862 -0.51332796 -0.033839412 68 19
-0.1609875 -0.4792034 -0.042248972 79 18
-0.10693904 -0.52839381 -0.057714641 75 17
-0.158709 -0.47199818 -0.064336143 79 16
-0.10356639 -0.51217592 -0.08501979 79 15
-0.15811764 -0.46799418 -0.13137648 89 13
-0.10429604 -0.51673084 -0.11274131 82 14
-0.15834528 -0.46715963 -0.15854068 92 12
-0.10267789 -0.51375139 -0.19777569 89 11
-0.15710901 -0.45919988 -0.23919468 97 9
-0.10084224 -0.50693399 -0.22639103 91 10
-0.1603916 -0.46592802 -0.27674496 96 8
-0.098861322 -0.5077439 -0.32648802 89 7
-0.15830699 -0.45569226 -0.34079039 91 6
-0.097809538 -0.51217049 -0.41190404 88 5
-0.16037227 -0.4556495 -0.42842531 90 4
-0.08992368 -0.48087186 -0.48214942 9 3
-0.12171765 -0.34346938 -0.38924855 4 2
-0.067087308 -0.36351129 -0.43949908 5 1
-0.11505399 -0.32194614 -0.43201771 5 0
-0.10512761 -0.51707751 0.13148175 82 31
-0.15911809 -0.46898985 0.10653041 77 30
-0.10376157 -0.50799102 0.093298309 79 29
-0.15947606 -0.47050601 0.072246492 80 28
-0.1057065 -0.51552582 0.059982307 75 27
-0.15981513 -0.47145444 0.044245128 81 26
-0.10685346 -0.52034175 0.034530606 73 25
-0.15953079 -0.47060901 0.021544833 78 24
-0.10625453 -0.51645017 0.011431315 72 23
-0.16058983 -0.47341985 0 77 22
-0.10692795 -0.51886326 -0.011489342 72 21
-0.15888204 -0.46819204 -0.021428375 75 20
-0.10525063 -0.51049882 -0.033666763 70 19
-0.16436654 -0.48331791 -0.042696048 77 18
-0.10731257 -0.52071249 -0.056861717 76 17
-0.1604379 -0.47141331 -0.064336143 82 16
-0.10632382 -0.51664048 -0.085878581 79 15
-0.15975027 -0.46743938 -0.13137648 89 13
-0.10570966 -0.51395583 -0.11218318 79 14
-0.15919839 -0.46437266 -0.15772347 94 12
-0.10401964 -0.51111656 -0.19683836 89 11
-0.1595237 -0.46070385 -0.2403672 97 9
-0.10304911 -0.5087989 -0.2274539 95 10
-0.15987654 -0.45931411 -0.27286536 97 8
-0.10063307 -0.50739574 -0.32648802 89 7
-0.16190416 -0.46075588 -0.34533426 96 6
-0.098888867 -0.50807601 -0.40867344 88 5
-0.16380803 -0.46018422 -0.43360788 89 4
-0.090670519 -0.47549641 -0.47669116 9 3
-0.12297572 -0.34302095 -0.38924855 4 2
-0.068088815 -0.36178365 -0.4375104 5 1
-0.11416166 -0.31611165 -0.42386642 5 0
-0.10597538 -0.51197213 0.13019273 82 31
-0.1607542 -0.46843156 0.10653041 78 30
-0.10602229 -0.51003146 0.093771905 78 29
-0.15868303 -0.46294785 0.07108745 79 28
-0.1060186 -0.50785893 0.059073485 75 27
-0.16064224 -0.46854317 0.044007249 78 26
-0.10866914 -0.51996559 0.034530606 72 25
-0.16117257 -0.47004926 0.021544833 80 24
-0.10805663 -0.51607615 0.011431315 73 23
-0.1622414 -0.4728564 0 78 22
-0.10924017 -0.52093536 -0.01154737 72 21
-0.15969409 -0.46527621 -0.021311916 77 20
-0.10603068 -0.50524181 -0.033321463 70 19
-0.16359232 -0.4756881 -0.042025432 78 18
-0.10713519 -0.51060182 -0.055724479 73 17
-0.16126609 -0.46851259 -0.063992105 78 16
-0.1071395 -0.5114404 -0.08501979 79 15
-0.16217655 -0.46914694 -0.13206431 89 13
-0.10652722 -0.50880861 -0.11106694 82 14
-0.16238716 -0.46827143 -0.15935791 96 12
-0.10580313 -0.51075035 -0.19683836 87 11
-0.159651 -0.45598358 -0.23802216 97 9
-0.10437882 -0.5062176 -0.22639103 92 10
-0.16291991 -0.46278235 -0.27545178 97 8
-0.10280255 -0.50907296 -0.32788926 89 7
-0.16418719 -0.46205857 -0.34684888 94 6
-0.09958034 -0.50210661 -0.40382749 87 5
-0.16479203 -0.45791265 -0.43188035 90 4
-0.09296231 -0.47854725 -0.48033002 9 3
-0.12248556 -0.33804673 -0.38352433 4 2
-0.069895625 -0.36452442 -0.44148776 5 1
-0.11628158 -0.31842312 -0.42794207 5 0
-0.10727532 -0.50923306 0.12954821 83 31
-0.16077031 -0.46327293 0.10540311 78 30
-0.10829853 -0.51206225 0.094245501 79 29
-0.16193728 -0.46705118 0.071860142 79 28
-0.10879886 -0.51234543 0.059679367 73 27
-0.15971889 -0.4609645 0.043293618 78 26
-0.10997604 -0.51714128 0.034357082 71 25
-0.161155 -0.46477222 0.021311916 80 24
-0.10934801 -0.51324898 0.011373288 72 23
-0.16306099 -0.46992898 0 78 22
-0.10994741 -0.51567668 -0.011431315 71 21
-0.16048773 -0.46236044 -0.021195458 75 20
-0.10830283 -0.50731015 -0.033494111 70 19
-0.16516887 -0.47514299 -0.042025432 79 18
-0.10993103 -0.51508766 -0.056293096 76 17
-0.1619947 -0.46564019 -0.063648053 80 16
-0.10942607 -0.51347452 -0.085449189 81 15
-0.1605992 -0.45951706 -0.12931298 89 13
-0.1082139 -0.50845253 -0.11106694 80 14
-0.16481294 -0.46992764 -0.16017513 95 12
-0.10796268 -0.51266688 -0.19777569 91 11
-0.16190906 -0.45752949 -0.23919468 98 9
-0.10569176 -0.50363326 -0.22532816 90 10
-0.16009046 -0.45016658 -0.26769257 96 8
-0.10376684 -0.50465065 -0.3250868 88 7
-0.16571853 -0.46151158 -0.34684888 95 6
-0.10197822 -0.50551862 -0.40705812 88 5
-0.16568267 -0.45566881 -0.43015283 90 4
-0.093904994 -0.47486824 -0.47669116 9 3
-0.12474044 -0.34066349 -0.38734049 4 2
-0.069995552 -0.35833299 -0.43353304 5 1
-0.11477146 -0.31126446 -0.41775298 5 0
-0.10995215 -0.51360327 0.13083725 81 31
-0.16230568 -0.46273723 0.10540311 77 30
-0.10898699 -0.50689566 0.093298309 79 29
-0.16265784 -0.46418428 0.0714738 81 28
-0.11049726 -0.51198184 0.059679367 76 27
-0.16299416 -0.46509397 0.043769371 77 26
-0.1111748 -0.51433367 0.034183562 73 25
-0.16353184 -0.46658829 0.021428375 80 24
-0.1105319 -0.51043838 0.011315262 72 23
-0.16378061 -0.46703023 0 77 22
-0.11122842 -0.51284474 -0.011373288 73 21
-0.16453202 -0.46888387 -0.021544833 76 20
-0.10998453 -0.50694823 -0.033494111 71 19
-0.16766252 -0.47690898 -0.042248972 78 18
-0.11112338 -0.51229054 -0.05600879 74 17
-0.1636191 -0.46507189 -0.063648053 80 16
-0.11010829 -0.50828981 -0.084590398 77 15
-0.16293314 -0.46124452 -0.13000081 89 13
-0.10998807 -0.50807166 -0.11106694 82 14
-0.16317219 -0.46048549 -0.15690625 95 12
-0.10832854 -0.50548118 -0.19496371 87 11
-0.16425924 -0.45903674 -0.2403672 97 9
-0.10782209 -0.50549537 -0.22639103 95 10
-0.16606618 -0.46166268 -0.27545178 97 8
-0.10585252 -0.50633258 -0.32648802 88 7
-0.16664009 -0.4590643 -0.34533426 95 6
-0.10336896 -0.50328833 -0.4054428 87 5
-0.16727225 -0.45508772 -0.43015283 89 4
-0.095234282 -0.47285461 -0.47487172 9 3
-0.12535627 -0.33871561 -0.38543239 4 2
-0.071245953 -0.35808647 -0.43353304 5 1
-0.1174107 -0.31491932 -0.42386642 5 0
-0.11073904 -0.5084911 0.12954821 82 31
-0.16474459 -0.46445966 0.10596676 78 30
-0.10972995 -0.50171101 0.092351116 80 29
-0.1634417 -0.46128932 0.07108745 79 28
-0.11228374 -0.51159298 0.059679367 76 27
-0.16461666 -0.46452218 0.043769371 80 26
-0.11192136 -0.50906587 0.033836521 73 25
-0.16431487 -0.4636645 0.021311916 81 24
-0.11187555 -0.5075866 0.011257235 74 23
-0.16456385 -0.46410319 0 78 22
-0.11354481 -0.51489651 -0.011431315 72 21
-0.16455761 -0.4635784 -0.021311916 77 20
-0.11175345 -0.50656116 -0.033494111 70 19
-0.16763768 -0.47163582 -0.041801892 78 18
-0.1135243 -0.51430762 -0.056293096 76 17
