# .PCD v0.7 - Point Cloud Data file format
VERSION 0.7
FIELDS x y z intensity ring
SIZE 4 4 4 4 2
TYPE F F F F U
COUNT 1 1 1 1 1
WIDTH 1310
HEIGHT 1
VIEWPOINT 0 0 0 1 0 0 0
POINTS 1310
DATA ascii
0.45094523 0.12753709 -0.46031627 11 3
0.35535654 0.042907901 -0.38161623 6 2
2.0161629 0.59189421 -2.7125645 3 1
nan nan nan 0 0
3.4285703 0.92763907 0.93841881 58 31
3.3385203 0.43585593 0.77107728 65 30
3.4252865 0.92356569 0.67771512 64 29
3.3359652 0.43668991 0.52079284 69 28
3.4416149 0.92478424 0.43078202 67 27
3.3485351 0.43890902 0.31946883 72 26
3.4469132 0.92492795 0.24587874 69 25
nan nan nan 0 24
3.4593906 0.92699695 0.082340285 69 23
3.3613162 0.43937638 0 27 22
3.4571383 0.92574507 -0.08228226 67 21
3.3577809 0.43832064 -0.15628739 71 20
3.4596846 0.92577517 -0.24550839 67 19
3.3729105 0.43909445 -0.30222544 70 18
3.2896781 0.88015217 -0.38580674 21 17
2.9813125 0.38732168 -0.41285229 9 16
3.0692842 0.82214475 -0.54790533 6 15
3.3650575 0.43155873 -0.96090543 53 13
3.4723742 0.93173468 -0.81542104 62 14
3.3510673 0.42623851 -1.1563663 28 12
2.872663 0.7772733 -1.1894661 10 11
0.84953797 0.10717118 -0.43617857 9 9
2.5123153 0.68174636 -1.2063559 10 10
0.75647342 0.094409429 -0.43968827 9 8
1.7661726 0.4865852 -1.216273 18 7
0.61701816 0.0755964 -0.44681406 15 6
0.5633201 0.15551354 -0.46520928 11 5
0.5119496 0.061042532 -0.45952067 13 4
0.45631051 0.12745704 -0.46577457 14 3
0.3571026 0.041904833 -0.38352433 6 2
2.0181146 0.5852052 -2.7125645 3 1
nan nan nan 0 0
3.4246273 0.91439021 0.93648529 61 31
3.3375309 0.42447692 0.77051365 64 30
3.4235871 0.91093624 0.67676795 64 29
3.3300438 0.42469251 0.51963383 68 28
3.4398663 0.91209102 0.43017617 68 27
3.345109 0.42659143 0.31899309 71 26
3.4427299 0.91157234 0.24535817 69 25
1.3820778 0.17755243 0.063353457 9 24
3.4527826 0.91295791 0.082108177 70 23
3.3528342 0.42697063 0 7 22
3.4579332 0.91303205 -0.082224235 67 21
3.3542609 0.42655656 -0.15605447 70 20
3.4579139 0.91302067 -0.2451631 68 19
3.3670115 0.42638451 -0.30155483 70 18
3.2853756 0.86733115 -0.38495383 24 17
2.9973876 0.37876442 -0.41491652 9 16
3.0624712 0.80943727 -0.54618776 12 15
3.3616998 0.4198049 -0.95952982 60 13
3.4708943 0.91835821 -0.81430477 62 14
3.3548071 0.4154124 -1.1571836 28 12
2.8775973 0.76784056 -1.1904035 10 11
0.85209924 0.10446766 -0.43735108 9 9
2.512377 0.67282397 -1.2052932 10 10
0.75679833 0.091768265 -0.43968827 8 8
1.7637824 0.47963306 -1.2134706 15 7
0.61727828 0.073442146 -0.44681406 15 6
0.55834401 0.15201458 -0.46036333 10 5
0.5175482 0.059850033 -0.46470326 12 4
0.45510277 0.12539719 -0.46395513 14 3
0.36367208 0.041337926 -0.39115664 6 2
2.0259683 0.57983351 -2.7205191 3 1
nan nan nan 0 0
3.4207923 0.90058059 0.93455172 59 31
3.3341575 0.41222972 0.76938635 65 30
3.4196239 0.89710641 0.67534715 61 29
3.3290546 0.41276363 0.51924747 69 28
3.4334276 0.89756095 0.42896441 68 27
3.3391678 0.41399848 0.31827947 71 26
3.4458907 0.89954948 0.24535817 69 25
1.3653394 0.17058752 0.062538244 32 24
3.4462759 0.89837152 0.081876069 66 23
nan nan nan 0 22
3.4586809 0.90032482 -0.08216621 67 21
3.353251 0.41454062 -0.15593801 70 20
3.45384 0.899055 -0.24464515 66 19
3.3660076 0.41432625 -0.30133128 68 18
3.2811732 0.85397571 -0.38410088 27 17
3.0036077 0.36889943 -0.41560462 9 16
3.0628955 0.79811949 -0.54575837 12 15
3.3607583 0.4077799 -0.95884198 60 13
3.4717216 0.90562028 -0.81374669 63 14
nan nan nan 0 12
2.8802602 0.75779122 -1.1904035 10 11
0.8568452 0.1020025 -0.4396961 9 9
2.5125232 0.66347003 -1.2042303 10 10
0.75286275 0.088639364 -0.43710187 9 8
1.7714428 0.47509146 -1.2176743 10 7
0.61555409 0.071067005 -0.44529942 14 6
0.55887127 0.15006468 -0.46036333 11 5
0.51236326 0.057466995 -0.45952067 12 4
0.46049231 0.12518932 -0.46941343 13 3
0.36060032 0.039739501 -0.38734049 6 2
2.0279801 0.57275802 -2.7205191 3 1
nan nan nan 0 0
3.4217322 0.88742864 0.93390721 58 31
3.3308091 0.39942989 0.76825905 65 30
3.4157603 0.88271928 0.67392635 64 29
3.3256402 0.39997262 0.51847482 69 28
3.4318883 0.88372976 0.4283585 68 27
3.3381917 0.40146145 0.31804159 71 26
3.4443347 0.8856681 0.24501114 68 25
1.3733944 0.16647181 0.062887624 25 24
3.4471252 0.88511097 0.081818044 67 23
1.3972198 0.16907386 0 9 22
3.4571161 0.88639718 -0.082050152 67 21
3.3522682 0.40195188 -0.15582156 69 20
3.4498656 0.88452667 -0.24412718 64 19
3.360086 0.40110585 -0.30066067 70 18
3.2674425 0.83761418 -0.38211071 8 17
2.9975624 0.35701501 -0.41457251 9 16
3.0610297 0.78565973 -0.54489958 11 15
3.357456 0.39490107 -0.9574663 60 13
3.4726579 0.89228159 -0.81318855 63 14
2.9915695 0.34896863 -1.0296972 7 12
2.8830183 0.74722946 -1.1904035 10 11
0.85940737 0.099108212 -0.44086865 9 9
2.5149379 0.6542567 -1.2042303 10 10
0.75318259 0.085879385 -0.43710187 9 8
1.7691703 0.46753156 -1.2148718 9 7
0.61383289 0.068597674 -0.44378477 13 6
0.55941749 0.14801531 -0.46036333 10 5
0.51796323 0.056145035 -0.46470326 12 4
0.45598841 0.12213736 -0.46395513 14 3
0.36074355 0.038417567 -0.38734049 6 2
2.0286069 0.56491256 -2.7185307 3 1
nan nan nan 0 0
3.4154499 0.8730796 0.93132913 61 31
3.3297634 0.38752079 0.76769537 65 30
3.4116857 0.86896801 0.67250556 65 29
3.3245625 0.38807678 0.51808846 69 28
3.4301426 0.87052065 0.42775264 68 27
3.3321567 0.38894588 0.31732798 71 26
3.4425709 0.87241107 0.24466409 67 25
1.3764477 0.16196464 0.063004084 30 24
3.4429259 0.87122846 0.081643969 66 23
1.3729677 0.16131787 0 29 22
3.4553435 0.87309641 -0.081934102 67 21
3.3462083 0.38938674 -0.15547217 69 20
3.4456794 0.87064105 -0.24360923 64 19
3.3614657 0.38937452 -0.30066067 70 18
3.2703464 0.82620358 -0.38211071 5 17
3.0061705 0.34739679 -0.41560462 9 16
3.0542049 0.77254671 -0.54318202 12 15
nan nan nan 0 13
3.4710274 0.87895459 -0.81207228 62 14
3.0209439 0.34168926 -1.0395038 6 12
2.890099 0.73831248 -1.192278 10 11
0.85535812 0.09562926 -0.43852359 8 9
2.5237803 0.64716679 -1.2074189 10 10
0.75985968 0.083934054 -0.44098148 9 8
1.7647833 0.45977807 -1.210668 7 7
0.61604685 0.066660412 -0.44529942 14 6
0.55993068 0.14606166 -0.46036333 11 5
0.51096314 0.053619988 -0.45779315 12 4
0.45641199 0.12054493 -0.46395513 15 3
0.36891574 0.037922386 -0.39688087 6 2
nan nan nan 0 1
nan nan nan 0 0
3.4114511 0.85937697 0.92939562 60 31
3.3262551 0.37535238 0.76656806 67 30
3.4099371 0.85585523 0.67155838 66 29
3.3209877 0.37591714 0.51731575 71 28
3.4307532 0.85793817 0.42744967 68 27
3.3309555 0.37761518 0.31709009 70 26
3.4359183 0.85796541 0.24397001 69 25
1.3770046 0.15715896 0.063004084 30 24
3.4386723 0.85738617 0.081469886 68 23
1.3710382 0.15624523 0 20 22
3.4509461 0.85981554 -0.081760019 67 21
3.3450656 0.37742558 -0.15535572 70 20
3.4438584 0.8573997 -0.24326394 66 19
3.357789 0.37767196 -0.30021358 70 18
3.2611613 0.81177425 -0.38068917 3 17
3.0097668 0.33770037 -0.41594866 8 16
3.0521045 0.76068586 -0.54232323 11 15
3.0519323 0.33759004 -0.86873561 7 13
3.4668314 0.86566335 -0.81039792 62 14
3.3345079 0.36513364 -1.1481941 25 12
2.8857908 0.72702008 -1.1894661 10 11
0.86006206 0.093256153 -0.44086865 9 9
2.5172508 0.6361267 -1.2031674 10 10
0.75587773 0.080971725 -0.43839508 9 8
1.7804095 0.45724127 -1.2204767 5 7
0.61626452 0.064617164 -0.44529942 13 6
0.55856657 0.14371924 -0.45874804 11 5
0.51293695 0.052098487 -0.45952067 13 4
0.46012178 0.1199171 -0.467594 12 3
0.37064803 0.036846332 -0.39878896 6 2
nan nan nan 0 1
nan nan nan 0 0
3.4072504 0.84630769 0.92746198 58 31
3.3202174 0.36352962 0.76487708 65 30
3.4127564 0.84454274 0.67155838 64 29
3.3197608 0.36463428 0.51692945 71 28
3.4239435 0.84417379 0.42623791 68 27
3.332253 0.36598569 0.31709009 71 26
3.433902 0.84537107 0.24362297 67 25
1.3775183 0.15259178 0.063004084 31 24
3.4366431 0.8447817 0.081353828 67 23
1.3715487 0.15169784 0 25 22
3.4442184 0.84537441 -0.081527911 66 21
3.3388507 0.36552039 -0.15500633 70 20
3.441839 0.84478241 -0.24291864 64 19
3.3491848 0.36487657 -0.29931942 68 18
3.2638354 0.80095536 -0.38068917 6 17
3.0207748 0.32825512 -0.41732484 6 16
3.0498276 0.74938136 -0.54146445 12 15
3.3135445 0.35521606 -0.94370955 21 13
3.4627342 0.85180533 -0.80872357 63 14
3.3380501 0.35432181 -1.1490114 28 12
2.8973064 0.71918362 -1.1932154 10 11
0.84720296 0.088907719 -0.43383348 8 9
2.5215418 0.6283251 -1.2042303 10 10
0.76254231 0.078973562 -0.44227466 9 8
1.7698783 0.44826636 -1.2120693 3 7
0.62440485 0.063235044 -0.45135793 14 6
0.56830049 0.14416054 -0.46682456 11 5
0.5113163 0.050140761 -0.45779315 13 4
0.45722193 0.11743546 -0.46395513 15 3
0.37560159 0.035978023 -0.40451318 6 2
nan nan nan 0 1
nan nan nan 0 0
3.4031463 0.83268166 0.92552847 59 31
3.3166213 0.35142767 0.76374978 66 30
3.4085302 0.83087575 0.67013758 65 29
3.3161008 0.35252497 0.51615673 70 28
3.4196362 0.83045495 0.42532912 68 27
3.3285604 0.35382885 0.31661433 71 26
3.4295621 0.8316111 0.24310239 68 25
1.3705922 0.14699541 0.062654711 31 24
3.43243 0.83041197 0.081179753 69 23
1.3745561 0.14717151 0 44 22
3.4422908 0.83216882 -0.081411861 66 21
3.3401682 0.35328045 -0.15500633 70 20
3.4350719 0.83041215 -0.24222805 66 19
3.3529146 0.35344294 -0.29954296 71 18
3.2570934 0.78664792 -0.37955195 7 17
3.036679 0.3192513 -0.4193891 6 16
3.0477674 0.73703665 -0.54060566 11 15
3.3291698 0.34454378 -0.94783658 53 13
3.4609501 0.83856189 -0.80760729 65 14
3.3369756 0.34184569 -1.1481941 28 12
2.8954213 0.70745552 -1.1913408 10 11
0.85410023 0.086599737 -0.43735108 8 9
2.5282221 0.62016153 -1.2063559 10 10
0.75643784 0.075560741 -0.43839508 9 8
nan nan nan 0 7
0.62067181 0.060575858 -0.44832867 14 6
0.5632785 0.14066181 -0.46197864 11 5
0.50969666 0.048106026 -0.45606562 13 4
0.45764929 0.11575887 -0.46395513 13 3
0.37250581 0.03439413 -0.40069702 6 2
nan nan nan 0 1
nan nan nan 0 0
3.4014795 0.81906861 0.92423946 60 31
3.3154643 0.33902317 0.76318616 67 30
3.4091661 0.81780297 0.66966397 66 29
3.3124561 0.33986759 0.51538408 71 28
3.4154172 0.81618035 0.42442027 66 27
3.3248832 0.341122 0.31613857 71 26
3.427736 0.81787461 0.24275535 69 25
1.3736061 0.14222418 0.062771164 35 24
3.4280152 0.81668282 0.08100567 68 23
1.3725991 0.14187945 0 46 22
3.4380243 0.81780642 -0.081237778 65 21
3.3364122 0.34111422 -0.15477343 70 20
3.4332404 0.81665868 -0.24188274 65 19
3.3467555 0.34040052 -0.29887235 68 18
3.2598195 0.77527374 -0.37955195 9 17
3.0230467 0.30663067 -0.41732484 6 16
3.0527167 0.7269659 -0.54103506 10 15
3.3279603 0.33268327 -0.94714874 60 13
3.4568903 0.82417077 -0.80593294 62 14
3.333446 0.32973349 -1.1465597 28 12
2.9023788 0.69843262 -1.1932154 10 11
0.85441184 0.083468713 -0.43735108 9 9
2.5237744 0.60973173 -1.2031674 10 10
0.76095754 0.073316574 -0.44098148 9 8
nan nan nan 0 7
0.62682235 0.05894351 -0.45287254 13 6
0.56746709 0.13962506 -0.46520928 12 5
0.51346254 0.046634644 -0.45952067 13 4
0.45472872 0.11330962 -0.46031627 14 3
0.37745947 0.033419766 -0.40642127 6 2
nan nan nan 0 1
nan nan nan 0 0
3.3996179 0.80607229 0.92295039 60 31
3.3117793 0.32697257 0.76205885 68 30
3.4096117 0.80533189 0.66919041 66 29
3.3111644 0.32806098 0.51499772 70 28
3.4085846 0.80197316 0.4232085 69 27
3.3185663 0.32936195 0.31542492 70 26
3.425715 0.80476046 0.24240831 68 25
1.3740942 0.13742854 0.062771164 35 24
3.4235463 0.80299455 0.080831587 69 23
1.3755739 0.13733172 0 39 22
3.433418 0.80468494 -0.081063695 67 21
3.3326116 0.32897848 -0.15454051 72 20
3.4287863 0.80295837 -0.24136479 68 19
3.3404312 0.32857406 -0.29820174 64 18
3.250416 0.76105005 -0.37813041 26 17
3.0092595 0.2951647 -0.41526055 12 16
3.0432489 0.71348518 -0.5388881 10 15
3.3410642 0.32221004 -0.95058793 60 13
3.4548609 0.81158495 -0.80481666 63 14
3.3345768 0.31809554 -1.1465597 27 12
2.9024241 0.68826747 -1.192278 10 11
0.85688269 0.080836192 -0.43852359 9 9
2.5302889 0.60197026 -1.2052932 10 10
0.76545846 0.071175359 -0.44356787 9 8
nan nan nan 0 7
0.62305129 0.056521326 -0.44984332 14 6
0.56237078 0.13636543 -0.46036333 11 5
0.51541543 0.045079757 -0.46124819 12 4
0.45343971 0.11138105 -0.45849684 15 3
0.37756822 0.032167882 -0.40642127 6 2
nan nan nan 0 1
nan nan nan 0 0
3.3952169 0.79314077 0.92101681 60 31
3.3104203 0.31575888 0.76149517 69 30
3.4050918 0.7923466 0.66776961 66 29
3.3073161 0.3166115 0.51422501 70 28
3.4088082 0.79010344 0.42290559 69 27
3.312263 0.31706947 0.3147113 70 26
3.4186475 0.79114002 0.24171422 68 25
1.3720564 0.13263482 0.062654711 35 24
3.4261901 0.79163724 0.080831587 68 23
1.3760219 0.13276939 0 38 22
3.4313364 0.79156822 -0.080947645 67 21
3.3287117 0.31745443 -0.15430759 71 20
3.4290004 0.79102135 -0.24119213 68 19
3.3415577 0.31691176 -0.29820174 63 18
3.2529218 0.75026703 -0.37813041 29 17
3.0078056 0.28442729 -0.41491652 7 16
3.0407991 0.70227718 -0.53802931 10 15
3.3397207 0.31090772 -0.94990009 61 13
3.4481771 0.79731762 -0.80258417 62 14
3.3285546 0.30639106 -1.1441081 27 12
2.9025526 0.67760313 -1.1913408 10 11
0.85056126 0.077263847 -0.43500599 8 9
2.5322711 0.59357625 -1.2052932 10 10
0.75930738 0.067951374 -0.43968827 9 8
nan nan nan 0 7
0.62324476 0.054346129 -0.44984332 15 6
0.56655061 0.13530667 -0.46359396 12 5
0.51196653 0.042996783 -0.45779315 13 4
0.45881701 0.1110402 -0.46395513 15 3
0.37767822 0.030849725 -0.40642127 6 2
nan nan nan 0 1
nan nan nan 0 0
3.395611 0.78074151 0.92037231 60 31
3.3066514 0.30375913 0.76036787 66 30
3.4006598 0.77880675 0.66634881 65 29
3.3059413 0.30483973 0.51383865 71 28
3.4067073 0.77709246 0.42229968 70 27
3.3158281 0.30573246 0.31494918 64 26
3.4092319 0.77642435 0.24084663 67 25
1.3650503 0.12716171 0.062305331 33 24
3.4193213 0.77685261 0.080599479 68 23
1.3764769 0.12796536 0 39 22
3.4340787 0.77958584 -0.080947645 66 21
3.3199053 0.30434665 -0.15384176 70 20
3.4244454 0.77738571 -0.24067418 65 19
3.3376842 0.30479604 -0.29775465 68 18
3.2435408 0.7355839 -0.37670887 28 17
2.9964495 0.27281284 -0.4131963 7 16
3.0361493 0.68948549 -0.53674114 9 15
3.338444 0.29845253 -0.94921225 61 13
3.4438119 0.78364921 -0.80090976 63 14
3.3225942 0.29357025 -1.1416564 27 12
2.9027579 0.66643953 -1.1904035 10 11
0.85742623 0.074852102 -0.43852359 8 9
2.5322254 0.58378047 -1.2042303 10 10
0.77021277 0.06604819 -0.44615427 9 8
nan nan nan 0 7
0.62542248 0.052218895 -0.45135793 14 6
0.56518751 0.1327835 -0.46197864 12 5
0.51392275 0.041255224 -0.45952067 13 4
0.46088618 0.1097659 -0.46577457 15 3
0.3713384 0.029075984 -0.39878896 6 2
nan nan nan 0 1
nan nan nan 0 0
3.3913829 0.76668775 0.91843879 61 31
3.3053162 0.29142532 0.75980419 69 30
3.3987026 0.76525557 0.66540164 66 29
3.3021157 0.29228854 0.51306599 71 28
3.4046905 0.76351166 0.42169383 69 27
3.3020515 0.29227069 0.31352192 41 26
3.4096212 0.76337707 0.24067311 68 25
1.375458 0.12303179 0.062771164 37 24
3.417135 0.76381838 0.080483429 69 23
1.3769367 0.12291946 0 43 22
3.4271569 0.76480979 -0.080715537 68 21
3.3184595 0.29253849 -0.1537253 72 20
3.4248378 0.76428425 -0.24050154 66 19
3.3362982 0.29234502 -0.2975311 71 18
3.2315459 0.72100133 -0.37500301 28 17
2.9949625 0.26161486 -0.41285229 7 16
3.0337312 0.67780524 -0.53588235 9 15
3.3274913 0.28577715 -0.94577312 44 13
3.4419053 0.76995438 -0.79979354 63 14
3.3212445 0.28177235 -1.1408392 28 12
2.9073272 0.65681571 -1.1913408 10 11
0.85109234 0.071175434 -0.43500599 8 9
2.5342476 0.57493782 -1.2042303 10 10
0.76403993 0.062853411 -0.44227466 9 8
0.66982114 0.15289383 -0.44138938 4 7
0.63155067 0.050486986 -0.4559018 15 6
0.56750441 0.1312491 -0.46359396 12 5
0.51406366 0.039461046 -0.45952067 12 4
0.4545998 0.10654729 -0.45849684 15 3
0.37950099 0.028254248 -0.40832934 6 2
nan nan nan 0 1
nan nan nan 0 0
3.3916812 0.75431883 0.91779423 59 31
3.3014593 0.27947822 0.75867695 68 30
3.3941643 0.75178957 0.66398084 65 29
3.2957323 0.2801376 0.51190692 71 28
3.404912 0.75108612 0.42139086 71 27
3.3179309 0.28199726 0.31494918 32 26
3.4073946 0.75039446 0.24032606 69 25
1.3709022 0.11781012 0.062538244 38 24
3.4148989 0.75080884 0.080367371 68 23
1.3673927 0.11727379 0 46 22
3.4224834 0.75122952 -0.080541454 67 21
nan nan nan 0 20
3.4128709 0.74910629 -0.23946564 69 19
3.3348172 0.28049034 -0.29730755 71 18
3.2194893 0.70651162 -0.37329718 23 17
3.0007925 0.25156894 -0.41354033 7 16
3.0264585 0.66508925 -0.53416473 9 15
3.3332596 0.27455169 -0.94714874 60 13
3.4398131 0.75688452 -0.79867727 62 14
3.3198528 0.26998743 -1.1400219 28 12
2.9096022 0.64666325 -1.1913408 10 11
0.85353702 0.068374299 -0.43617857 8 9
2.5362391 0.56608808 -1.2042303 10 10
0.76212126 0.060024869 -0.44098148 9 8
0.67035085 0.15055479 -0.44138938 6 7
0.62577176 0.047851384 -0.45135793 15 6
0.56610072 0.12883455 -0.46197864 13 5
0.52141011 0.038156778 -0.46643078 12 4
0.46330935 0.10694213 -0.467594 12 3
0.37798524 0.026827099 -0.40642127 6 2
nan nan nan 0 1
nan nan nan 0 0
3.3919339 0.74195719 0.91714972 60 31
3.2999868 0.26775694 0.75811327 68 30
3.3919718 0.7388888 0.66303366 65 29
3.2966902 0.26863167 0.51190692 71 28
3.4002385 0.73761278 0.42048207 71 27
nan nan nan 0 26
3.4051192 0.73743671 0.23997903 68 25
1.3713052 0.11302407 0.062538244 41 24
3.4150565 0.73835421 0.080309346 69 23
1.3702854 0.11270092 0 24 22
3.4226422 0.73874927 -0.080483429 64 21
nan nan nan 0 20
3.4154649 0.73718858 -0.23946564 66 19
3.3332939 0.26864958 -0.29708403 71 18
3.2170806 0.69421768 -0.37272856 21 17
2.9991839 0.24089628 -0.4131963 7 16
3.0215411 0.6529544 -0.53287661 8 15
3.3318012 0.26272741 -0.9464609 61 13
3.4424338 0.74487275 -0.79867727 63 14
3.3113525 0.25767064 -1.1367531 25 12
2.9095776 0.63600594 -1.1904035 10 11
0.85156846 0.065232001 -0.43500599 9 9
2.5381999 0.55723155 -1.2042303 10 10
0.76019216 0.057210486 -0.43968827 9 8
0.66683257 0.14730428 -0.43858692 8 7
0.6299035 0.045940071 -0.45438719 14 6
0.56654704 0.1268577 -0.46197864 12 5
0.51973671 0.036220182 -0.46470326 13 4
0.46367979 0.10532423 -0.467594 13 3
0.3829138 0.025797447 -0.4121455 6 2
nan nan nan 0 1
nan nan nan 0 0
3.3920145 0.73019493 0.91650516 59 31
3.2984281 0.25662503 0.75754958 69 30
3.3896036 0.7266041 0.66208649 64 29
3.2926373 0.25731638 0.51113427 70 28
3.3953862 0.72477382 0.41957322 70 27
3.3793228 0.26401988 0.32065824 1 26
3.405107 0.72561932 0.2398055 68 25
1.3642027 0.10789733 0.062188867 47 24
3.4125977 0.72598195 0.080193289 69 23
1.3656665 0.10777093 0 42 22
3.4177399 0.72583252 -0.080309346 68 21
nan nan nan 0 20
3.413012 0.72481883 -0.23912033 67 19
3.3267183 0.25702399 -0.29641339 71 18
3.2120774 0.68199259 -0.37187561 16 17
3.0024352 0.23113754 -0.41354033 7 16
3.0116467 0.64036036 -0.53072959 8 15
3.3302574 0.25149795 -0.94577312 60 13
3.4401193 0.73243475 -0.79756105 59 14
3.3098326 0.24651454 -1.1359359 25 12
2.9162016 0.62733269 -1.192278 10 11
0.85838771 0.062873267 -0.43852359 9 9
2.5444562 0.54977179 -1.2063559 10 10
0.76464671 0.054982558 -0.44227466 8 8
0.68348801 0.14867711 -0.44979683 9 7
0.6320371 0.04398106 -0.4559018 14 6
0.57254827 0.12623866 -0.46682456 11 5
0.51805019 0.034386151 -0.46297571 11 4
0.46736798 0.10455625 -0.47123286 12 3
0.38299724 0.024527518 -0.4121455 6 2
nan nan nan 0 1
nan nan nan 0 0
3.3827291 0.71584123 0.91328263 60 31
3.2944458 0.24475221 0.75642234 69 30
3.3849144 0.71324414 0.66066569 66 29
3.2910523 0.24563918 0.51074791 70 28
3.3930387 0.71189469 0.41896734 70 27
1.3649389 0.10316804 0.12750208 10 26
3.4051785 0.71321589 0.23963198 69 25
1.3720428 0.10368734 0.062538244 45 24
3.407897 0.71193075 0.080019213 70 23
1.361048 0.10263528 0 49 22
3.4178061 0.71338552 -0.080251321 68 21
nan nan nan 0 20
3.4106395 0.71187812 -0.23877504 67 19
3.327595 0.24541001 -0.29641339 69 18
3.2169867 0.67072397 -0.37215996 14 17
3.0180423 0.22173347 -0.41560462 7 16
3.0163841 0.62982309 -0.53115904 8 15
3.3335543 0.23946084 -0.9464609 61 13
3.437885 0.71942037 -0.79644477 46 14
3.3107138 0.23438175 -1.1359359 26 12
2.9184813 0.61664009 -1.192278 10 11
0.85419583 0.059581582 -0.43617857 9 9
2.542028 0.53949809 -1.2042303 10 10
0.76270801 0.052040804 -0.44098148 8 8
0.6779595 0.14484888 -0.44559309 10 7
0.63219404 0.041664235 -0.4559018 15 6
0.56555605 0.12248608 -0.46036333 12 5
0.51997691 0.032590881 -0.46470326 13 4
0.46607593 0.10246357 -0.46941343 10 3
0.37824142 0.022933464 -0.40642127 6 2
nan nan nan 0 1
nan nan nan 0 0
3.3876944 0.70393127 0.91392708 60 31
3.2904613 0.23233598 0.75529498 69 30
3.382699 0.69983494 0.65971845 65 29
3.287003 0.23322892 0.50997519 72 28
3.3883345 0.69794667 0.41805851 70 27
1.3454475 0.096768863 0.12559907 36 26
3.4004421 0.69921833 0.23911142 69 25
1.3649399 0.09813264 0.062188867 52 24
3.4030175 0.6985178 0.079845123 69 23
1.3564272 0.097296454 0 54 22
3.4106057 0.6988402 -0.080019213 69 21
nan nan nan 0 20
3.4107828 0.69887042 -0.23860238 69 19
3.318536 0.23252255 -0.29551923 69 18
3.2168753 0.65899014 -0.37187561 14 17
3.0089533 0.20998798 -0.41422844 7 16
3.028213 0.62127769 -0.53287661 7 15
3.3247778 0.22717422 -0.94370955 61 13
3.4285648 0.70435458 -0.79365414 43 14
3.3067968 0.22250979 -1.1343014 28 12
2.9183474 0.60597581 -1.1913408 10 11
0.85661209 0.056589805 -0.43735108 9 9
2.5461104 0.53108579 -1.2052932 10 10
0.77142704 0.049903587 -0.44615427 8 8
0.68048543 0.14291511 -0.44699433 9 7
0.62637889 0.039109584 -0.45135793 14 6
0.56970859 0.12132479 -0.46359396 13 5
0.52189195 0.030873036 -0.46643078 11 4
0.46643075 0.10083603 -0.46941343 11 3
0.38638967 0.02194575 -0.41596171 6 2
nan nan nan 0 1
nan nan nan 0 0
3.3806658 0.69016218 0.911349 60 31
3.2888222 0.2206873 0.75473136 69 30
3.380311 0.68704152 0.65877134 66 29
3.287797 0.22175372 0.50997519 71 28
3.3858864 0.6851272 0.41745263 70 27
1.3457609 0.092306666 0.12559907 46 26
3.3979738 0.68635333 0.23876438 69 25
1.367766 0.093533888 0.062305331 52 24
3.4005358 0.68564343 0.079729073 70 23
1.3567586 0.092561036 0 62 22
3.4080048 0.68653584 -0.079903156 69 21
1.3727822 0.093387447 -0.062538244 45 20
3.4034231 0.6849851 -0.23791179 67 19
3.319289 0.22151661 -0.29551923 71 18
3.1826367 0.64038032 -0.36761099 21 17
3.0145748 0.20033355 -0.41491652 7 16
3.0327773 0.61119205 -0.533306 6 15
3.3231521 0.21541338 -0.94302177 62 13
3.4213288 0.69104445 -0.79142165 46 14
3.3051956 0.21081679 -1.1334842 29 12
2.9203408 0.59629488 -1.1913408 10 11
0.85238695 0.05348466 -0.43500599 9 9
2.5479486 0.52219492 -1.2052932 10 10
0.76945239 0.047220889 -0.44486105 9 8
0.67895418 0.14011234 -0.44559309 9 7
0.63047707 0.037250806 -0.45438719 15 6
0.56824225 0.11903429 -0.46197864 12 5
0.5147723 0.0287765 -0.45952067 13 4
0.46508789 0.098921157 -0.467594 11 3
0.38646033 0.020664316 -0.41596171 6 2
nan nan nan 0 1
nan nan nan 0 0
3.3758321 0.67751664 0.90941548 60 31
3.2871051 0.20962662 0.75416774 68 30
3.3777568 0.67486292 0.6578241 66 29
3.2811191 0.21038061 0.50881618 71 28
3.3832726 0.67292368 0.41684675 70 27
1.3460749 0.087608516 0.12559907 45 26
3.3904476 0.67313182 0.23807029 69 25
1.3655763 0.088839576 0.062188867 46 24
3.3978879 0.67338783 0.079613015 70 23
1.362048 0.088377051 0 58 22
3.4079287 0.67414874 -0.079845123 69 21
1.3730843 0.088834628 -0.062538244 73 20
3.4032295 0.67320949 -0.23773913 67 19
3.3175571 0.20977332 -0.29529572 71 18
3.1871791 0.63030654 -0.36789531 29 17
3.0127845 0.18965575 -0.41457251 7 16
3.0516961 0.60449493 -0.53631175 6 15
3.3238482 0.20439222 -0.94302177 61 13
3.4213302 0.67862183 -0.79086357 52 14
3.3058765 0.19985519 -1.1334842 28 12
2.9201324 0.5856396 -1.1904035 10 11
0.85256845 0.05050895 -0.43500599 9 9
2.5496664 0.5137428 -1.2052932 10 10
0.77174884 0.044651534 -0.44615427 8 8
0.68752462 0.13953948 -0.45119807 10 7
0.62464434 0.03474272 -0.44984332 15 6
0.57052124 0.11744413 -0.46359396 13 5
0.52209008 0.027319944 -0.46643078 12 4
0.46710628 0.097658828 -0.46941343 12 3
0.3865301 0.019315191 -0.41596171 6 2
nan nan nan 0 1
nan nan nan 0 0
3.3734374 0.66479111 0.90812647 60 31
3.2878168 0.1981512 0.75416774 69 30
3.3800919 0.66306823 0.6578241 67 29
3.2793682 0.19877832 0.50842983 71 28
3.3831658 0.66063249 0.41654381 70 27
1.3438885 0.082760409 0.12536119 46 26
3.3903289 0.66081405 0.23789679 69 25
1.3633853 0.083922885 0.062072415 51 24
3.3978806 0.66045088 0.079554997 70 23
1.3598529 0.083472945 0 71 22
3.405355 0.66129231 -0.079729073 68 21
1.3659219 0.083357103 -0.062188867 80 20
3.4031107 0.66084868 -0.23756649 67 19
3.318269 0.1981916 -0.29529572 69 18
3.2065337 0.62194413 -0.36988544 29 17
3.0653391 0.18218572 -0.42179739 6 16
3.0345528 0.58953291 -0.53287661 5 15
3.3197756 0.19193411 -0.9416461 62 13
3.4236782 0.66667503 -0.79086357 54 14
3.3018689 0.18747261 -1.1318498 29 12
2.9245331 0.57538229 -1.1913408 10 11
0.85053462 0.047415908 -0.43383348 9 9
2.5515323 0.50439435 -1.2052932 10 10
0.76549709 0.041495658 -0.44227466 8 8
0.6778869 0.13495655 -0.44419184 9 7
0.63072747 0.032738291 -0.45438719 14 6
0.57094783 0.11535227 -0.46359396 12 5
0.51857579 0.025249183 -0.46297571 14 4
0.4590748 0.094168164 -0.46031627 12 3
0.38336697 0.01783956 -0.4121455 6 2
nan nan nan 0 1
nan nan nan 0 0
3.3734803 0.65196234 0.90748197 60 31
3.2787936 0.18555558 0.75191313 69 30
3.3752689 0.64927882 0.6564033 67 29
3.2751422 0.18648002 0.50765711 71 28
3.3782532 0.64682287 0.41563499 70 27
1.3441827 0.077834263 0.12536119 53 26
3.3878298 0.64744365 0.23754974 70 25
1.3562037 0.078504443 0.061723035 59 24
3.3977106 0.64811599 0.079496965 69 23
1.3651417 0.078768253 0 79 22
3.4028461 0.64786828 -0.079613015 68 21
1.3686979 0.078728043 -0.062305331 75 20
3.4006107 0.64743483 -0.2372212 67 19
3.3164868 0.18589051 -0.29507217 71 18
3.2379611 0.61634272 -0.37329718 18 17
3.1302705 0.17448726 -0.43074253 6 16
3.0390115 0.57939994 -0.533306 4 15
3.3132253 0.17995861 -0.93958259 62 13
3.4237053 0.65366346 -0.79030544 57 14
3.2977843 0.17569767 -1.1302153 29 12
2.9287987 0.56561166 -1.192278 10 11
0.86172932 0.044841375 -0.4396961 9 9
2.5532773 0.49548477 -1.2052932 10 10
0.75708872 0.038417194 -0.43710187 8 8
0.67835379 0.13258946 -0.44419184 10 7
0.6268639 0.030360153 -0.45135793 13 6
0.57508636 0.11412005 -0.46682456 12 5
0.52046651 0.023511071 -0.46470326 13 4
0.46107921 0.092914864 -0.4621357 11 3
0.38665843 0.016548768 -0.41596171 6 2
nan nan nan 0 1
nan nan nan 0 0
3.3662441 0.63837558 0.90490389 60 31
3.2745566 0.17385438 0.75078577 69 30
3.3726916 0.63657892 0.65545619 67 29
3.2733068 0.17491637 0.50727081 71 28
3.3804905 0.63502663 0.41563499 71 27
1.3394759 0.072879478 0.12488544 60 26
3.3802655 0.63376862 0.23685566 70 25
1.3539758 0.073638365 0.061606579 66 24
3.3974957 0.63579035 0.07943894 70 23
1.3654084 0.074002534 0 95 22
3.4050865 0.63598621 -0.079613015 68 21
1.3664706 0.07381922 -0.062188867 82 20
3.4003983 0.6351009 -0.23704854 68 19
3.3121421 0.17405464 -0.29462507 69 18
3.318212 0.61968422 -0.38239503 24 17
3.2569799 0.1700588 -0.44828874 9 16
3.0603793 0.57242608 -0.53674114 4 15
3.3162336 0.16851254 -0.94027042 63 13
3.4163864 0.63990706 -0.78807294 55 14
3.2983775 0.16418518 -1.1302153 29 12
2.9284787 0.55495131 -1.1913408 10 11
0.85967487 0.041732177 -0.43852359 9 9
2.5549915 0.48656917 -1.2052932 10 10
0.76149315 0.035962373 -0.43968827 8 8
0.68693954 0.13181373 -0.44979683 10 7
0.63292795 0.028415427 -0.4559018 14 6
0.56799716 0.1106151 -0.46036333 11 5
0.5187394 0.021628253 -0.46297571 13 4
0.46140075 0.091304831 -0.4621357 11 3
0.38348481 0.015095809 -0.4121455 6 2
nan nan nan 0 1
nan nan nan 0 0
3.3660772 0.62617779 0.90425932 60 31
3.2727108 0.162304 0.75022209 69 30
3.3700662 0.62390494 0.65450895 68 29
3.2714303 0.16336782 0.50688446 70 28
3.3826866 0.62322259 0.41563499 69 27
1.3422077 0.068325832 0.12512331 56 26
3.3800042 0.62151265 0.23668213 70 25
1.349236 0.068665929 0.061373662 73 24
3.3972363 0.62347412 0.079380907 70 23
1.3656584 0.069235921 0 97 22
3.3974538 0.62228817 -0.079380907 68 21
1.3692142 0.069170885 -0.062305331 75 20
3.4001417 0.62277633 -0.23687588 67 19
3.3152168 0.16261239 -0.29484862 71 18
3.3350117 0.61079311 -0.38410088 35 17
3.245187 0.15809475 -0.44656852 9 16
3.0962677 0.56798786 -0.54275262 5 15
3.312 0.15671176 -0.93889475 62 13
3.4114101 0.6266517 -0.78639853 55 14
3.29421 0.15245552 -1.1285808 29 12
2.9326761 0.54515111 -1.192278 10 11
0.85760933 0.038637865 -0.43735108 9 9
2.5544503 0.47722977 -1.2042303 10 10
0.75947624 0.033217434 -0.43839508 7 8
0.68332916 0.12863275 -0.44699433 10 7
0.62507302 0.025908845 -0.44984332 14 6
0.56276292 0.10752874 -0.45551741 11 5
0.51700562 0.019757783 -0.46124819 14 4
0.46675932 0.090707727 -0.467594 11 3
0.38676453 0.013849002 -0.41596171 6 2
nan nan nan 0 1
nan nan nan 0 0
3.3658664 0.61398888 0.90361482 59 31
3.2683914 0.15065815 0.74909484 70 30
3.3673933 0.61125702 0.65356171 67 29
3.2695131 0.15183449 0.5064981 71 28
3.3799584 0.61052531 0.41502911 70 27
1.339952 0.063526474 0.12488544 60 26
3.3772449 0.60882205 0.2363351 69 25
1.3544569 0.064184114 0.061606579 73 24
3.3993917 0.61161172 0.079380907 69 23
1.3708866 0.064696148 0 98 22
3.3922262 0.60909474 -0.079206832 68 21
1.3694475 0.064391017 -0.062305331 64 20
3.3973861 0.61001879 -0.23653059 67 19
3.3107891 0.15081583 -0.29440156 69 18
3.3713446 0.60531765 -0.38808122 47 17
3.2927208 0.1488592 -0.45310536 20 16
3.1248913 0.56199253 -0.54747593 6 15
3.3053231 0.14483903 -0.93683124 61 13
3.4087803 0.61387253 -0.78528225 56 14
3.2900012 0.14075696 -1.1269464 28 12
2.934561 0.53491086 -1.192278 10 11
0.85332626 0.035472952 -0.43500599 9 9
2.5561006 0.46831021 -1.2042303 10 10
0.76386368 0.030724458 -0.44098148 8 8
0.68784302 0.12701482 -0.44979683 10 7
0.62317187 0.023659442 -0.44832867 15 6
0.5668819 0.10628594 -0.45874804 12 5
0.51345879 0.017846387 -0.45779315 14 4
0.46539104 0.088745728 -0.46577457 10 3
0.39326975 0.012660102 -0.42359403 6 2
nan nan nan 0 1
nan nan nan 0 0
3.3561018 0.60010153 0.90039223 60 31
3.2713306 0.1393504 0.74965847 70 30
3.3598409 0.59777194 0.65166736 67 29
3.2700233 0.14042082 0.5064981 72 28
3.3771825 0.59785473 0.41442323 70 27
1.3401656 0.058848783 0.12488544 58 26
3.374438 0.59615821 0.23598805 70 25
1.3496825 0.059244886 0.061373662 75 24
3.3916619 0.59799904 0.079148807 69 23
1.3636106 0.059595093 0 102 22
3.3918703 0.59681511 -0.079148807 68 21
1.3696638 0.059610359 -0.062305331 61 20
3.3945825 0.59728813 -0.23618528 66 19
3.30632 0.13905215 -0.29395446 60 18
3.3978963 0.59786737 -0.3909243 50 17
3.2882719 0.13716148 -0.45241725 18 16
3.1607857 0.55709225 -0.55348742 7 15
3.3082099 0.13339561 -0.93751913 62 13
3.4085031 0.60154468 -0.78472412 59 14
3.2857504 0.12908962 -1.125312 29 12
2.9364102 0.5246641 -1.192278 10 11
0.85785812 0.032649729 -0.43735108 9 9
2.5621734 0.4601894 -1.2063559 10 10
0.75755137 0.02784284 -0.43710187 8 8
0.68013895 0.12310524 -0.44419184 10 7
0.62325066 0.021484021 -0.44832867 15 6
0.56724954 0.1043065 -0.45874804 15 5
0.52255052 0.016288919 -0.46643078 14 4
0.46233153 0.086468138 -0.4621357 12 3
0.3916966 0.011252583 -0.42168593 7 2
nan nan nan 0 1
nan nan nan 0 0
3.358176 0.5883829 0.90039223 63 31
3.2669294 0.1277435 0.74853116 70 30
3.3546529 0.58477038 0.65024656 68 29
3.2655575 0.12881412 0.50572544 71 28
3.3768041 0.58563668 0.41412029 69 27
1.3353894 0.053977575 0.12440969 61 26
3.3740418 0.58394855 0.23581454 70 25
1.354872 0.054726731 0.061606579 54 24
3.3912666 0.58572918 0.079090782 69 23
1.3613123 0.054738436 0 105 22
3.3865449 0.58369285 -0.078974724 66 21
1.3648727 0.05463725 -0.062072415 61 20
3.3892744 0.58415908 -0.23566733 67 19
nan nan nan 0 18
3.3975151 0.58557928 -0.39063999 51 17
3.2961538 0.12596112 -0.4534494 52 16
3.160285 0.54563481 -0.55305809 7 15
3.3062534 0.12176018 -0.93683124 63 13
3.4105821 0.58964318 -0.78472412 63 14
3.286181 0.11761943 -1.125312 29 12
2.9359417 0.5140093 -1.1913408 10 11
0.85796684 0.029655045 -0.43735108 9 9
2.5615358 0.45084846 -1.2052932 10 10
0.7640596 0.025390979 -0.44098148 8 8
0.68463874 0.12147003 -0.44699433 10 7
0.62928653 0.019468697 -0.45287254 15 6
0.56573409 0.10197775 -0.45713273 13 5
0.5171842 0.014342729 -0.46124819 13 4
0.46263057 0.084853776 -0.4621357 10 3
0.39334854 0.0099142743 -0.42359403 7 2
nan nan nan 0 1
nan nan nan 0 0
3.3553483 0.57642215 0.89910322 63 31
3.2624667 0.11673839 0.74740386 67 30
3.3589931 0.574058 0.65072018 67 29
3.268435 0.11807191 0.50611174 71 28
3.3738346 0.57360017 0.41351441 70 27
1.335561 0.049548969 0.12440969 61 26
3.3735013 0.57233775 0.23564102 70 25
1.362533 0.050498892 0.061955951 11 24
3.385798 0.57322317 0.078916699 68 23
1.3614863 0.050223857 0 107 22
3.3884621 0.5724594 -0.078974724 69 21
1.367542 0.050198454 -0.062188867 49 20
3.3887339 0.57249939 -0.23549469 67 19
nan nan nan 0 18
3.3994384 0.57430947 -0.39063999 54 17
3.2940788 0.11494531 -0.45310536 73 16
3.1572206 0.53432614 -0.55219924 8 15
3.3042369 0.11071673 -0.9361434 63 13
3.4053116 0.57710326 -0.78304976 66 14
3.2841916 0.10664638 -1.1244948 29 12
2.9421973 0.50505865 -1.1932154 10 11
0.86026764 0.026872568 -0.43852359 9 9
2.5607874 0.44196454 -1.2042303 10 10
0.76627845 0.022914253 -0.44227466 8 8
0.68299949 0.11883595 -0.44559309 9 7
0.62735927 0.017334942 -0.45135793 14 6
0.56606913 0.10010116 -0.45713273 13 5
0.5172289 0.012627605 -0.46124819 14 4
0.46459481 0.083633974 -0.46395513 11 3
0.3917641 0.0085861478 -0.42168593 6 2
nan nan nan 0 1
nan nan nan 0 0
3.3525765 0.56390142 0.89781415 63 31
3.2604201 0.10527263 0.74684024 70 30
3.3561349 0.56151575 0.649773 68 29
2.8121166 0.092070132 0.43463796 1 28
3.3709216 0.56100154 0.41290852 70 27
1.3382131 0.044966154 0.12464756 59 26
3.3730185 0.56014818 0.23546749 67 25
1.355213 0.045503214 0.061606579 9 24
3.3829453 0.55998999 0.078800641 67 23
1.3616533 0.04547108 0 112 22
3.3855085 0.55980903 -0.078858674 66 21
1.3627245 0.04502894 -0.061955951 48 20
3.3882515 0.56025845 -0.23532204 67 19
3.0935409 0.098347202 -0.27473009 1 18
3.3966198 0.56103301 -0.39007136 55 17
3.291985 0.10337008 -0.45276132 71 16
3.1664462 0.52396262 -0.55348742 9 15
3.2998157 0.098465264 -0.93476778 62 13
3.4049015 0.56481242 -0.78249162 68 14
3.2774754 0.094409361 -1.1220431 29 12
2.9417436 0.49388584 -1.192278 10 11
0.86477071 0.023979714 -0.44086865 9 9
2.5623901 0.43257579 -1.2042303 10 10
0.76635718 0.020105548 -0.44227466 9 8
0.69362867 0.11810986 -0.45259929 9 7
0.62145287 0.014916725 -0.44681406 14 6
0.56831074 0.098360673 -0.45874804 13 5
0.51546484 0.010703713 -0.45952067 13 4
0.46489823 0.081930585 -0.46395513 11 3
0.39502212 0.0072546694 -0.42550209 6 2
nan nan nan 0 1
nan nan nan 0 0
3.3498545 0.55082244 0.89652514 63 31
3.2607844 0.093321882 0.74684024 70 30
3.3509037 0.54801726 0.64835221 69 29
2.8173728 0.081902243 0.43541065 1 28
3.3656075 0.5474422 0.4119997 66 27
1.3333936 0.039920345 0.12417181 60 26
3.3725872 0.54738027 0.23529397 70 25
1.3553706 0.040535808 0.061606579 9 24
3.3774786 0.54697382 0.078626558 68 23
1.3618109 0.040480062 0 112 22
3.3850708 0.5469963 -0.078800641 66 21
1.3628736 0.040271871 -0.061955951 51 20
3.3878205 0.54743648 -0.2351494 67 19
nan nan nan 0 18
3.3936541 0.54837722 -0.38950276 61 17
3.2898667 0.091236673 -0.45241725 70 16
3.1852725 0.51567465 -0.55649322 10 15
3.2977366 0.086884506 -0.93407989 63 13
3.4021385 0.55154568 -0.78137541 66 14
3.2777848 0.082968257 -1.1220431 29 12
2.9411631 0.48323655 -1.1913408 10 11
0.85602289 0.020621967 -0.43617857 9 9
2.5616522 0.42325762 -1.2031674 10 10
0.76214451 0.017346699 -0.43968827 9 8
0.6919958 0.11533943 -0.45119807 9 7
0.62348986 0.012779989 -0.44832867 15 6
0.57428944 0.097361445 -0.46359396 14 5
0.519113 0.0089478632 -0.46297571 14 4
0.46686897 0.080610022 -0.46577457 11 3
0.39504606 0.005806793 -0.42550209 6 2
nan nan nan 0 1
nan nan nan 0 0
3.3469875 0.53835517 0.89523607 63 31
3.2610903 0.081939057 0.74684024 71 30
3.347949 0.53553814 0.64740503 68 29
nan nan nan 0 28
3.362597 0.5349074 0.41139382 70 27
1.3385006 0.035389036 0.12464756 68 26
3.3695517 0.53481901 0.23494694 70 25
1.3530072 0.03574254 0.061490119 9 24
3.3793674 0.53518099 0.078626558 70 23
1.3644431 0.035787724 0 113 22
3.3844905 0.53478503 -0.078742616 66 21
1.3655025 0.035575327 -0.062072415 50 20
3.3823209 0.53443444 -0.23463145 66 19
1.3890126 0.03542826 -0.1216055 30 18
3.3930945 0.53613847 -0.38921845 63 17
3.2876894 0.079693995 -0.45207322 71 16
3.187053 0.5045529 -0.55649322 15 15
3.2932136 0.075266175 -0.93270421 60 13
3.4016361 0.53928334 -0.78081727 66 14
3.2756922 0.071476251 -1.1212258 29 12
2.9451199 0.47333676 -1.192278 10 11
0.85829735 0.017673068 -0.43735108 8 9
2.5675812 0.41503987 -1.2052932 10 10
0.76861817 0.014789271 -0.44356787 8 8
0.69443631 0.11326458 -0.45259929 10 7
0.63148582 0.010706276 -0.45438719 15 6
0.57462573 0.095356204 -0.46359396 14 5
0.51914108 0.0071357656 -0.46297571 12 4
0.47221348 0.079870388 -0.47123286 10 3
0.39829451 0.0044407574 -0.42931825 6 2
nan nan nan 0 1
nan nan nan 0 0
3.3440747 0.52591473 0.89394706 64 31
3.2564857 0.070453212 0.74571288 69 30
3.3449478 0.52308619 0.64645779 68 29
nan nan nan 0 28
3.35954 0.52240032 0.41078794 68 27
1.3410987 0.031003635 0.12488544 76 26
3.3713982 0.52305382 0.23494694 70 25
1.3531239 0.031019449 0.061490119 9 24
3.373806 0.52222925 0.078452483 67 23
1.3620603 0.030971922 0 101 22
3.3837759 0.523175 -0.078684591 66 21
1.3656183 0.030808616 -0.062072415 46 20
3.3817015 0.52224225 -0.23445879 67 19
1.3916118 0.030873206 -0.12182904 33 18
3.3900363 0.52352941 -0.38864985 66 17
3.2829843 0.068690933 -0.45138514 69 16
3.1936617 0.49418181 -0.55735195 15 15
3.2910533 0.063725375 -0.93201637 62 13
3.4009981 0.52762479 -0.78025913 66 14
3.2759218 0.060041521 -1.1212258 29 12
2.9443843 0.46320567 -1.1913408 10 11
0.85835123 0.014826753 -0.43735108 9 9
2.5667794 0.40571931 -1.2042303 10 10
0.7665236 0.012213103 -0.44227466 8 8
0.69074088 0.1101714 -0.44979683 9 7
0.6235624 0.0085357651 -0.44832867 15 6
0.57117516 0.09281899 -0.46036333 14 5
0.51735479 0.0054047308 -0.46124819 13 4
0.46402758 0.076847821 -0.4621357 10 3
0.39830703 0.0031199411 -0.42931825 6 2
nan nan nan 0 1
nan nan nan 0 0
3.3386393 0.51371515 0.89201355 63 31
3.2542663 0.059610993 0.74514925 69 30
3.344238 0.51161808 0.64598423 68 29
nan nan nan 0 28
3.3588009 0.51088196 0.41048497 70 27
1.3387104 0.026277399 0.12464756 78 26
3.3706486 0.51149511 0.23477341 67 25
1.3532193 0.026532158 0.061490119 39 24
3.3779902 0.51141429 0.078510508 47 23
1.3621556 0.026454996 0 74 22
3.3831105 0.5109852 -0.078626558 66 21
1.3707067 0.026367933 -0.062305331 44 20
3.3760171 0.50990248 -0.23394082 66 19
1.3817526 0.025845036 -0.12093488 35 18
3.3868427 0.51153934 -0.38808122 68 17
3.2832038 0.057230763 -0.45138514 70 16
3.1928482 0.48321813 -0.55692255 31 15
3.2912464 0.052811496 -0.93201637 61 13
3.3980007 0.51501602 -0.77914292 66 14
3.2713783 0.049110215 -1.1195915 29 12
2.9482734 0.45327917 -1.192278 10 11
0.8606056 0.011854735 -0.43852359 9 9
2.5681107 0.39720529 -1.2042303 10 10
0.76656163 0.0095373616 -0.44227466 8 8
0.6911025 0.10788021 -0.44979683 9 7
0.63154405 0.006407673 -0.45438719 14 6
0.57149571 0.090824656 -0.46036333 13 5
0.51737052 0.0035987925 -0.46124819 14 4
0.47105557 0.076368958 -0.46941343 10 3
0.40316144 0.0017160388 -0.4350425 6 2
nan nan nan 0 1
nan nan nan 0 0
3.3356349 0.5013364 0.89072448 62 31
3.2568898 0.048285551 0.74571288 70 30
3.3460031 0.49994135 0.64598423 69 29
nan nan nan 0 28
3.355655 0.49842164 0.40987912 66 27
1.3412825 0.021640319 0.12488544 78 26
3.3625462 0.4982568 0.23407933 67 25
1.3433155 0.021663681 0.061024286 69 24
3.0040584 0.44327095 0.069690406 1 23
1.3522406 0.021556914 0 64 22
3.3799288 0.49844006 -0.078510508 66 21
1.3707943 0.021343863 -0.062305331 44 20
3.3753095 0.4977493 -0.23376819 66 19
1.386814 0.021089457 -0.12138196 34 18
3.3813236 0.49803141 -0.38722828 69 17
3.2784317 0.045704201 -0.45069703 70 16
3.1921618 0.47115108 -0.55649322 39 15
3.2842078 0.040663809 -0.92995286 63 13
3.3997779 0.5031516 -0.77914292 65 14
3.2691736 0.03709453 -1.1187742 29 12
2.9476235 0.44212437 -1.1913408 10 11
0.86064172 0.0088505894 -0.43852359 9 9
2.5695493 0.38779005 -1.2042303 10 10
0.76231235 0.0067038098 -0.43968827 8 8
0.6894477 0.10502651 -0.44839555 8 7
0.62957436 0.0040880451 -0.45287254 15 6
0.57182473 0.088729396 -0.46036333 14 5
0.51557314 0.0017059802 -0.45952067 13 4
0.46456563 0.073525369 -0.4621357 12 3
0.40962607 0.00026813545 -0.44267482 6 2
nan nan nan 0 1
nan nan nan 0 0
3.33745 0.48910728 0.89072448 64 31
3.2570453 0.036348131 0.74571288 70 30
3.3429558 0.48696306 0.64503706 68 29
nan nan nan 0 28
3.3525474 0.48540446 0.40927321 69 27
1.3338872 0.01664334 0.12417181 77 26
3.3594139 0.4852125 0.23373228 69 25
1.3433858 0.016740037 0.061024286 75 24
3.4508219 0.49725875 0.080135264 1 23
1.3548102 0.016627174 0 68 22
3.3817332 0.48604864 -0.078510508 64 21
1.3608718 0.016454164 -0.061839495 54 20
3.3697059 0.48430505 -0.23325023 67 19
1.3843921 0.015981616 -0.12115843 34 18
3.3805833 0.48587024 -0.38694397 70 17
3.2711489 0.033616532 -0.44966492 70 16
3.2010992 0.46106443 -0.5577814 39 15
3.2819264 0.029179817 -0.92926502 61 13
nan nan nan 0 14
3.2645581 0.025648948 -1.1171398 29 12
2.9468555 0.43149477 -1.1904035 10 11
0.86729228 0.0057215542 -0.44204116 9 9
2.5708873 0.37881827 -1.2042303 10 10
0.76661021 0.0040517645 -0.44227466 8 8
0.69594997 0.1035577 -0.45259929 9 7
0.63157374 0.0018883131 -0.45438719 16 6
0.57401609 0.087028362 -0.46197864 14 5
0.52099723 -0.00012304867 -0.46470326 12 4
0.46989736 0.072722994 -0.467594 10 3
0.40800908 -0.0012171513 -0.44076675 6 2
nan nan nan 0 1
nan nan nan 0 0
3.3343554 0.47676706 0.88943541 63 31
3.2522812 0.024944691 0.74458563 70 30
3.3422053 0.47494388 0.64456344 68 29
1.3143007 0.011855343 0.20012663 97 28
3.3493078 0.47300133 0.40866736 68 27
1.3314466 0.012201242 0.12393393 73 26
3.3586178 0.47313336 0.23355877 69 25
1.3459334 0.012068949 0.061140746 72 24
nan nan nan 0 23
1.3573601 0.011915793 0 74 22
3.3734269 0.47343522 -0.0782784 66 21
1.3584236 0.011686299 -0.061723035 47 20
3.3639669 0.47149581 -0.23273228 67 19
1.3869275 0.011407232 -0.12138196 34 18
3.3748803 0.47302729 -0.38609105 70 17
3.2563851 0.022675475 -0.44760063 69 16
3.1929345 0.44850981 -0.55606383 43 15
3.2820084 0.017723579 -0.92926502 63 13
nan nan nan 0 14
3.2646277 0.014253356 -1.1171398 30 12
2.9459763 0.42139015 -1.1894661 9 11
0.86068255 0.0028420095 -0.43852359 9 9
2.5721939 0.36984187 -1.2042303 10 10
0.76234037 0.0015147985 -0.43968827 9 8
0.69016409 0.10021074 -0.44839555 9 7
0.6256097 -0.00018003606 -0.44984332 15 6
0.57052946 0.084545814 -0.45874804 12 5
0.52099395 -0.001850737 -0.46470326 13 4
0.47182944 0.071431987 -0.46941343 11 3
0.40961796 -0.0025915769 -0.44267482 6 2
nan nan nan 0 1
nan nan nan 0 0
3.3311336 0.46503583 0.8881464 63 31
3.2499101 0.014150674 0.74402195 69 30
3.3413303 0.46351901 0.64408982 68 29
1.3143328 0.0074969009 0.20012663 96 28
3.3483999 0.4615514 0.40836442 69 27
1.331481 0.0075535527 0.12393393 72 26
3.3576977 0.46165165 0.23338525 66 25
1.3484633 0.007615631 0.061257202 75 24
1.381794 0.18804152 0.031566679 23 23
1.3573921 0.0074145589 0 75 22
3.365155 0.4602949 -0.078046292 62 21
1.3609523 0.0071906932 -0.061839495 49 20
3.3655121 0.46033788 -0.23273228 66 19
1.3819788 0.0065502385 -0.12093488 32 18
3.3739698 0.4614948 -0.38580674 71 17
3.2292066 0.01123237 -0.44381618 52 16
3.2212417 0.44161934 -0.56078708 35 15
3.2772422 0.0068332385 -0.92788941 64 13
nan nan nan 0 14
3.2622943 0.0034265569 -1.1163226 30 12
2.8372633 0.39564094 -1.1444745 6 11
0.86951911 -0.00018855557 -0.44321367 9 9
2.5711658 0.3609933 -1.2031674 10 10
0.77303857 -0.0011966864 -0.44615427 9 8
0.69663876 0.098818161 -0.45259929 9 7
0.62958312 -0.0023950625 -0.45287254 15 6
0.57459521 0.083119169 -0.46197864 12 5
0.52459836 -0.00371349 -0.4681583 12 4
0.47546482 0.07030797 -0.47305229 11 3
0.40153098 -0.0038860776 -0.43313444 6 2
nan nan nan 0 1
nan nan nan 0 0
3.3255572 0.45242295 0.88621283 63 31
3.2499399 0.002806284 0.74402195 69 30
3.3429282 0.45185277 0.64408982 68 29
1.3118812 0.0029076838 0.19974031 98 28
3.3401537 0.44853219 0.40715265 66 27
1.326522 0.0029031644 0.12345818 72 26
3.3518739 0.44892973 0.23286469 66 25
1.3434871 0.0029059541 0.061024286 76 24
1.3725654 0.18164662 0.031334572 46 23
1.3524097 0.0026745857 0 75 22
3.364264 0.44821361 -0.077988267 66 21
1.3659641 0.0022025055 -0.062072415 45 20
3.3596828 0.44759378 -0.23221435 67 19
1.3844832 0.0017253227 -0.12115843 33 18
3.3756387 0.44912544 -0.38580674 71 17
nan nan nan 0 16
nan nan nan 0 15
3.2748415 -0.0051730466 -0.92720151 64 13
nan nan nan 0 14
3.2575598 -0.0085147023 -1.1146882 30 12
2.8823237 0.39120021 -1.1622837 6 11
0.86509722 -0.0031952255 -0.44086865 9 9
2.5747132 0.35187575 -1.2042303 10 10
0.76875007 -0.0039941585 -0.44356787 8 8
0.69699633 0.096264191 -0.45259929 9 7
0.62360364 -0.0046338518 -0.44832867 15 6
0.58056003 0.081839934 -0.46682456 13 5
0.52096742 -0.0055788131 -0.46470326 12 4
0.47063315 0.067798346 -0.467594 11 3
0.4079749 -0.0054184622 -0.44076675 6 2
nan nan nan 0 1
nan nan nan 0 0
3.3200099 0.43927523 0.88427925 64 31
3.2523642 -0.0091138622 0.74458563 70 30
3.3421285 0.43927565 0.64361626 68 29
1.3143529 -0.0019083798 0.20012663 98 28
3.3393145 0.43596384 0.40684968 66 27
1.3290123 -0.0019666201 0.12369605 55 26
3.3460779 0.43567005 0.23234412 64 25
1.3409915 -0.0020103466 0.06090783 71 24
1.3731911 0.17685437 0.031334572 39 23
1.3549104 -0.002290552 0 70 22
3.3658841 0.43587998 -0.077988267 66 21
1.3584715 -0.0025394605 -0.061723035 51 20
3.3563542 0.43463275 -0.23186903 68 19
1.3819903 -0.0033390785 -0.12093488 27 18
3.3747227 0.43701875 -0.38552243 71 17
nan nan nan 0 16
2.8995185 0.37614262 -0.50367785 8 15
3.2748036 -0.016604345 -0.92720151 65 13
3.37429 0.43872228 -0.77132916 63 14
3.2575102 -0.019885655 -1.1146882 30 12
2.8538058 0.37716222 -1.1500984 4 11
0.8650797 -0.0063659437 -0.44086865 9 9
2.5759258 0.34288615 -1.2042303 10 10
0.77301019 -0.0067283562 -0.44615427 8 8
0.69527721 0.09354642 -0.45119807 9 7
0.62756109 -0.0068703126 -0.45135793 14 6
0.57328618 0.078736171 -0.46036333 13 5
0.52094471 -0.007397294 -0.46470326 12 4
0.47595575 0.066903844 -0.47305229 12 3
0.40149289 -0.0067592487 -0.43313444 6 2
nan nan nan 0 1
nan nan nan 0 0
3.321523 0.42768353 0.88427925 65 31
3.2425702 -0.02039866 0.74233103 70 30
3.3314679 0.42604083 0.64124829 68 29
1.3143382 -0.0064963149 0.20012663 102 28
3.3383543 0.42399034 0.40654677 70 27
1.3339758 -0.0064059151 0.12417181 14 26
3.3525267 0.42461777 0.23269117 66 25
1.3534623 -0.00677408 0.061490119 25 24
1.3762794 0.17237492 0.031392597 30 23
1.3498942 -0.0069860248 0 23 22
3.3648314 0.42440137 -0.077930234 63 21
1.3584543 -0.0072813956 -0.061723035 47 20
3.3603253 0.4232277 -0.23204169 68 19
1.3819716 -0.0079219053 -0.12093488 32 18
3.3737636 0.42492396 -0.38523811 70 17
nan nan nan 0 16
nan nan nan 0 15
3.2723219 -0.028013205 -0.92651367 64 13
3.3588049 0.4253746 -0.76742232 62 14
3.252696 -0.031207709 -1.1130537 30 12
2.8941133 0.37276429 -1.166033 5 11
0.85622275 -0.0091159279 -0.43617857 9 9
2.5793507 0.33418542 -1.2052932 10 10
0.775123 -0.0093242014 -0.44744751 8 8
0.6997031 0.091672957 -0.45400053 9 7
0.62753487 -0.0089513417 -0.45135793 15 6
0.57543403 0.07709758 -0.46197864 14 5
0.51369071 -0.0089607732 -0.45779315 13 4
0.46938658 0.064349346 -0.46577457 11 3
0.403083 -0.0081345849 -0.4350425 7 2
nan nan nan 0 1
nan nan nan 0 0
3.3205266 0.41636434 0.88363481 64 31
3.2449203 -0.031176377 0.74289459 70 30
3.3328624 0.4149909 0.64124829 67 29
1.3118396 -0.010830211 0.19974031 99 28
3.3348169 0.41230506 0.40594089 71 27
1.3414109 -0.011136592 0.12488544 10 26
3.3415411 0.41196322 0.23182356 67 25
1.3534325 -0.011262286 0.061490119 9 24
1.3793241 0.16811685 0.031450626 26 23
1.359863 -0.011563623 0 9 22
3.3563702 0.41142976 -0.077698126 66 21
1.3559258 -0.011760439 -0.061606579 48 20
3.3542843 0.41116643 -0.23152374 68 19
1.3819356 -0.012745838 -0.12093488 25 18
3.3628287 0.41221389 -0.3838166 37 17
1.8176949 -0.018089861 -0.24771136 33 16
3.3346398 0.40990099 -0.57968044 38 15
3.2625978 -0.038743656 -0.92376232 64 13
3.3723614 0.41514519 -0.77021289 66 14
3.2549369 -0.042026032 -1.113871 31 12
2.8999956 0.36323982 -1.1679077 6 11
0.86722404 -0.012291541 -0.44204116 9 9
2.5781999 0.32534459 -1.2042303 10 10
0.77080739 -0.011949921 -0.44486105 7 8
0.69589794 0.088811673 -0.45119807 9 7
0.6314767 -0.01122857 -0.45438719 15 6
