# .PCD v0.7 - Point Cloud Data file format
VERSION 0.7
FIELDS x y z intensity ring
SIZE 4 4 4 4 2
TYPE F F F F U
COUNT 1 1 1 1 1
WIDTH 1319
HEIGHT 1
VIEWPOINT 0 0 0 1 0 0 0
POINTS 1319
DATA ascii
-0.91213214 0.89075744 -0.11132269 95 18
-0.94953895 0.71289849 -0.13191918 84 17
-0.90869617 0.88800281 -0.17167772 95 16
-0.94791383 0.71118987 -0.20052649 95 15
-0.90545505 0.88755411 -0.35285935 97 13
-0.95796877 0.71820217 -0.26622576 95 14
-0.65237731 0.63989425 -0.30400586 68 12
-0.95467627 0.71273702 -0.46772546 91 11
-0.63309568 0.62466472 -0.45376638 97 9
-0.74802905 0.55799079 -0.42195889 96 10
-0.90727597 0.90003127 -0.75134969 29 8
-0.92737502 0.68492502 -0.75666755 3 7
nan nan nan 0 6
-0.97471625 0.71413684 -0.99341565 3 5
nan nan nan 0 4
-1.0161773 0.73751217 -1.2954355 3 3
nan nan nan 0 2
-1.0507207 0.75487226 -1.652596 1 1
nan nan nan 0 0
-0.94684702 0.71197951 0.30679077 85 31
-0.91088623 0.89511114 0.28746304 97 30
-0.95136541 0.7166301 0.22306347 94 29
-0.90254831 0.88629442 0.19239974 96 28
-0.9430089 0.71162093 0.13995872 84 27
-0.91094244 0.89458346 0.11870063 89 26
-0.94734079 0.71538651 0.080166534 87 25
-0.91222656 0.89585745 0.057996366 87 24
-0.9510693 0.71870297 0.026866494 80 23
-0.90947205 0.89345539 0 95 22
-0.9508183 0.71903491 -0.026866494 85 21
-0.91013563 0.89442235 -0.057879902 94 20
-0.94686341 0.71606445 -0.079764329 82 19
-0.91240531 0.89759326 -0.11176977 93 18
-0.94902897 0.71770281 -0.13220349 84 17
-0.907197 0.8930676 -0.17202178 95 16
-0.94936144 0.71745598 -0.20138527 93 15
-0.90405893 0.8924008 -0.35354719 97 13
-0.95338237 0.72024345 -0.26566762 95 14
-0.63840228 0.63051593 -0.29828531 97 12
-0.95218247 0.71606511 -0.46772546 92 11
-0.62611645 0.62229872 -0.45024881 96 9
-0.74426389 0.55924428 -0.42089599 101 10
-0.90412867 0.90319276 -0.75134969 28 8
-0.92165023 0.68569434 -0.75386512 3 7
nan nan nan 0 6
-0.9722175 0.71753496 -0.99341565 3 5
nan nan nan 0 4
-1.0122101 0.74004626 -1.2936161 3 3
nan nan nan 0 2
-1.0505383 0.76030558 -1.6565734 1 1
nan nan nan 0 0
-0.94435602 0.71528029 0.30679077 85 31
-0.91121268 0.90171772 0.28859034 98 30
-0.95081663 0.72142625 0.22353706 95 29
-0.90646189 0.89639866 0.19394512 93 28
-0.94249797 0.71640599 0.14026166 85 27
-0.90781415 0.89775783 0.11870063 95 26
-0.94483787 0.71868902 0.080166534 87 25
-0.9108665 0.9007954 0.058112819 86 24
-0.95453024 0.72654754 0.027040575 79 23
-0.90279925 0.89310205 0 95 22
-0.94830263 0.72234952 -0.026866494 86 21
-0.90878004 0.89935356 -0.057996366 94 20
-0.94833231 0.72237968 -0.080109626 81 19
-0.90926659 0.90077263 -0.11176977 94 18
-0.94849682 0.72251213 -0.1324878 84 17
-0.90582967 0.89797521 -0.17236581 95 16
-0.94881403 0.72225314 -0.20181465 96 15
-0.90093833 0.89555115 -0.35354719 97 13
-0.95280492 0.72503871 -0.26622576 95 14
-0.64622307 0.64276266 -0.30318862 100 12
-0.95152771 0.72077996 -0.4686628 91 11
-0.62549669 0.62604666 -0.45142132 93 9
-0.74230719 0.56183881 -0.42089599 105 10
-0.89193761 0.89722168 -0.74359047 26 8
-0.92423046 0.69262016 -0.75806874 3 7
nan nan nan 0 6
-0.97277504 0.72319365 -0.99664629 3 5
nan nan nan 0 4
-1.0096207 0.74357498 -1.2936161 3 3
nan nan nan 0 2
-1.0503306 0.76574683 -1.6605507 1 1
nan nan nan 0 0
-0.94570047 0.7214945 0.30807981 85 31
-0.91150397 0.90833747 0.28971764 97 30
-0.94829261 0.7247408 0.22353706 95 29
-0.90158027 0.89781141 0.19355877 95 28
-0.94393843 0.72270048 0.14086755 86 27
-0.90835345 0.90428096 0.11917639 94 26
-0.94430625 0.72349542 0.080340058 86 25
-0.91301602 0.90926504 0.058462199 85 24
-0.95198828 0.72987503 0.027040575 80 23
-0.90674859 0.90331775 0 95 22
-0.94590205 0.72549021 -0.026866494 85 21
-0.90563512 0.9025203 -0.057996366 95 20
-0.94778687 0.72719979 -0.080282286 81 19
-0.90979457 0.90730554 -0.11221685 95 18
-0.95189011 0.73034233 -0.13334073 82 17
-0.90634626 0.90447837 -0.17305391 94 16
-0.94432956 0.72406626 -0.20138527 96 15
-0.89441544 0.89528388 -0.35217151 97 13
-0.95427018 0.73115057 -0.26734203 95 14
-0.63731509 0.63830978 -0.29991975 100 12
-0.94913232 0.72393137 -0.4686628 92 11
-0.62186617 0.62654614 -0.45024881 82 9
-0.74214488 0.5657934 -0.42195889 108 10
-0.88895738 0.90017456 -0.74359047 30 8
-0.91849631 0.69335532 -0.75526631 3 7
nan nan nan 0 6
-0.97496212 0.72983485 -1.0014921 3 5
nan nan nan 0 4
-1.0057697 0.74590105 -1.2917967 3 3
nan nan nan 0 2
-1.0465622 0.76833224 -1.6585622 1 1
nan nan nan 0 0
-0.94713998 0.72756147 0.30936882 86 31
-0.91020346 0.91308314 0.2902813 97 30
-0.9478327 0.72937453 0.22401066 92 29
-0.90208071 0.90429968 0.19433145 94 28
-0.93956822 0.7243157 0.14056461 82 27
-0.90519142 0.90744621 0.11917639 93 26
-0.94585752 0.72966141 0.080687098 85 25
-0.91175634 0.91405886 0.058578655 87 24
-0.95339727 0.7362408 0.027156627 78 23
-0.90551019 0.90809304 0 95 22
-0.94732583 0.73183548 -0.026982548 85 21
-0.90071952 0.90390414 -0.057879902 93 20
-0.94537014 0.73033875 -0.080282286 80 19
-0.91012985 0.91401058 -0.11266392 93 18
-0.94736648 0.73214579 -0.13305642 83 17
-0.90143991 0.90587842 -0.17270987 94 16
-0.94570094 0.73036081 -0.20224406 95 15
-0.89804369 0.90523762 -0.35492283 97 13
-0.94977987 0.73299217 -0.26678389 95 14
-0.62844616 0.63380265 -0.29665089 99 12
-0.94647264 0.72740525 -0.4686628 91 11
-0.61349261 0.62240613 -0.44555873 94 9
-0.73836678 0.56700736 -0.42089599 109 10
-0.87668329 0.89424235 -0.73583132 23 8
-0.91607046 0.69655722 -0.75526631 3 7
nan nan nan 0 6
-0.97228062 0.73340338 -1.0014921 3 5
nan nan nan 0 4
-1.0085329 0.75367433 -1.2990744 3 3
nan nan nan 0 2
-1.0449593 0.7730608 -1.6605507 1 1
nan nan nan 0 0
-0.94446695 0.73102802 0.30936882 84 31
-0.91027105 0.91988158 0.2914086 97 30
-0.95098197 0.73734391 0.22543144 90 29
-0.90223002 0.911116 0.19510415 94 28
-0.94083297 0.73079097 0.14117049 85 27
-0.90710348 0.91607189 0.11989003 90 26
-0.94514894 0.73464966 0.080860615 85 25
-0.91015416 0.91917199 0.058695115 86 24
-0.95082152 0.7395643 0.027156627 80 23
-0.90217578 0.9114058 0 94 22
-0.94463718 0.73530269 -0.026982548 84 21
-0.90457273 0.91415524 -0.058345739 90 20
-0.94465816 0.73532665 -0.080454931 80 19
-0.90852112 0.91911405 -0.11288746 94 18
-0.94676822 0.73696989 -0.13334073 82 17
-0.90332508 0.9144702 -0.17374198 93 16
-0.94509286 0.73516566 -0.20267344 95 15
-0.89319474 0.90665174 -0.35423502 96 13
-0.94516021 0.73497659 -0.26622576 95 14
-0.62126988 0.63092917 -0.29419923 97 12
-0.94759917 0.73353416 -0.47053745 91 11
-0.60196793 0.61515623 -0.43852359 97 9
-0.73458928 0.56820196 -0.41983315 109 10
nan nan nan 0 8
-0.91033995 0.69724077 -0.75246382 3 7
nan nan nan 0 6
-0.97275871 0.73909426 -1.0047228 3 5
nan nan nan 0 4
-1.0086405 0.75924569 -1.3027133 3 3
nan nan nan 0 2
-1.0398203 0.7748993 -1.6565734 1 1
nan nan nan 0 0
-0.94190949 0.7343204 0.30936882 85 31
-0.90705454 0.92305338 0.2914086 97 30
-0.94646472 0.73915213 0.22495785 94 29
-0.90423048 0.91955227 0.19626319 90 28
-0.93631876 0.73254555 0.14086755 83 27
-0.90390021 0.91923267 0.11989003 91 26
-0.94061196 0.73641109 0.080687098 85 25
-0.9104358 0.92591059 0.058928031 85 24
-0.94823414 0.74287874 0.027156627 79 23
-0.90248781 0.91812116 0 94 22
-0.9440347 0.74013364 -0.027040575 83 21
-0.89962906 0.91552299 -0.058229282 92 20
-0.94208562 0.73861969 -0.080454931 81 19
-0.90704852 0.92405981 -0.113111 90 18
-0.94614768 0.7417987 -0.13362503 85 17
-0.90358943 0.92115927 -0.17443007 92 16
-0.94252086 0.73846012 -0.20267344 94 15
-0.89505762 0.91492707 -0.35629851 77 13
-0.94451034 0.73976982 -0.26678389 95 14
-0.61741632 0.63140047 -0.29338199 94 12
-0.94320202 0.73541623 -0.46960008 92 11
-0.59521395 0.61249036 -0.43500599 101 9
-0.73081243 0.56937701 -0.41877028 106 10
nan nan nan 0 8
-0.91118526 0.70293564 -0.75526631 3 7
nan nan nan 0 6
-0.97624499 0.74710929 -1.011184 3 5
nan nan nan 0 4
-1.0018779 0.75966418 -1.2972549 3 3
nan nan nan 0 2
-1.048034 0.78668225 -1.6744716 1 1
nan nan nan 0 0
-0.93934041 0.73760378 0.30936882 84 31
-0.908921 0.93145227 0.29309955 97 30
-0.94581115 0.74396497 0.22543144 93 29
-0.89756995 0.91916281 0.19549049 94 28
-0.93570822 0.73734134 0.14117049 85 27
-0.90415728 0.92594945 0.12036578 89 26
-0.94195873 0.74277043 0.081034139 85 25
-0.90719819 0.92908305 0.058928031 82 24
-0.94760042 0.74772841 0.027214656 79 23
-0.90102077 0.92305785 0 94 22
-0.9434101 0.74496931 -0.027098602 82 21
-0.8981688 0.92044795 -0.058345739 90 20
-0.94146222 0.74344534 -0.080627583 80 19
-0.90555233 0.92900634 -0.11333454 91 18
-0.94550502 0.74663222 -0.13390934 82 17
-0.90209329 0.92608446 -0.17477413 91 16
-0.93993741 0.74174559 -0.20267344 95 15
-0.888515 0.91459209 -0.35492283 45 13
-0.94575512 0.74607301 -0.26790014 95 14
-0.61192548 0.63015324 -0.29174757 91 12
-0.94610667 0.74298668 -0.47241208 90 11
-0.58084196 0.60181952 -0.42562583 108 9
-0.73417282 0.57610023 -0.42195889 99 10
nan nan nan 0 8
-0.90545011 0.70357919 -0.75246382 3 7
nan nan nan 0 6
-0.97665918 0.75283515 -1.0144147 3 5
nan nan nan 0 4
-0.99922013 0.76315677 -1.2972549 3 3
nan nan nan 0 2
-1.039228 0.7857824 -1.6645281 1 1
nan nan nan 0 0
-0.94258332 0.745197 0.31130239 83 31
-0.90244275 0.93095779 0.29197225 97 30
-0.94526654 0.74861741 0.22590505 93 29
-0.90138382 0.92923748 0.19703588 90 28
-0.93520522 0.74197859 0.14147343 83 27
-0.90454119 0.93252116 0.12084153 88 26
-0.94144672 0.74743664 0.081207655 84 25
-0.90758371 0.93567729 0.059160948 86 24
-0.94694442 0.75258273 0.027272681 79 23
-0.90142941 0.92963612 0 93 22
-0.94093442 0.74809372 -0.027098602 84 21
-0.90015471 0.92896676 -0.058695115 92 20
-0.93899167 0.74656326 -0.080627583 82 19
-0.90246665 0.93200415 -0.11333454 80 18
-0.94678712 0.75301224 -0.13447796 83 17
-0.8972984 0.92728835 -0.17443007 91 16
-0.94506729 0.75113583 -0.20439102 93 15
-0.86866021 0.90036076 -0.34804451 27 13
-0.94901001 0.75374019 -0.26957452 95 14
-0.60645092 0.62887543 -0.29011312 78 12
-0.94350737 0.74628466 -0.47241208 89 11
-0.57884306 0.60374236 -0.42562583 109 9
-0.72504044 0.57306701 -0.41770741 80 10
nan nan nan 0 8
-0.89972168 0.70419133 -0.74966139 3 7
nan nan nan 0 6
-0.96798563 0.75157332 -1.0079534 3 5
nan nan nan 0 4
-1.0006346 0.76976633 -1.3027133 3 3
nan nan nan 0 2
-1.0473465 0.79763925 -1.6824263 1 1
nan nan nan 0 0
-0.94363064 0.75164878 0.31259143 82 31
-0.904082 0.939533 0.2936632 96 30
-0.94251639 0.75207698 0.22590505 94 29
-0.89797199 0.93253505 0.19703588 91 28
-0.93442106 0.74694681 0.14177637 81 27
-0.89939409 0.93403459 0.12060365 89 26
-0.94065177 0.75243616 0.081381179 83 25
-0.90587729 0.94079924 0.059277404 84 24
-0.94626606 0.75744146 0.02733071 78 23
-0.89974672 0.9347378 0 93 22
-0.94014007 0.75309592 -0.027156627 82 21
-0.8969065 0.93210328 -0.058695115 91 20
-0.94404781 0.756221 -0.081318185 80 19
-0.90248966 0.93890178 -0.11378161 52 18
-0.94609457 0.7578615 -0.13476226 82 17
-0.89731836 0.93414831 -0.17511816 89 16
-0.93858778 0.75135976 -0.20353223 95 15
nan nan nan 0 13
-0.94433522 0.75569475 -0.26901639 95 14
-0.5944742 0.62072444 -0.2852098 78 12
-0.94271249 0.75101382 -0.47334939 88 11
-0.57055575 0.59944493 -0.42093575 105 9
-0.72126138 0.57419008 -0.41664454 71 10
-0.59232104 0.624551 -0.49917552 92 8
-0.89237094 0.70349419 -0.74545759 3 7
nan nan nan 0 6
-0.96535629 0.75494766 -1.0079534 3 5
nan nan nan 0 4
-0.99794155 0.77325451 -1.3027133 3 3
nan nan nan 0 2
-1.0373299 0.79577565 -1.6704942 1 1
nan nan nan 0 0
-0.94100118 0.75493813 0.31259143 82 31
-0.90247649 0.94444686 0.29422686 97 30
-0.9456349 0.75996375 0.22732581 91 29
-0.89471126 0.93566382 0.19703588 92 28
-0.92987186 0.7486518 0.14147343 83 27
-0.90127885 0.94257325 0.12131728 89 26
-0.93996471 0.7572757 0.081554696 84 25
-0.90603334 0.94757128 0.05951032 84 24
-0.94166738 0.75917524 0.027272681 80 23
-0.90165144 0.94330323 0 90 22
-0.93750548 0.75637311 -0.027156627 84 21
-0.89709163 0.93884534 -0.058928031 88 20
-0.94140232 0.75951177 -0.081318185 80 19
-0.90092295 0.9438504 -0.11400516 36 18
-0.9453795 0.76271504 -0.13504657 82 17
-0.89575821 0.93906957 -0.17546222 85 16
-0.93980032 0.75771534 -0.20439102 94 15
nan nan nan 0 13
-0.94549257 0.76203704 -0.27013263 95 14
-0.58743292 0.61764663 -0.28275815 68 12
-0.93646359 0.75140679 -0.47147474 90 11
-0.56845981 0.60143286 -0.42093575 103 9
-0.72456092 0.58093566 -0.41983315 60 10
-0.58136278 0.61724454 -0.49141631 101 8
-0.89315903 0.70917177 -0.74826008 3 7
nan nan nan 0 6
-0.95971161 0.75595868 -1.0047228 3 5
nan nan nan 0 4
-0.99794465 0.77883637 -1.3063521 3 3
nan nan nan 0 2
-1.0369481 0.80123836 -1.6744716 1 1
nan nan nan 0 0
-0.94024211 0.75973243 0.31323594 84 31
-0.90084785 0.94936109 0.29479051 97 30
-0.94297636 0.76326001 0.22732581 92 29
-0.89313745 0.9405753 0.19742221 92 28
-0.93304503 0.7565701 0.14238225 81 27
-0.89814824 0.94555688 0.12131728 89 26
-0.93731564 0.76055223 0.081554696 84 25
-0.90443677 0.95254225 0.059626784 84 24
-0.94289845 0.76560068 0.027388735 79 23
-0.89491719 0.94281256 0 90 22
-0.94082171 0.76419336 -0.02733071 83 21
-0.89380908 0.94197094 -0.058928031 86 20
-0.93874538 0.76279318 -0.081318185 81 19
-0.89265746 0.94140339 -0.11333454 25 18
-0.94464207 0.7675727 -0.13533089 82 17
-0.89093912 0.94023448 -0.17511816 89 16
-0.9390648 0.7625398 -0.20482041 91 15
-0.55769932 0.58914405 -0.22217071 32 13
-0.94106501 0.76363671 -0.26957452 95 14
-0.57718509 0.61108327 -0.27867204 59 12
-0.93035477 0.75160301 -0.46960008 91 11
-0.56344897 0.60008663 -0.41859069 102 9
-0.71723515 0.57921147 -0.41664454 75 10
-0.57785553 0.61760253 -0.49012312 102 8
-0.89067811 0.71228522 -0.74826008 3 7
nan nan nan 0 6
-0.96319079 0.76386517 -1.011184 3 5
nan nan nan 0 4
-1.0007594 0.78636563 -1.3136299 3 3
nan nan nan 0 2
-1.0462656 0.81394541 -1.6943583 1 1
nan nan nan 0 0
-0.93959457 0.76436669 0.31388047 83 31
-0.90102988 0.95589352 0.29591784 98 30
-0.94044012 0.76638275 0.22732581 93 29
-0.89339703 0.94713116 0.19819492 90 28
-0.93053102 0.75966001 0.14238225 81 27
-0.89995581 0.954126 0.12203092 86 26
-0.93865764 0.7668041 0.081901737 83 25
-0.90469396 0.95917517 0.059859701 82 24
-0.94022024 0.76888728 0.027388735 78 23
-0.89520979 0.94941866 0 89 22
-0.93427306 0.76431555 -0.027214656 84 21
-0.89393461 0.94872612 -0.059160948 85 20
-0.93621075 0.76590198 -0.081318185 80 19
-0.88936597 0.94451362 -0.11333454 13 18
-0.94195712 0.77086544 -0.13533089 82 17
-0.89103937 0.94695127 -0.17580625 68 16
-0.93639731 0.76581305 -0.20482041 95 15
-0.55235672 0.58757555 -0.22079504 36 13
-0.94217378 0.76999331 -0.27069077 95 14
-0.5734368 0.61136669 -0.2778548 50 12
-0.92759377 0.75500786 -0.46960008 84 11
-0.55984974 0.60043049 -0.41741818 98 9
-0.71344954 0.58028871 -0.41558167 97 10
-0.56978202 0.61342883 -0.4849503 104 8
-0.87849283 0.70762116 -0.73985267 3 7
nan nan nan 0 6
-0.95441067 0.76264024 -1.0047228 3 5
nan nan nan 0 4
-0.99652368 0.78896725 -1.3118104 3 3
nan nan nan 0 2
-1.0456647 0.81963807 -1.6983358 1 1
nan nan nan 0 0
-0.93865806 0.76933271 0.31452501 83 31
-0.90084249 0.96275222 0.29704514 96 30
-0.93952543 0.77137834 0.22779943 93 29
-0.89497501 0.95581669 0.19935395 87 28
-0.92774045 0.76306552 0.14238225 81 27
-0.89645267 0.95741808 0.12203092 87 26
-0.9358409 0.77023929 0.081901737 83 25
-0.89606088 0.95700717 0.05951032 85 24
-0.93753058 0.77216464 0.027388735 81 23
-0.89342922 0.95452148 0 89 22
-0.93339729 0.76932043 -0.027272681 83 21
-0.89232051 0.95366716 -0.059277404 78 20
-0.9372527 0.77249295 -0.081663482 79 19
-0.87401772 0.93501335 -0.11176977 9 18
-0.93734062 0.77257299 -0.13504657 83 17
-0.8892498 0.95202321 -0.17615029 30 16
-0.93562263 0.77063906 -0.2052498 94 15
-0.54703194 0.58597696 -0.21941935 32 13
-0.93934524 0.77344143 -0.27069077 95 14
-0.57451046 0.61683118 -0.27948925 58 12
-0.91597515 0.75091404 -0.46491349 76 11
-0.55316001 0.5976041 -0.41390061 88 9
-0.70791042 0.57991767 -0.41345593 103 10
-0.56329924 0.6106832 -0.48107073 106 8
-0.88085067 0.71458477 -0.7440564 3 7
nan nan nan 0 6
-0.95918947 0.77193087 -1.0127994 3 5
nan nan nan 0 4
-0.99510664 0.79350668 -1.3136299 3 3
nan nan nan 0 2
-1.0570936 0.83451313 -1.7222 1 1
nan nan nan 0 0
-0.93783283 0.77413827 0.31516951 81 31
-0.90078616 0.96946496 0.29817244 97 30
-0.9387219 0.77621365 0.228273 92 29
-0.89163315 0.95893496 0.19935395 88 28
-0.92889988 0.76945758 0.14298813 79 27
-0.89817983 0.96601772 0.12274455 83 26
-0.93699312 0.77667671 0.082248777 81 25
-0.89950448 0.96745622 0.059976161 82 24
-0.93482947 0.77543247 0.027388735 81 23
-0.89179087 0.95946842 0 88 22
-0.93841141 0.77894372 -0.027504789 80 21
-0.890683 0.95860845 -0.059393868 68 20
-0.93070614 0.77258176 -0.081318185 82 19
-0.86736685 0.93440288 -0.11132269 7 18
-0.94229555 0.78217041 -0.13618381 81 17
-0.88592118 0.9551214 -0.17615029 7 16
-0.93292689 0.77390021 -0.2052498 92 15
-0.55638653 0.60025352 -0.22423421 25 13
-0.93851876 0.77826738 -0.27124888 96 14
-0.56595576 0.61187738 -0.27622038 70 12
nan nan nan 0 11
-0.54660237 0.59464145 -0.41038305 80 9
-0.70588183 0.58238524 -0.41345593 105 10
-0.55396169 0.60473591 -0.4746047 104 8
-0.87835091 0.71765506 -0.7440564 3 7
nan nan nan 0 6
-0.95351875 0.77287853 -1.0095688 3 5
nan nan nan 0 4
-0.99634892 0.80018657 -1.3190881 3 3
nan nan nan 0 2
-1.0434813 0.82973808 -1.7043018 1 1
nan nan nan 0 0
-0.93884605 0.7804879 0.31645855 81 31
-0.8973965 0.97260344 0.29817244 97 30
-0.93600667 0.77948558 0.228273 90 29
-0.89329791 0.96749413 0.20051299 86 28
-0.93002588 0.77586699 0.14359401 79 27
-0.89497149 0.96899086 0.12274455 86 26
-0.93619412 0.78153712 0.082422301 84 25
-0.90119499 0.97610307 0.060325533 83 24
-0.9359597 0.78188789 0.027504789 81 23
-0.89351386 0.96809536 0 87 22
-0.93966532 0.78524899 -0.027620843 82 21
-0.88733131 0.9617117 -0.059393868 64 20
-0.93183696 0.77901733 -0.081663482 81 19
nan nan nan 0 18
-0.93765068 0.78386563 -0.1358995 83 17
nan nan nan 0 16
-0.93589962 0.78187758 -0.20653799 91 15
-0.54292774 0.58978164 -0.21941935 18 13
-0.93593276 0.78137529 -0.27124888 96 14
-0.56222296 0.61210477 -0.27540314 69 12
nan nan nan 0 11
-0.54611146 0.59808564 -0.41155556 82 9
-0.70558918 0.58628684 -0.4145188 105 10
-0.55338854 0.60815632 -0.47589788 104 8
-0.88385004 0.72727478 -0.75106257 3 7
nan nan nan 0 6
-0.94946933 0.77483332 -1.0079534 3 5
nan nan nan 0 4
-0.99636161 0.80563575 -1.322727 3 3
nan nan nan 0 2
-1.0502039 0.84074515 -1.7202113 1 1
nan nan nan 0 0
-0.93439728 0.78205043 0.31581405 82 31
-0.89580899 0.97737223 0.29873607 97 30
-0.93718523 0.78573179 0.2292202 86 29
-0.89008468 0.97045112 0.20051299 87 28
-0.92744786 0.77894676 0.14359401 78 27
-0.89326257 0.97394586 0.12298243 85 26
-0.93359721 0.78463733 0.082422301 82 25
-0.9013229 0.98277277 0.060558449 82 24
-0.9352777 0.78659225 0.027562818 81 23
-0.89198494 0.97289854 0 88 22
-0.9350031 0.78691876 -0.027562818 83 21
-0.88582152 0.96649265 -0.05951032 61 20
-0.92924851 0.78210306 -0.081663482 82 19
nan nan nan 0 18
-0.9388532 0.79016179 -0.13646811 81 17
nan nan nan 0 16
-0.93141353 0.78339535 -0.20610859 88 15
-0.54581988 0.59691364 -0.22148287 18 13
-0.93880481 0.7893309 -0.27292326 95 14
-0.54907644 0.60171777 -0.26968262 61 12
-0.74796355 0.62675971 -0.38055417 39 11
-0.54402041 0.59998828 -0.41155556 84 9
-0.69842184 0.58428258 -0.41133019 104 10
-0.54983258 0.60849255 -0.4746047 102 8
-0.86865294 0.71966636 -0.73985267 3 7
nan nan nan 0 6
-0.94971275 0.78055882 -1.011184 3 5
nan nan nan 0 4
-0.99087918 0.80694991 -1.3190881 3 3
nan nan nan 0 2
-1.0472627 0.84440589 -1.7202113 1 1
nan nan nan 0 0
-0.93721205 0.78996629 0.31774756 81 31
-0.89402819 0.98229736 0.29929975 96 30
-0.93631572 0.79057825 0.2296938 89 29
-0.88669169 0.97355217 0.20051299 90 28
-0.93041694 0.78697574 0.14450283 77 27
-0.89153004 0.97890067 0.1232203 84 26
-0.93657321 0.7927137 0.082942858 83 25
-0.89453 0.98221463 0.060325533 84 24
-0.93429852 0.79162681 0.027620843 80 23
-0.89530325 0.98341191 0 86 22
-0.9360702 0.79340208 -0.027678872 82 21
-0.88395077 0.97158301 -0.059626784 52 20
-0.92841852 0.78695077 -0.081836127 81 19
nan nan nan 0 18
-0.93784851 0.79520011 -0.13675243 81 17
nan nan nan 0 16
-0.93041831 0.78839225 -0.20653799 92 15
-0.53879708 0.5935576 -0.21941935 20 13
-0.93231797 0.78946126 -0.27180701 96 14
-0.54686737 0.60372627 -0.26968262 39 12
-0.75098598 0.633968 -0.38336614 39 11
-0.54192275 0.60188365 -0.41155556 86 9
-0.69627571 0.58683854 -0.41133019 103 10
-0.5490225 0.61210066 -0.47589788 97 8
-0.86282396 0.7201997 -0.73705024 3 7
nan nan nan 0 6
-0.94537312 0.78282118 -1.0095688 3 5
nan nan nan 0 4
-0.99057108 0.81274486 -1.322727 3 3
nan nan nan 0 2
-1.0441607 0.84823871 -1.7202113 1 1
nan nan nan 0 0
-0.93431038 0.793396 0.31774756 82 31
-0.8920517 0.98737746 0.29986337 97 30
-0.93715763 0.79717815 0.23064099 90 29
-0.88477081 0.97863042 0.20089932 88 28
-0.9218502 0.78556347 0.14359401 78 27
-0.89293396 0.98770833 0.12393393 83 26
-0.93556249 0.79775548 0.083116382 82 25
-0.8976106 0.99290776 0.060791366 82 24
-0.93343401 0.79650187 0.027678872 80 23
-0.89001977 0.98482925 0 86 22
-0.93315595 0.79682767 -0.027678872 83 21
-0.87888283 0.97280663 -0.05951032 51 20
-0.92932773 0.79357982 -0.082181431 81 19
nan nan nan 0 18
-0.94074321 0.80329633 -0.13760534 80 17
-0.49508995 0.54750603 -0.097708367 5 16
-0.93141395 0.79482502 -0.20739678 88 15
-0.52870083 0.58648568 -0.21598017 25 13
-0.93684691 0.79918426 -0.27403951 94 14
-0.54003137 0.60034835 -0.26723096 23 12
-0.73107171 0.62162012 -0.37399292 52 11
-0.53678006 0.6005646 -0.40921053 78 9
-0.69076431 0.58634675 -0.40920445 101 10
-0.53837293 0.60440189 -0.46813869 90 8
-0.87459767 0.73516214 -0.74966139 3 7
nan nan nan 0 6
-0.9470396 0.78977203 -1.0144147 3 5
nan nan nan 0 4
-0.98375511 0.81293082 -1.3172687 3 3
nan nan nan 0 2
-1.0470679 0.85666078 -1.7301548 1 1
nan nan nan 0 0
-0.93153518 0.79665262 0.31774756 81 31
-0.89184648 0.99411672 0.30099067 97 30
-0.93436927 0.8004446 0.23064099 90 29
-0.88299644 0.98355377 0.20128568 89 28
-0.92664808 0.79522574 0.14480577 77 27
-0.89114016 0.99267393 0.12417181 83 26
-0.93087673 0.79939532 0.082942858 82 25
-0.89413923 0.99603498 0.060791366 80 24
-0.93254673 0.80138046 0.027736897 79 23
-0.89157653 0.99352014 0 85 22
-0.93226701 0.80170584 -0.027736897 82 21
-0.87881088 0.97959208 -0.059743244 47 20
-0.92465776 0.79519659 -0.082008779 81 19
nan nan nan 0 18
-0.93604702 0.80495948 -0.13732104 81 17
-0.49647355 0.55292565 -0.098396458 7 16
-0.9267627 0.79646993 -0.20696737 80 15
-0.51706272 0.5775553 -0.21185318 27 13
-0.9321999 0.80086529 -0.2734814 95 14
nan nan nan 0 12
-0.72713298 0.62266552 -0.37305558 74 11
-0.5332197 0.600779 -0.40803799 34 9
-0.69216186 0.59168512 -0.41133019 101 10
-0.53908527 0.60949123 -0.47072509 71 8
-0.88469374 0.74888152 -0.76087123 4 7
nan nan nan 0 6
-0.94281304 0.79184926 -1.0127994 3 5
nan nan nan 0 4
-0.98883456 0.82292122 -1.3281852 1 3
nan nan nan 0 2
-1.0440711 0.86031049 -1.7301548 1 1
nan nan nan 0 0
-0.93058223 0.80147195 0.3183921 82 31
-0.88998801 0.99904513 0.30155435 96 30
-0.93343139 0.80530095 0.2311146 90 29
-0.88119829 0.9884764 0.20167202 89 28
-0.92386657 0.79845548 0.14480577 76 27
-0.89097548 0.99949932 0.12464756 86 26
-0.93185985 0.80589503 0.083289899 81 25
-0.8939743 1.0028837 0.061024286 80 24
-0.92974377 0.8046307 0.027736897 79 23
-0.89142334 1.0003647 0 83 22
-0.93135548 0.80658782 -0.027794925 81 21
-0.87704408 0.98452115 -0.059859701 41 20
-0.92376482 0.80004847 -0.082181431 81 19
nan nan nan 0 18
-0.93323141 0.80822206 -0.13732104 81 17
-0.48797083 0.54724276 -0.097020283 9 16
-0.92957336 0.804524 -0.20825556 89 15
-0.51026851 0.57395387 -0.20978966 25 13
-0.93124473 0.80570507 -0.27403951 95 14
nan nan nan 0 12
-0.72143668 0.62218219 -0.37118092 95 11
-0.52529949 0.59599328 -0.40334788 21 9
-0.68665403 0.59115487 -0.40920445 101 10
-0.53132623 0.60492206 -0.4655523 71 8
-0.90891373 0.77473468 -0.78469229 4 7
nan nan nan 0 6
-0.94150287 0.79636425 -1.0144147 3 5
nan nan nan 0 4
-0.98727268 0.82746613 -1.3300047 3 3
nan nan nan 0 2
-1.044566 0.8668437 -1.7361207 1 1
nan nan nan 0 0
-0.93143475 0.80787331 0.31968114 82 31
-0.88810593 1.0039726 0.302118 96 30
-0.93247098 0.8101607 0.23158818 91 29
-0.87937659 0.99339855 0.20205836 90 28
-0.92482412 0.8049264 0.14541166 79 27
-0.88748109 1.0026033 0.12464756 82 26
-0.92904109 0.80914289 0.083289899 80 25
-0.89046812 1.0059983 0.061024286 81 24
-0.92692941 0.80787122 0.027736897 80 23
-0.88792598 1.0034702 0 83 22
-0.9323079 0.81311196 -0.027910979 80 21
-0.86699617 0.98008358 -0.059393868 31 20
-0.92284948 0.80490375 -0.082354084 80 19
nan nan nan 0 18
-0.93227965 0.81310356 -0.13760534 81 17
-0.49423724 0.55823702 -0.098740496 15 16
-0.92117977 0.80292052 -0.20696737 85 15
-0.50509119 0.57211846 -0.208414 22 13
-0.93210769 0.81214511 -0.27515575 93 14
-0.47456545 0.53842825 -0.23617658 28 12
-0.71926039 0.62469667 -0.37118092 96 11
-0.53335994 0.60948449 -0.41155556 87 9
-0.68458635 0.59354812 -0.40920445 101 10
-0.53201425 0.61000645 -0.46813869 70 8
-0.90305573 0.77521294 -0.7818898 5 7
nan nan nan 0 6
-0.93871731 0.7996459 -1.0144147 3 5
nan nan nan 0 4
-0.98700398 0.83311278 -1.3336436 3 3
nan nan nan 0 2
-1.0508521 0.87823451 -1.7520301 1 1
nan nan nan 0 0
-0.92860913 0.81111974 0.31968114 82 31
-0.88780475 1.0107319 0.30324531 96 30
-0.93333852 0.81663597 0.23253538 90 29
-0.87753117 0.99831986 0.2024447 87 28
-0.92200875 0.80814976 0.14541166 79 27
-0.88889575 1.0113109 0.12536119 83 26
-0.92808926 0.81402183 0.083463423 81 25
-0.88695115 1.0091004 0.061024286 81 24
-0.92974883 0.81603682 0.027910979 78 23
-0.88771194 1.0103251 0 84 22
-0.9275828 0.81471568 -0.027852951 82 21
-0.8717944 0.99249893 -0.059976161 19 20
-0.92191124 0.80976224 -0.082526729 81 19
nan nan nan 0 18
-0.93317449 0.81962359 -0.13817397 78 17
-0.49065617 0.55809426 -0.098396458 21 16
-0.92578828 0.81261504 -0.20868494 86 15
-0.49045852 0.55938184 -0.20291133 19 13
-0.92926711 0.81539381 -0.27515575 96 14
-0.46493131 0.53116727 -0.23209049 27 12
-0.71357822 0.62416124 -0.36930627 97 11
-0.51968259 0.59797508 -0.40217537 97 9
-0.67909271 0.59296751 -0.40707871 102 10
-0.52290291 0.60375196 -0.46167269 59 8
-0.9081912 0.78511232 -0.78889591 5 7
nan nan nan 0 6
-0.93882263 0.8053956 -1.0176452 3 5
nan nan nan 0 4
-0.98278075 0.8354457 -1.3318241 3 3
nan nan nan 0 2
-1.0373276 0.87314224 -1.7341322 1 1
nan nan nan 0 0
-0.92940587 0.81753963 0.32097018 81 31
-0.8858692 1.015663 0.30380896 96 30
-0.93232739 0.82150829 0.23300898 88 29
-0.87566221 1.0032406 0.20283106 86 28
-0.92290968 0.81464028 0.14601754 78 27
-0.88699353 1.0162852 0.12559907 83 26
-0.93085951 0.82219839 0.08398398 80 25
-0.88342327 1.0121902 0.061024286 82 24
-0.92689466 0.81927729 0.027910979 78 23
-0.88582033 1.0153041 0 82 22
-0.93035936 0.82290518 -0.028027033 81 21
-0.86996305 0.99742091 -0.060092617 9 20
-0.92095047 0.81462407 -0.082699381 80 19
-0.46209204 0.52877009 -0.059908591 3 18
-0.93217158 0.82451797 -0.13845828 77 17
-0.48059052 0.55045235 -0.096676238 28 16
-0.92479473 0.81746906 -0.20911434 87 15
-0.47120294 0.54109764 -0.19534513 25 13
-0.93007392 0.82185245 -0.27627203 95 14
-0.45689788 0.52563399 -0.22882162 29 12
-0.70965183 0.62512112 -0.36836892 96 11
-0.5262171 0.60984129 -0.40921053 98 9
-0.6821295 0.59980226 -0.41026732 103 10
-0.52357244 0.6088264 -0.46425909 36 8
-0.91796261 0.79912442 -0.80010587 5 7
nan nan nan 0 6
-0.94613314 0.81737584 -1.0289525 3 5
nan nan nan 0 4
-0.98377383 0.8422069 -1.3372824 3 3
nan nan nan 0 2
-1.0400634 0.88164198 -1.7440754 1 1
nan nan nan 0 0
-0.93016911 0.82397485 0.32225922 81 31
-0.88391 1.0205929 0.30437264 95 30
-0.93129337 0.82638323 0.23348257 88 29
-0.8737694 1.0081602 0.20321739 87 28
-0.92191857 0.81950188 0.14632048 77 27
-0.88524574 1.0211041 0.12583695 82 26
-0.92798388 0.82544273 0.08398398 80 25
-0.88478208 1.0209374 0.061373662 80 24
-0.92402917 0.82250774 0.027910979 78 23
-0.88390476 1.0202821 0 81 22
-0.92762542 0.82598585 -0.028027033 82 21
-0.85994899 0.99288982 -0.059626784 7 20
-0.91623563 0.81617856 -0.082526729 81 19
-0.45057794 0.51898664 -0.058567353 4 18
-0.93114579 0.8294152 -0.1387426 80 17
-0.48037919 0.55391866 -0.097020283 25 16
-0.92377841 0.82232612 -0.20954373 83 15
-0.46461213 0.53727013 -0.19328164 31 13
-0.92734343 0.82493216 -0.27627203 94 14
-0.4550603 0.52722567 -0.22882162 31 12
-0.70236039 0.62287199 -0.36555696 89 11
-0.52132797 0.60822147 -0.40686548 100 9
-0.67663485 0.59918916 -0.40814158 104 10
-0.51601183 0.60403514 -0.4590863 51 8
-0.91984731 0.80640775 -0.80430955 5 7
nan nan nan 0 6
-0.9419747 0.81926006 -1.0273371 3 5
nan nan nan 0 4
-0.9900856 0.85327828 -1.3500184 3 3
nan nan nan 0 2
-1.0394435 0.88704741 -1.748053 1 1
nan nan nan 0 0
-0.92562556 0.8254509 0.32161468 81 31
-0.88210607 1.0253675 0.30493626 96 30
-0.93038183 0.83109862 0.23395617 88 29
-0.87363821 1.0148013 0.20399007 85 28
-0.92290103 0.8258568 0.14692636 76 27
-0.88329655 1.0260767 0.12607482 81 26
-0.92896396 0.83183557 0.084331021 79 25
-0.8813917 1.0238659 0.061373662 82 24
-0.92488122 0.8290574 0.028027033 79 23
-0.88214415 1.0251054 0 79 22
-0.92660046 0.83088362 -0.028085059 81 21
nan nan nan 0 20
-0.91724426 0.82253522 -0.082872026 80 19
-0.45362282 0.52622968 -0.059237972 4 18
-0.93009704 0.83431536 -0.1390269 76 17
-0.46878195 0.54430473 -0.094956025 29 16
-0.91906518 0.82390541 -0.20911434 84 15
-0.46117392 0.5370602 -0.1925938 38 13
-0.92627656 0.82978666 -0.27683017 94 14
-0.45474872 0.53060991 -0.22963883 34 12
-0.69834012 0.6239028 -0.36461964 69 11
-0.52633196 0.61846602 -0.41272807 100 9
-0.68131185 0.60755205 -0.41239306 105 10
-0.51379448 0.6059224 -0.4590863 59 8
-0.92635792 0.81781417 -0.81271696 6 7
nan nan nan 0 6
-0.94327992 0.82646924 -1.0321831 3 5
nan nan nan 0 4
-0.98435682 0.85465932 -1.3463795 3 3
nan nan nan 0 2
nan nan nan 0 1
nan nan nan 0 0
-0.92619419 0.83205909 0.32290372 80 31
-0.87834203 1.0285937 0.30493626 96 30
-0.92732942 0.83450311 0.23395617 88 29
-0.8731159 1.0217572 0.20476277 86 28
-0.91986787 0.82923388 0.14692636 76 27
-0.87952989 1.0293071 0.12607482 82 26
-0.92590886 0.83523476 0.084331021 80 25
-0.88249069 1.0327932 0.061723035 80 24
-0.92569876 0.83562297 0.028143087 78 23
-0.88000154 1.0302352 0 79 22
-0.92726481 0.83761775 -0.028201113 80 21
nan nan nan 0 20
-0.91978544 0.8308962 -0.083389983 78 19
-0.44685262 0.5221976 -0.058567353 4 18
-0.92717898 0.8375569 -0.1390269 79 17
-0.46838704 0.5479064 -0.095300063 24 16
-0.91984648 0.83040196 -0.20997313 86 15
-0.45618919 0.53499889 -0.19121812 50 13
-0.92685378 0.83643401 -0.27794641 93 14
-0.44984317 0.52858537 -0.2280044 39 12
-0.69443083 0.6247912 -0.3636823 65 11
-0.52264172 0.61870003 -0.41155556 107 9
-0.67412323 0.60540539 -0.40920445 104 10
-0.50481141 0.59950769 -0.4526203 25 8
-0.929699 0.82653135 -0.81832188 6 7
nan nan nan 0 6
-0.94469029 0.83353424 -1.037029 3 5
nan nan nan 0 4
-0.98783457 0.86371779 -1.3554767 3 3
nan nan nan 0 2
nan nan nan 0 1
nan nan nan 0 0
-0.92328405 0.83528709 0.32290372 80 31
-0.87946242 1.0372343 0.30662724 96 30
-0.92805529 0.84102458 0.23490337 88 29
-0.87592351 1.0323428 0.20630814 83 28
-0.91880828 0.83410412 0.1472293 76 27
-0.8775385 1.0342714 0.1263127 82 26
-0.92298776 0.83846176 0.084331021 80 25
-0.87888014 1.0358672 0.061723035 78 24
-0.92277616 0.83884919 0.028143087 77 23
-0.87639999 1.0333008 0 79 22
-0.92433536 0.84084934 -0.028201113 80 21
nan nan nan 0 20
-0.91687948 0.83410174 -0.083389983 78 19
-0.44984564 0.52946228 -0.059237972 5 18
-0.92977154 0.84579158 -0.13987982 78 17
-0.46008506 0.54196715 -0.093923889 24 16
-0.91876781 0.83526081 -0.21040253 85 15
-0.44967729 0.53107011 -0.18915462 64 13
-0.9239285 0.83966428 -0.27794641 92 14
-0.44343835 0.52472353 -0.22555274 48 12
-0.68535846 0.62100589 -0.35993302 59 11
-0.52472067 0.62560821 -0.41507313 115 9
-0.66864055 0.604729 -0.40707871 102 10
-0.50271565 0.60126615 -0.4526203 83 8
-0.92680824 0.82977146 -0.81832188 6 7
nan nan nan 0 6
-0.9460628 0.84061891 -1.0418749 3 5
nan nan nan 0 4
-0.98997134 0.8716808 -1.3627545 1 3
nan nan nan 0 2
nan nan nan 0 1
nan nan nan 0 0
-0.92215163 0.84012806 0.32354826 80 31
-0.88053328 1.0458952 0.30831817 95 30
-0.92693031 0.84590995 0.23537694 88 29
-0.87072641 1.0335025 0.20592181 85 28
-0.9177261 0.8389771 0.14753224 77 27
-0.87730527 1.0409869 0.12678845 80 26
-0.92374235 0.84503812 0.084678069 80 25
-0.88007671 1.0446663 0.062072415 80 24
-0.92538291 0.84711725 0.028317168 77 23
-0.87600243 1.0401833 0 76 22
-0.92523503 0.84727871 -0.028317168 80 21
nan nan nan 0 20
-0.91580462 0.83897823 -0.083562627 81 19
-0.44808742 0.53095114 -0.059237972 6 18
-0.92497873 0.84735769 -0.13959551 79 17
-0.45669496 0.54159182 -0.093579851 28 16
-0.91402686 0.83680338 -0.20997313 82 15
-0.45398384 0.54001534 -0.19190596 68 13
-0.92474151 0.84600621 -0.27906266 95 14
-0.44160402 0.52626824 -0.22555274 55 12
-0.68501204 0.62483227 -0.36087033 69 11
-0.52264321 0.62734485 -0.41507313 112 9
-0.673235 0.6131345 -0.41133019 100 10
-0.49799547 0.59962946 -0.4500339 96 8
-0.93006927 0.8385334 -0.82392687 6 7
nan nan nan 0 6
-0.94612014 0.84628916 -1.0451056 3 5
nan nan nan 0 4
-0.98193258 0.87042171 -1.3554767 1 3
nan nan nan 0 2
nan nan nan 0 1
nan nan nan 0 0
-0.92292744 0.84643954 0.3248373 79 31
-0.87861949 1.0506805 0.30888185 96 30
-0.9259311 0.85063636 0.23585056 87 29
-0.87204057 1.0420748 0.20708084 83 28
-0.91676825 0.84369266 0.1478352 76 27
-0.87366623 1.0440428 0.12678845 83 26
-0.92277282 0.84978247 0.084851585 78 25
-0.87660766 1.0475791 0.062072415 79 24
-0.91873831 0.84696126 0.028201113 78 23
-0.87414914 1.0450027 0 76 22
-0.92227185 0.85050327 -0.028317168 80 21
-0.49081159 0.58564949 -0.034005899 6 20
-0.91669089 0.84538496 -0.083907925 80 19
-0.44623134 0.53251201 -0.059237972 6 18
-0.92933077 0.85730356 -0.14073275 77 17
-0.4579691 0.5469898 -0.094267935 27 16
-0.91654241 0.84498614 -0.21126132 83 15
-0.45056176 0.5397467 -0.19121812 68 13
-0.92178279 0.84922904 -0.27906266 95 14
-0.43675163 0.52416611 -0.2239183 58 12
-0.67245179 0.61795849 -0.35524639 84 11
-0.52746207 0.63769257 -0.42093575 115 9
-0.6677466 0.61243153 -0.40920445 97 10
-0.49715006 0.60310584 -0.45132709 90 8
-0.92867255 0.84316325 -0.82532811 6 7
-0.40189189 0.48978376 -0.4559018 8 6
-0.94727337 0.85357332 -1.0499516 3 5
nan nan nan 0 4
-0.98001724 0.8751539 -1.3572962 1 3
nan nan nan 0 2
nan nan nan 0 1
nan nan nan 0 0
-0.92159635 0.85145223 0.3254818 79 31
-0.87631512 1.0557703 0.30944547 96 30
-0.92461199 0.85568804 0.23632413 88 29
-0.86979043 1.0471665 0.20746718 82 28
-0.91549295 0.84873056 0.14813812 75 27
-0.87459475 1.052989 0.12750208 81 26
-0.92148376 0.85485154 0.085025109 79 25
-0.87753963 1.0565557 0.062421788 79 24
-0.9212814 0.8552537 0.028375195 78 23
-0.87031317 1.0481995 0 78 22
-0.92465168 0.85897028 -0.028491249 78 21
-0.48558062 0.58351076 -0.033772983 6 20
-0.9117558 0.84704524 -0.08373528 81 19
-0.44586274 0.53606337 -0.059461512 6 18
-0.92997855 0.86391622 -0.14130136 75 17
-0.45596123 0.54866469 -0.094267935 30 16
-0.9153955 0.84985244 -0.21169069 79 15
-0.44867498 0.54131615 -0.19121812 62 13
-0.92224288 0.85591012 -0.2801789 95 14
-0.43191934 0.52203655 -0.22228386 61 12
-0.67199606 0.62187141 -0.35618371 95 11
-0.52372515 0.63791102 -0.41976321 116 9
-0.66393799 0.61322814 -0.40814158 96 10
-0.49369186 0.60317767 -0.4500339 97 8
-0.92878592 0.84918714 -0.8281306 6 7
-0.39767969 0.48808959 -0.45287254 9 6
-0.94428807 0.8568747 -1.0499516 3 5
nan nan nan 0 4
-0.97951156 0.88085634 -1.3609351 1 3
nan nan nan 0 2
nan nan nan 0 1
nan nan nan 0 0
-0.92039043 0.85630584 0.32612634 82 31
-0.87417048 1.0607049 0.31000915 96 30
-0.92701674 0.86392045 0.23774493 86 29
-0.86926675 1.0540124 0.20823988 82 28
-0.91434205 0.85361099 0.14844108 75 27
-0.8724941 1.0579579 0.12773997 79 26
-0.92214555 0.8614608 0.08537215 76 25
-0.87701786 1.063471 0.062654711 79 24
-0.92011946 0.86016768 0.028433222 75 23
-0.86982328 1.0550942 0 76 22
-0.91799062 0.85878491 -0.028375195 79 21
-0.47720039 0.5774833 -0.033307146 5 20
-0.91244268 0.85362321 -0.084080584 79 19
-0.44240934 0.5356915 -0.059237972 7 18
-0.92332304 0.86377054 -0.14073275 78 17
-0.44933304 0.54450846 -0.093235806 31 16
-0.91602808 0.85639936 -0.21254948 80 15
-0.44982541 0.54660058 -0.1925938 51 13
-0.92103326 0.86078459 -0.28073701 94 14
-0.43158805 0.52537173 -0.22310108 67 12
-0.66812128 0.62263799 -0.35524639 95 11
-0.52427554 0.64316612 -0.42210826 114 9
-0.65847069 0.61246943 -0.40601587 97 10
-0.49292752 0.6065619 -0.45132709 102 8
-0.93192095 0.85802007 -0.83373553 6 7
-0.41090935 0.50809121 -0.47104803 9 6
-0.94552571 0.86401743 -1.0547974 3 5
nan nan nan 0 4
-0.97388375 0.88197428 -1.3572962 1 3
nan nan nan 0 2
nan nan nan 0 1
nan nan nan 0 0
-0.9209277 0.8628093 0.32741535 80 31
-0.87354136 1.0675249 0.31113645 95 30
-0.92399538 0.86715108 0.23774493 87 29
-0.86714399 1.0589539 0.20862623 85 28
-0.91497952 0.86018991 0.14904696 74 27
-0.8737027 1.0666287 0.1284536 79 26
-0.92095268 0.86637974 0.085545667 76 25
-0.87330031 1.0665259 0.062654711 77 24
-0.91711128 0.86337423 0.028433222 77 23
-0.86771542 1.0600611 0 74 22
-0.92242914 0.86866415 -0.028607301 78 21
-0.47991675 0.58495128 -0.033656523 7 20
-0.9130947 0.86021632 -0.084425882 78 19
-0.44377664 0.54101592 -0.059685051 6 18
-0.92392468 0.87038755 -0.14130136 77 17
-0.44127011 0.53831536 -0.091859624 34 16
-0.91123658 0.857907 -0.2121201 80 15
-0.45094442 0.55189949 -0.19396946 41 13
-0.91995198 0.86550045 -0.28129515 94 14
-0.42380282 0.51953161 -0.2198322 65 12
-0.66096866 0.62010741 -0.35243443 96 11
-0.5152176 0.63630098 -0.41624564 112 9
-0.65467274 0.61322212 -0.404953 97 10
-0.48957476 0.60652411 -0.4500339 109 8
-0.92435622 0.85705489 -0.82953185 6 7
-0.41170123 0.51256198 -0.47407725 10 6
-0.94124818 0.86585957 -1.0531821 3 5
nan nan nan 0 4
-0.9747628 0.8886553 -1.3627545 1 3
nan nan nan 0 2
nan nan nan 0 1
nan nan nan 0 0
-0.91982198 0.86751229 0.32805985 80 31
-0.87459588 1.0760934 0.31282741 96 30
-0.91932708 0.86852813 0.23727132 88 29
-0.865183 1.0637424 0.20901257 80 28
-0.9157334 0.86662388 0.14965284 73 27
-0.87310863 1.0735385 0.12892935 79 26
-0.91988873 0.87114036 0.085719191 75 25
-0.87447655 1.0752357 0.063004084 77 24
-0.91787815 0.86984205 0.028549276 77 23
-0.86419535 1.0629327 0 75 22
-0.91939127 0.87187868 -0.028607301 76 21
-0.46854278 0.57489663 -0.032957774 6 20
-0.91205013 0.86495221 -0.084598534 79 19
-0.43562013 0.53481919 -0.058790892 7 18
-0.92283887 0.87515229 -0.14158568 77 17
-0.44094536 0.54177785 -0.092203669 35 16
-0.91196859 0.86430526 -0.21297888 78 15
-0.45212913 0.55713391 -0.19534513 36 13
-0.92046988 0.87205136 -0.2824114 94 14
-0.428002 0.52829725 -0.22310108 64 12
-0.65035391 0.61447668 -0.34774777 87 11
-0.51437187 0.6398204 -0.41741818 115 9
-0.64603215 0.60919952 -0.40070152 95 10
-0.49145293 0.61325055 -0.45391351 116 8
-0.92150903 0.86011541 -0.82953185 6 7
-0.41237769 0.51711553 -0.47710651 10 6
-0.93681729 0.86784637 -1.0515667 3 5
nan nan nan 0 4
-0.97165483 0.89205247 -1.3627545 1 3
nan nan nan 0 2
nan nan nan 0 1
nan nan nan 0 0
-0.91503352 0.86905783 0.32741535 81 31
-0.87388724 1.0829356 0.31395471 95 30
-0.91985321 0.87510878 0.23821852 86 29
-0.86611062 1.0725282 0.21017161 83 28
-0.9145025 0.87152344 0.14995576 72 27
-0.86623502 1.0727023 0.1284536 79 26
-0.92045867 0.87778145 0.086066231 75 25
-0.87228382 1.080227 0.063120544 77 24
-0.91483623 0.8730408 0.028549276 74 23
-0.86204702 1.0678908 0 76 22
-0.91815311 0.87680537 -0.02866533 79 21
-0.46653312 0.57652861 -0.032957774 6 20
-0.91083229 0.86984956 -0.084771179 79 19
-0.43531021 0.53827763 -0.059014432 7 18
-0.92157799 0.88008016 -0.14186998 77 17
-0.43595096 0.53945196 -0.091515578 37 16
-0.91251606 0.87087715 -0.21383767 79 15
-0.44567522 0.55307978 -0.19328164 35 13
-0.91918671 0.87693781 -0.2829695 94 14
-0.423206 0.52609617 -0.22146665 63 12
-0.63978684 0.60877955 -0.34306115 69 11
-0.50939047 0.63815266 -0.41507313 122 9
-0.6471926 0.61455745 -0.40282726 81 10
-0.48267472 0.60657042 -0.44744751 122 8
-0.92152447 0.8661561 -0.83233434 7 7
-0.41302732 0.52168006 -0.48013577 10 6
-0.93098575 0.86851442 -1.0483361 3 5
nan nan nan 0 4
-0.97736681 0.90356559 -1.3754905 1 3
nan nan nan 0 2
nan nan nan 0 1
nan nan nan 0 0
-0.91199434 0.87224656 0.32741535 80 31
-0.87162167 1.0878826 0.31451836 95 30
-0.92034471 0.88170379 0.23916571 85 29
-0.86390352 1.0774745 0.21055794 81 28
-0.9114548 0.87471038 0.14995576 72 27
-0.864039 1.0776635 0.12869146 79 26
-0.91919118 0.88271314 0.086239748 77 25
-0.87006682 1.085216 0.063236997 76 24
-0.91358858 0.87795717 0.028607301 76 23
-0.86299527 1.0767531 0 73 22
-0.91869658 0.88346291 -0.028781384 77 21
-0.45672613 0.56839663 -0.032375481 5 20
-0.90959144 0.874749 -0.084943838 78 19
-0.4318758 0.53784734 -0.058790892 7 18
-0.91850036 0.88329178 -0.14186998 76 17
-0.43560874 0.54290676 -0.091859624 38 16
-0.91124958 0.8757602 -0.21426705 76 15
-0.44822863 0.56027675 -0.19534513 36 13
-0.91788071 0.88182592 -0.28352764 91 14
-0.42723981 0.53497458 -0.22473551 60 12
-0.62423319 0.59822053 -0.33556256 45 11
-0.50989252 0.64339584 -0.41741818 120 9
-0.63192326 0.60434043 -0.3943243 61 10
-0.49112287 0.62171549 -0.45779309 125 8
-0.92150903 0.87220746 -0.83513677 7 7
-0.41731957 0.53096056 -0.4877089 10 6
-0.92934209 0.87306213 -1.0499516 2 5
nan nan nan 0 4
-0.96917647 0.90231025 -1.3682128 1 3
nan nan nan 0 2
nan nan nan 0 1
nan nan nan 0 0
-0.91243029 0.87876904 0.32870439 79 31
-0.86781895 1.0909185 0.31451836 95 30
-0.92080116 0.88831276 0.2401129 83 29
-0.86320752 1.0843533 0.21133064 81 28
-0.91018373 0.8796078 0.15025872 72 27
-0.86645925 1.0884711 0.12964298 77 26
-0.91610438 0.88591623 0.086239748 74 25
-0.86782557 1.0902029 0.063353457 75 24
-0.91231775 0.88287544 0.02866533 75 23
-0.86233854 1.0836763 0 71 22
-0.91560715 0.88666433 -0.028781384 78 21
-0.45629078 0.57194424 -0.032491937 5 20
-0.90473747 0.87618715 -0.084771179 79 19
-0.43772557 0.54911119 -0.059908591 7 18
-0.92256182 0.8933903 -0.1430072 74 17
-0.42756411 0.53665739 -0.090483449 39 16
-0.90818709 0.87893569 -0.21426705 77 15
-0.43733618 0.5505175 -0.19121812 39 13
-0.91304219 0.8833335 -0.2829695 91 14
-0.42244631 0.53275025 -0.22310108 62 12
-0.61377877 0.59237373 -0.33087593 38 11
-0.50220239 0.63821495 -0.41272807 108 9
-0.62654072 0.60341311 -0.39219856 39 10
-0.48368901 0.61667567 -0.4526203 122 8
-0.91695702 0.87399358 -0.83373553 8 7
-0.42033434 0.53870463 -0.49376738 9 6
-0.92212147 0.87237644 -1.0451056 3 5
nan nan nan 0 4
-0.96978134 0.90919697 -1.3736711 1 3
nan nan nan 0 2
nan nan nan 0 1
nan nan nan 0 0
-0.91109449 0.88362694 0.32934889 79 31
-0.87003177 1.1015964 0.31677297 95 30
-0.91593087 0.8898145 0.23963931 88 29
-0.86247408 1.0912404 0.21210332 79 28
-0.91067141 0.88623405 0.1508646 71 27
-0.86265457 1.0914891 0.12964298 76 26
-0.92016661 0.89605474 0.086933829 75 25
-0.86865085 1.0991107 0.063702829 74 24
-0.91266179 0.88969576 0.028781384 75 23
-0.85855061 1.0866798 0 65 22
-0.91609192 0.89333797 -0.028897438 76 21
-0.4557358 0.57557535 -0.032608397 4 20
-0.90882915 0.88629115 -0.08546178 77 19
-0.43118873 0.54476386 -0.059237972 6 18
-0.91928118 0.89676559 -0.1430072 75 17
-0.43027803 0.54398763 -0.091515578 38 16
-0.9067263 0.88397431 -0.21469645 77 15
-0.43383345 0.55022448 -0.19053029 49 13
-0.9169485 0.89330363 -0.285202 89 14
-0.42485565 0.53987968 -0.22555274 64 12
-0.59660405 0.58012444 -0.32243997 47 11
-0.5067426 0.64868373 -0.41859069 102 9
-0.60966551 0.59156871 -0.38263273 32 10
-0.49058834 0.63029116 -0.46167269 100 8
-0.9152441 0.87877923 -0.83513677 7 7
-0.42562842 0.54970413 -0.50285512 23 6
-0.92030227 0.87706357 -1.0467209 3 5
nan nan nan 0 4
-0.96144563 0.90804803 -1.3663933 1 3
nan nan nan 0 2
nan nan nan 0 1
nan nan nan 0 0
-0.90784973 0.88696027 0.32934889 79 31
-0.86748791 1.1066971 0.31733662 95 30
-0.91617888 0.89659262 0.2405865 83 29
-0.86303288 1.1002316 0.21326236 78 28
-0.90741706 0.88956594 0.1508646 71 27
-0.86477971 1.1024858 0.13059449 74 26
-0.91509259 0.89767832 0.086760312 76 25
-0.86769289 1.1062217 0.063935749 75 24
-0.91312444 0.89637095 0.028897438 75 23
-0.85918045 1.0957286 0 67 22
-0.9163841 0.90018576 -0.029013492 77 21
-0.45064893 0.57322687 -0.032375481 6 20
-0.90735716 0.89136064 -0.085634433 76 19
-0.42612529 0.54241472 -0.058790892 7 18
-0.91792053 0.90170634 -0.14329153 75 17
-0.42828131 0.54556096 -0.091515578 36 16
-0.90539604 0.88885587 -0.21512583 77 15
-0.42895922 0.54794085 -0.18915462 57 13
-0.91541082 0.89836186 -0.28576013 89 14
-0.41862327 0.53575951 -0.22310108 66 12
-0.58128768 0.56927264 -0.31494138 70 11
-0.49897048 0.64354116 -0.41390061 101 9
-0.59623349 0.58265835 -0.37519267 31 10
-0.49229446 0.63709068 -0.4655523 65 8
-0.91813731 0.88771218 -0.84074175 8 7
-0.43215168 0.56225568 -0.51345748 29 6
-0.92137426 0.88422465 -1.0515667 3 5
nan nan nan 0 4
-0.96449572 0.91729206 -1.3754905 1 3
nan nan nan 0 2
nan nan nan 0 1
nan nan nan 0 0
-0.9081986 0.89350516 0.33063796 77 31
-0.86511242 1.111643 0.31790027 95 30
-0.91304356 0.89978528 0.2405865 86 29
-0.86070156 1.1051886 0.21364871 79 28
-0.90607566 0.89446783 0.15116753 73 27
-0.86397797 1.1094294 0.13107024 75 26
-0.91550869 0.9043656 0.08710736 75 25
-0.86535764 1.1112165 0.064052209 73 24
-0.91177076 0.90130657 0.028955463 74 23
-0.8584156 1.1026711 0 64 22
-0.91323626 0.90337908 -0.029013492 78 21
-0.45629823 0.58466262 -0.032957774 6 20
-0.90601659 0.89627302 -0.085807078 77 19
-0.42270416 0.54193062 -0.058567353 8 18
-0.91653645 0.90664828 -0.14357583 75 17
-0.43243834 0.55488437 -0.09289176 31 16
-0.90579736 0.89546698 -0.21598461 78 15
-0.42116868 0.54182488 -0.18640329 67 13
-0.91226935 0.90155172 -0.28576013 88 14
-0.41819245 0.5390892 -0.2239183 70 12
-0.58426291 0.57616466 -0.31775337 88 11
-0.49269593 0.64001822 -0.41038305 100 9
-0.57639992 0.56733316 -0.3635011 35 10
-0.49785033 0.64901417 -0.47331148 32 8
-0.91354644 0.88947058 -0.83934045 9 7
-0.43018639 0.56376076 -0.51345748 34 6
-0.92240745 0.89140409 -1.0564127 3 5
nan nan nan 0 4
nan nan nan 0 3
nan nan nan 0 2
nan nan nan 0 1
nan nan nan 0 0
-0.90679336 0.89836657 0.33128247 79 31
-0.86419886 1.1185154 0.3190276 95 30
-0.91513437 0.908144 0.24200727 85 29
-0.85985392 1.1120991 0.21442139 78 28
-0.90647441 0.9011175 0.15177341 72 27
-0.86333323 1.1162302 0.13154599 76 26
-0.91411775 0.90931129 0.087280877 74 25
-0.86452222 1.1181865 0.064285129 73 24
-0.91039371 0.90624356 0.029013492 73 23
-0.85913843 1.1116023 0 66 22
-0.91200984 0.90816259 -0.029071517 76 21
-0.44206497 0.57042325 -0.032026105 5 20
-0.90642309 0.90294361 -0.086152382 76 19
-0.41938621 0.54135603 -0.058343813 7 18
-0.91689211 0.91334116 -0.14414445 74 17
-0.42606741 0.55042648 -0.091859624 23 16
-0.90791249 0.90382588 -0.2172728 76 15
-0.42366132 0.54901457 -0.18846679 80 13
-0.91100574 0.90628737 -0.28631827 82 14
-0.4177435 0.54242235 -0.22473551 71 12
-0.58399904 0.57972658 -0.31869069 95 11
-0.48389155 0.6328584 -0.40452039 107 9
-0.55990553 0.55505228 -0.3539353 41 10
-0.49052951 0.64383841 -0.46813869 29 8
-0.91784358 0.8998853 -0.84634668 9 7
-0.42711896 0.5635947 -0.51194286 34 6
-0.92355847 0.89844006 -1.0612587 3 5
nan nan nan 0 4
nan nan nan 0 3
nan nan nan 0 2
nan nan nan 0 1
nan nan nan 0 0
-0.905523 0.90307105 0.331927 78 31
-0.86196476 1.1233097 0.31959125 90 30
-0.91385782 0.91290522 0.24248089 88 29
-0.85616136 1.1149443 0.21442139 76 28
-0.90875375 0.90937454 0.15268224 71 27
-0.86094421 1.1212133 0.13178387 76 26
-0.91286308 0.9140991 0.087454401 74 25
-0.86384499 1.1250134 0.064518042 73 24
-0.90899318 0.91118193 0.029071517 74 23
-0.85392833 1.1124597 0 62 22
-0.91237062 0.91487336 -0.029187571 76 21
-0.44310468 0.57593066 -0.032259021 5 20
-0.90342391 0.90594453 -0.086152382 76 19
-0.42505229 0.5527097 -0.059461512 7 18
-0.91721225 0.92004746 -0.14471306 73 17
-0.42414343 0.55191034 -0.091859624 15 16
-0.90475196 0.90698963 -0.2172728 77 15
-0.42028683 0.54857737 -0.18777895 78 13
-0.90783662 0.90946186 -0.28631827 75 14
-0.41870508 0.54764062 -0.22636996 73 12
