# .PCD v0.7 - Point Cloud Data file format
VERSION 0.7
FIELDS x y z intensity ring
SIZE 4 4 4 4 2
TYPE F F F F U
COUNT 1 1 1 1 1
WIDTH 1229
HEIGHT 1
VIEWPOINT 0 0 0 1 0 0 0
POINTS 1229
DATA ascii
1.3782367 0.05097422 -0.093058385 38 19
1.3685635 -0.12787181 -0.12026427 9 18
1.3734679 -0.12881559 -0.18681565 22 16
1.2857473 -0.12381882 0.29084495 110 30
1.2960489 -0.1243906 0.19819492 23 28
1.3294897 0.045825504 0.15813518 53 27
1.3179753 -0.12654503 0.1232203 10 26
1.3534174 0.046227608 0.091792412 8 25
1.3348509 -0.12819988 0.06090783 10 24
1.3587629 0.045951094 0.0307543 65 23
1.3412174 -0.12905815 0 9 22
1.3662722 0.045741085 -0.030928383 99 21
1.3447475 -0.12964058 -0.061373662 9 20
1.3759137 0.046075054 -0.09288574 34 19
1.360675 -0.13191538 -0.11959364 8 18
1.3730099 -0.13360909 -0.18681565 22 16
1.2853073 -0.12830617 0.29084495 113 30
1.2931494 -0.12866516 0.19780856 20 28
1.3271613 0.041103031 0.15783224 58 27
1.3225005 -0.13141529 0.12369605 9 26
1.3560632 0.041583966 0.091965929 9 25
1.3269415 -0.1321041 0.060558449 9 24
1.3639109 0.041368343 0.030870354 67 23
1.3382714 -0.13348687 0 9 22
1.3689142 0.041289926 -0.030986408 87 21
1.3492559 -0.13483858 -0.061606579 8 20
1.3735733 0.041192725 -0.092713088 34 19
1.362707 -0.13667929 -0.11981718 8 18
1.3750228 -0.1384134 -0.1871597 23 16
1.2848747 -0.1325677 0.29084495 115 30
1.3000853 -0.13372336 0.19896761 17 28
1.3322513 0.03684815 0.15843812 68 27
1.3170835 -0.1355132 0.1232203 9 26
1.3537008 0.037014186 0.091792412 8 25
1.3339474 -0.13728286 0.06090783 9 24
1.3590442 0.036701296 0.0307543 67 23
1.3378215 -0.13792402 0 9 22
1.36905 0.036511272 -0.030986408 61 21
1.3488013 -0.13931213 -0.061606579 9 20
1.3737024 0.036637567 -0.092713088 39 19
1.3646979 -0.14169635 -0.12004072 8 18
1.3696064 -0.14269118 -0.18647161 26 16
1.2868257 -0.13731457 0.2914086 109 30
1.3020661 -0.13852616 0.19935395 19 28
1.3323718 0.032197498 0.15843812 77 27
1.3215508 -0.14064482 0.12369605 9 26
1.3538218 0.032288663 0.091792412 9 25
1.3359429 -0.14220677 0.061024286 9 24
1.3591695 0.031719904 0.0307543 67 23
1.3373318 -0.14259303 0 9 22
1.3666707 0.031669803 -0.030928383 66 21
1.3482816 -0.1442548 -0.061606579 9 20
1.3713287 0.03177999 -0.092540428 39 19
1.3617196 -0.14618938 -0.11981718 8 18
1.3690999 -0.14747111 -0.18647161 34 16
1.2790523 -0.14121561 0.28971764 103 30
1.2941858 -0.14247414 0.19819492 23 28
1.33 0.027258463 0.15813518 74 27
1.3136067 -0.14465795 0.12298243 10 26
1.3464508 0.027161919 0.091271847 31 25
1.3354126 -0.1471023 0.061024286 9 24
1.359272 0.026975324 0.0307543 67 23
1.3417691 -0.14805013 0 9 22
1.3667777 0.026660493 -0.030928383 78 21
1.345288 -0.14868191 -0.061490119 9 20
1.3739294 0.026806708 -0.092713088 39 19
1.3587005 -0.1509005 -0.11959364 9 18
1.3685502 -0.15248814 -0.18647161 39 16
1.2809711 -0.14595941 0.2902813 104 30
1.2961342 -0.14727385 0.19858125 31 28
1.327606 0.022568954 0.15783224 74 27
1.3106476 -0.1487285 0.12274455 10 26
1.3465375 0.022461763 0.091271847 60 25
1.3398527 -0.15233521 0.061257202 9 24
1.3543599 0.022139689 0.030638246 68 23
1.3387609 -0.15244597 0 9 22
1.3668585 0.022127947 -0.030928383 80 21
1.3497224 -0.153951 -0.061723035 9 20
1.3690274 0.021921841 -0.092367783 39 19
1.3581926 -0.15540528 -0.11959364 27 18
1.3581986 -0.15588026 -0.18509544 53 16
1.28048 -0.15020646 0.2902813 121 30
1.2931861 -0.15128003 0.19819492 28 28
1.3276734 0.018166332 0.15783224 71 27
1.3175343 -0.15418273 0.12345818 10 26
1.3366297 0.017844889 0.090577766 75 25
1.3319006 -0.15589431 0.06090783 10 24
1.359424 0.0177225 0.0307543 68 23
1.3382478 -0.15688463 0 10 22
1.3619293 0.017284177 -0.030812329 85 21
1.3343258 -0.15665446 -0.061024286 49 20
1.3665987 0.017345732 -0.092195131 38 19
1.3576418 -0.16014531 -0.11959364 68 18
1.3576462 -0.1606203 -0.18509544 72 16
1.2751129 -0.15408245 0.28915399 124 30
1.29265 -0.15579318 0.19819492 32 28
1.3202845 0.013442123 0.15692341 60 27
1.3095772 -0.15787485 0.12274455 11 26
1.3391778 0.013208237 0.09075129 75 25
1.3288693 -0.16023952 0.060791366 30 24
1.3544815 0.012684009 0.030638246 68 23
1.3302476 -0.16064359 0 53 22
1.3619813 0.01253005 -0.030812329 82 21
1.3362215 -0.16184832 -0.061140746 75 20
1.3691449 0.012602731 -0.092367783 33 19
1.3595458 -0.1651877 -0.11981718 78 18
1.3595349 -0.1656619 -0.18543947 77 16
1.276956 -0.1590602 0.28971764 124 30
1.2847186 -0.15960376 0.19703588 48 28
1.3203248 0.0086029479 0.15692341 56 27
1.3040515 -0.16205151 0.12226879 33 26
1.3367232 0.0082797911 0.090577766 74 25
1.3233179 -0.16448472 0.060558449 73 24
1.3545175 0.0079559088 0.030638246 68 23
1.3321303 -0.16583101 0 80 22
1.3570195 0.0075014126 -0.030696275 72 21
1.3381259 -0.16682459 -0.061257202 79 20
1.3741697 0.0076210434 -0.092713088 37 19
1.3614014 -0.17048296 -0.12004072 79 18
1.3935024 0.0077566709 -0.15551679 19 17
1.356462 -0.17033122 -0.18509544 81 16
1.2788084 -0.16383033 0.2902813 122 30
1.2866031 -0.16440456 0.19742221 96 28
1.3277916 0.0040304838 0.15783224 59 27
1.30101 -0.16628286 0.12203092 77 26
1.336744 0.0036137062 0.090577766 71 25
1.3227357 -0.16910295 0.060558449 82 24
1.3495384 0.0032067732 0.030522192 62 23
1.329064 -0.17015845 0 81 22
1.3670347 0.0028028728 -0.030928383 54 21
1.3325824 -0.17085122 -0.061024286 77 20
1.3642119 0.0027859437 -0.092022486 39 19
1.3583291 -0.1749121 -0.11981718 76 18
1.3910372 0.0028828557 -0.15523249 19 17
1.3583146 -0.17538621 -0.18543947 76 16
1.2734003 -0.16764896 0.28915399 121 30
1.2860214 -0.16889465 0.19742221 98 28
1.3203528 -0.00061479292 0.15692341 65 27
1.3029183 -0.17092408 0.12226879 86 26
1.3342546 -0.0010550345 0.09040425 41 25
1.3270881 -0.17437798 0.060791366 82 24
1.3495413 -0.0015040144 0.030522192 39 23
1.3259839 -0.17446652 0 80 22
1.3595386 -0.0017343193 -0.0307543 54 21
1.3319778 -0.17550176 -0.061024286 77 20
1.3667073 -0.0019751908 -0.092195131 39 19
1.3577415 -0.17941551 -0.11981718 62 18
1.3910388 -0.001972788 -0.15523249 29 17
1.3577255 -0.17988957 -0.18543947 80 16
1.2680109 -0.1712105 0.28802666 129 30
1.2879014 -0.17349227 0.19780856 137 28
1.3203435 -0.0049932366 0.15692341 62 27
1.3023137 -0.1754711 0.12226879 77 26
1.3442196 -0.0055022109 0.091098331 19 25
1.3215538 -0.17810257 0.060558449 75 24
1.3520273 -0.0062217638 0.030580221 14 23
1.322921 -0.17852424 0 53 22
1.3645227 -0.0064948145 -0.030870354 62 21
1.3338314 -0.18048911 -0.061140746 43 20
1.3691874 -0.0065147453 -0.092367783 39 19
1.3595737 -0.18449262 -0.12004072 15 18
1.3860559 -0.0068128016 -0.15466388 31 17
1.3570893 -0.18462782 -0.18543947 54 16
1.2746106 -0.17687379 0.28971764 125 30
1.2823648 -0.17752568 0.19703588 121 28
1.3227978 -0.0098463641 0.15722635 43 27
1.3090554 -0.18127961 0.12298243 26 26
1.3392026 -0.010399386 0.09075129 9 25
1.3307846 -0.18433186 0.061024286 25 24
1.3569958 -0.010972589 0.030696275 8 23
1.3296852 -0.1844143 0 11 22
1.3544928 -0.011429693 -0.030638246 71 21
1.3356662 -0.1854915 -0.061257202 9 20
1.3666602 -0.011516482 -0.092195131 38 19
1.3514917 -0.18843098 -0.1193701 8 18
1.3909912 -0.011683945 -0.15523249 30 17
1.3686626 -0.19133437 -0.1871597 10 16
1.2715749 -0.18097454 0.28915399 124 30
1.289072 -0.18305521 0.19819492 107 28
1.3227555 -0.01446373 0.15722635 22 27
1.310878 -0.18620205 0.1232203 12 26
1.3366642 -0.015050506 0.090577766 8 25
1.3227177 -0.18791008 0.060674913 9 24
1.3569493 -0.015709322 0.030696275 9 23
1.3315077 -0.18941079 0 9 22
1.3594428 -0.016208285 -0.0307543 74 21
1.339954 -0.19086507 -0.061490119 9 20
1.3666116 -0.016286947 -0.092195131 36 19
1.3532901 -0.19350386 -0.11959364 8 18
1.3909419 -0.016539337 -0.15523249 28 17
1.3704368 -0.19646603 -0.18750374 8 16
1.2637068 -0.18434463 0.28746304 128 30
1.2810943 -0.18647388 0.19703588 135 28
1.3226969 -0.01908092 0.15722635 9 27
1.3077914 -0.19018582 0.12298243 11 26
1.3390974 -0.019748455 0.09075129 9 25
1.324524 -0.19289002 0.060791366 9 24
1.3568861 -0.020445863 0.030696275 9 23
1.3308384 -0.19405746 0 9 22
1.3568826 -0.020682683 -0.030696275 76 21
1.3392797 -0.19554122 -0.061490119 9 20
1.3690404 -0.021091167 -0.092367783 36 19
1.3600304 -0.1990843 -0.12026427 8 18
1.3883921 -0.021360718 -0.15494817 28 17
1.3697778 -0.20100948 -0.18750374 8 16
1.2703135 -0.18962562 0.28915399 127 30
1.2964405 -0.021943806 0.24342807 51 29
1.2829113 -0.19108918 0.19742221 173 28
1.3201451 -0.023427624 0.15692341 10 27
1.3095802 -0.19512053 0.1232203 11 26
1.3365307 -0.024148474 0.090577766 9 25
1.3238772 -0.19728126 0.060791366 9 24
1.356811 -0.024945347 0.030696275 9 23
1.3252435 -0.19772366 0 8 22
1.3593012 -0.025461273 -0.0307543 76 21
1.3410933 -0.20035438 -0.061606579 9 20
1.3614818 -0.025504285 -0.091849834 37 19
1.3593273 -0.20383045 -0.12026427 8 18
1.3858303 -0.025922628 -0.15466388 30 17
1.3666197 -0.20541771 -0.1871597 8 16
1.2624228 -0.1929421 0.28746304 130 30
1.3012646 -0.026559915 0.24437526 95 29
1.2797954 -0.19518964 0.19703588 186 28
1.3225365 -0.028083723 0.15722635 47 27
1.3064317 -0.1993112 0.12298243 10 26
1.3389319 -0.028862873 0.09075129 15 25
1.3256485 -0.202282 0.06090783 9 24
1.3442163 -0.029665152 0.030406138 20 23
1.3270161 -0.20273001 0 8 22
1.3542063 -0.030103896 -0.030638246 77 21
1.3378818 -0.20488632 -0.061490119 9 20
1.358891 -0.030205663 -0.091677189 37 19
1.3536863 -0.20781057 -0.11981718 9 18
1.3931756 -0.031155223 -0.15551679 28 17
1.3610008 -0.20942576 -0.18647161 22 16
1.2641127 -0.1979488 0.28802666 132 30
1.3011585 -0.03132911 0.24437526 97 29
1.2790713 -0.19987902 0.19703588 181 28
1.3174627 -0.032816537 0.15662047 70 27
1.3032342 -0.20370974 0.12274455 10 26
1.328844 -0.033536822 0.090057209 46 25
1.3248984 -0.2071394 0.06090783 9 24
1.3466033 -0.034416486 0.030464167 46 23
1.326264 -0.20759243 0 8 22
1.3565855 -0.035127301 -0.030696275 76 21
1.3396252 -0.20994581 -0.061606579 9 20
1.3637578 -0.035306178 -0.092022486 36 19
1.3602929 -0.21394309 -0.1204878 9 18
1.3880923 -0.035898492 -0.15494817 28 17
1.3479972 -0.2124652 -0.18475139 63 16
1.2610098 -0.20197077 0.28746304 135 30
1.3010412 -0.035870813 0.24437526 97 29
1.2759275 -0.20394851 0.19664952 179 28
1.3123789 -0.037283488 0.15601459 74 27
1.3074287 -0.20905167 0.1232203 10 26
1.3312117 -0.038242172 0.090230726 76 25
1.3217019 -0.21136446 0.060791366 9 24
1.346475 -0.0391168 0.030464167 70 23
1.3279992 -0.21261995 0 9 22
1.3564546 -0.039862454 -0.030696275 74 21
1.3388841 -0.21462071 -0.061606579 9 20
1.3586401 -0.039928831 -0.091677189 37 19
1.359538 -0.21869013 -0.1204878 15 18
1.3854756 -0.040675133 -0.15466388 27 17
1.3496913 -0.21756731 -0.18509544 77 16
1.2602971 -0.20637129 0.28746304 137 30
1.3009081 -0.040412072 0.24437526 98 29
1.2776448 -0.20880367 0.19703588 171 28
1.3097601 -0.041789833 0.15571165 75 27
1.3042357 -0.21320857 0.12298243 10 26
1.3335631 -0.042964466 0.09040425 77 25
1.320956 -0.21597677 0.060791366 9 24
1.3488282 -0.043893389 0.030522192 71 23
1.3297155 -0.21766211 0 9 22
1.3488128 -0.044364218 -0.030522192 75 21
1.3307354 -0.21806936 -0.061257202 31 20
1.3609852 -0.044748593 -0.091849834 38 19
1.3464844 -0.22139461 -0.1193701 58 18
1.3853252 -0.045511097 -0.15466388 26 17
1.3464811 -0.22187074 -0.18475139 74 16
1.2595689 -0.2107693 0.28746304 141 30
1.3007591 -0.044952843 0.24437526 99 29
1.2769082 -0.2132622 0.19703588 163 28
1.3096063 -0.046361495 0.15571165 75 27
1.3035215 -0.21753241 0.12298243 11 26
1.3309124 -0.047534775 0.090230726 77 25
1.3275815 -0.2218333 0.061140746 10 24
1.343671 -0.04843045 0.030406138 71 23
1.3141574 -0.21980341 0 34 22
1.3561519 -0.04909455 -0.030696275 76 21
1.3225791 -0.22146375 -0.06090783 72 20
1.3583282 -0.049412876 -0.091677189 39 19
1.3506528 -0.22669071 -0.11981718 75 18
1.3851581 -0.050346509 -0.15466388 26 17
1.3506204 -0.22716393 -0.18543947 71 16
1.2564629 -0.21453084 0.28689936 144 30
1.3055091 -0.049442545 0.24532245 99 29
1.278628 -0.21791454 0.19742221 153 28
1.316885 -0.05097815 0.15662047 72 27
1.3052068 -0.22250351 0.1232203 13 26
1.3332398 -0.052040674 0.09040425 75 25
1.3145331 -0.22411564 0.060558449 54 24
1.3460007 -0.05297973 0.030464167 70 23
1.3158848 -0.22458477 0 75 22
1.3534747 -0.053733476 -0.030638246 74 21
1.3242984 -0.22627297 -0.061024286 81 20
1.3531725 -0.053728119 -0.091331884 40 19
1.3523068 -0.23182867 -0.12004072 78 18
1.3825014 -0.054845531 -0.15437956 27 17
1.3449397 -0.23103073 -0.18475139 71 16
1.2605039 -0.21976046 0.28802666 146 30
1.300423 -0.053805724 0.24437526 100 29
1.2778596 -0.22237645 0.19742221 157 28
1.31174 -0.055374589 0.15601459 75 27
1.29952 -0.22619647 0.12274455 60 26
1.3330499 -0.056694232 0.09040425 75 25
1.3162025 -0.22913522 0.060674913 76 24
1.3482946 -0.058015626 0.030522192 68 23
1.3200171 -0.23004322 0 83 22
1.3607705 -0.058767714 -0.030812329 67 21
1.3283789 -0.23199257 -0.061257202 79 20
1.3554685 -0.05855437 -0.091504529 42 19
1.3490373 -0.23611446 -0.11981718 76 18
1.3798095 -0.059809145 -0.15409526 26 17
1.3490015 -0.23658742 -0.18543947 56 16
1.2524985 -0.22308505 0.28633571 147 30
1.3051219 -0.058783229 0.24532245 102 29
1.2746048 -0.22662202 0.19703588 147 28
1.3115282 -0.060181983 0.15601459 76 27
1.2986822 -0.23095793 0.12274455 91 26
1.3278501 -0.061358675 0.090057209 58 25
1.3104377 -0.23307504 0.060441993 81 24
1.3480839 -0.062721699 0.030522192 46 23
1.3167046 -0.23443751 0 85 22
1.3555524 -0.063529782 -0.030696275 36 21
1.3201877 -0.23530138 -0.06090783 73 20
1.3602278 -0.063746549 -0.091849834 55 19
1.3457125 -0.24061511 -0.11959364 39 18
1.3820735 -0.064737014 -0.15437956 25 17
1.357872 -0.24329264 -0.18681565 40 16
1.2541078 -0.22789538 0.28689936 154 30
1.2975528 -0.062995546 0.24390168 103 29
1.2738061 -0.23106982 0.19703588 147 28
1.3088313 -0.06464193 0.15571165 74 27
1.2954203 -0.23504137 0.12250668 94 26
1.3326101 -0.06623181 0.09040425 31 25
1.3071599 -0.23719794 0.060325533 63 24
1.3503532 -0.067547351 0.030580221 23 23
1.3158782 -0.23903224 0 39 22
1.3653078 -0.068746038 -0.030928383 10 21
1.3316394 -0.24216229 -0.061490119 20 20
1.3575059 -0.068373285 -0.091677189 67 19
1.352211 -0.24666339 -0.12026427 9 18
1.381839 -0.06956096 -0.15437956 26 17
1.3497092 -0.24668367 -0.18578352 27 16
1.2556988 -0.2327197 0.28746304 157 30
1.2997766 -0.067647383 0.24437526 105 29
1.2778476 -0.23642185 0.19780856 139 28
1.3160326 -0.069589458 0.15662047 58 27
1.2995265 -0.24024886 0.12298243 91 26
1.3373523 -0.071138911 0.09075129 12 25
1.3210528 -0.24451046 0.061024286 18 24
1.3501092 -0.072260559 0.030580221 9 23
1.3199507 -0.24454294 0 10 22
1.3575846 -0.072884694 -0.0307543 9 21
1.3209674 -0.24497157 -0.061024286 8 20
1.364731 -0.073500417 -0.092195131 71 19
1.3464907 -0.25022835 -0.11981718 8 18
1.3815879 -0.074384049 -0.15437956 25 17
1.3586183 -0.25298691 -0.1871597 23 16
1.3899366 -0.074350424 -0.23659548 21 15
1.2549201 -0.23688248 0.28746304 161 30
1.2970939 -0.071826182 0.24390168 105 29
1.2794831 -0.24111961 0.19819492 133 28
1.3108391 -0.07368394 0.15601459 32 27
1.2962352 -0.24431854 0.12274455 91 26
1.3420894 -0.075845689 0.091098331 9 25
1.3153281 -0.24795659 0.060791366 9 24
1.3523443 -0.077110648 0.030638246 9 23
1.3265001 -0.25032151 0 9 22
1.3648084 -0.078037731 -0.030928383 9 21
1.3250103 -0.25051701 -0.061257202 8 20
1.3619895 -0.077887714 -0.092022486 71 19
1.3431636 -0.25445953 -0.11959364 8 18
1.3788399 -0.07906846 -0.15409526 25 17
1.3528628 -0.25679645 -0.18647161 22 16
1.3896686 -0.079201758 -0.23659548 21 15
1.2564342 -0.24194512 0.28802666 137 30
1.296822 -0.076579787 0.24390168 101 29
1.276166 -0.24533708 0.19780856 131 28
1.3155148 -0.078775331 0.15662047 12 27
1.2904449 -0.24811982 0.12226879 87 26
1.3418024 -0.080764174 0.091098331 9 25
1.3095075 -0.25182453 0.060558449 8 24
1.3545619 -0.081977226 0.030696275 9 23
1.3157572 -0.25327531 0 9 22
1.3620181 -0.08289212 -0.030870354 9 21
1.3216765 -0.25466418 -0.061140746 8 20
1.3616951 -0.082879134 -0.092022486 69 19
1.3471099 -0.26033354 -0.12004072 8 18
1.3835145 -0.08417391 -0.15466388 24 17
1.3567731 -0.26270244 -0.1871597 20 16
1.3943009 -0.084340818 -0.23745427 20 15
1.2989968 -0.081254646 0.24437526 96 29
1.2728786 -0.24931133 0.19742221 129 28
1.3127551 -0.083214492 0.15631753 15 27
1.2968951 -0.2540704 0.12298243 82 26
1.3415123 -0.085447446 0.091098331 9 25
1.3110703 -0.25687826 0.060674913 8 24
1.3467839 -0.086239457 0.030522192 9 23
1.3222224 -0.25932211 0 9 22
1.3642151 -0.087802015 -0.030928383 10 21
1.3232292 -0.25976118 -0.061257202 8 20
1.356419 -0.087320358 -0.091677189 72 19
1.3413082 -0.2640644 -0.11959364 8 18
1.3782543 -0.088692576 -0.15409526 25 17
1.3582764 -0.2679199 -0.18750374 21 16
1.3939979 -0.089207329 -0.23745427 20 15
1.2962556 -0.085631378 0.24390168 91 29
1.2695793 -0.25326565 0.19703588 127 28
1.3124565 -0.08779636 0.15631753 58 27
1.2960454 -0.25836965 0.12298243 94 26
1.3262739 -0.08915361 0.090057209 22 25
1.3101656 -0.26145318 0.060674913 8 24
1.3389928 -0.090448387 0.030348113 36 23
1.3262107 -0.26492336 0 9 22
1.3514466 -0.091503747 -0.030638246 41 21
1.3174183 -0.26339129 -0.061024286 8 20
1.3585945 -0.092219032 -0.091849834 72 19
1.3526288 -0.27097598 -0.12071135 8 18
1.3754579 -0.093339294 -0.15381095 24 17
1.3549536 -0.27193153 -0.1871597 24 16
1.3912207 -0.093911253 -0.23702489 20 15
1.2959645 -0.089929439 0.24390168 86 29
1.2759919 -0.25896049 0.19819492 125 28
1.3072065 -0.091809705 0.15571165 72 27
1.2951356 -0.26289216 0.12298243 96 26
1.3334352 -0.09406399 0.090577766 55 25
1.3068449 -0.26529554 0.060558449 9 24
1.3361921 -0.094715983 0.030290084 63 23
1.3228757 -0.26881793 0 9 22
1.3436391 -0.095701516 -0.030464167 70 21
1.3214303 -0.26876199 -0.061257202 8 20
1.3582811 -0.09672378 -0.091849834 71 19
1.3419187 -0.27368972 -0.11981718 8 18
1.3776187 -0.098071925 -0.15409526 26 17
1.3564214 -0.27715909 -0.18750374 22 16
1.3909016 -0.098524183 -0.23702489 20 15
1.2931941 -0.094278842 0.24342807 86 29
1.272662 -0.26290908 0.19780856 121 28
1.3068781 -0.096372142 0.15571165 74 27
1.2966464 -0.26791903 0.1232203 100 26
1.3256364 -0.098179139 0.090057209 76 25
1.3132453 -0.27138385 0.06090783 9 24
1.3408214 -0.099975333 0.030406138 73 23
1.3219292 -0.27343398 0 9 22
1.3457894 -0.10057285 -0.030522192 77 21
1.3204365 -0.2736035 -0.061257202 8 20
1.3579353 -0.10146449 -0.091849834 72 19
1.3458297 -0.27939233 -0.12026427 9 18
1.37725 -0.1031205 -0.15409526 26 17
1.3602926 -0.28290835 -0.18819182 19 16
1.3929874 -0.10380008 -0.23745427 20 15
1.2928398 -0.099018008 0.24342807 89 29
1.274106 -0.26808459 0.19819492 120 28
1.3040416 -0.10097453 0.15540871 75 27
1.2932212 -0.27215311 0.12298243 105 26
1.3252676 -0.10303719 0.090057209 76 25
1.307356 -0.27515861 0.060674913 10 24
1.3404644 -0.10465507 0.030406138 73 23
1.3209183 -0.27827725 0 9 22
1.3454118 -0.10550473 -0.030522192 75 21
1.3268015 -0.27976868 -0.061606579 18 20
1.3600411 -0.10663135 -0.092022486 72 19
1.3399259 -0.2832852 -0.11981718 49 18
1.3768816 -0.10792736 -0.15409526 26 17
1.3616683 -0.28840917 -0.18853587 19 16
1.390161 -0.10847466 -0.23702489 19 15
1.2949337 -0.10372158 0.24390168 89 29
1.2731626 -0.27253041 0.19819492 117 28
1.306155 -0.10572142 0.15571165 77 27
1.2971287 -0.27771577 0.12345818 102 26
1.3248999 -0.1076626 0.090057209 76 25
1.3088285 -0.28024733 0.060791366 10 24
1.3326167 -0.10873742 0.030232059 72 23
1.3174953 -0.28235859 0 16 22
1.3450353 -0.11020046 -0.030522192 77 21
1.3160534 -0.28228742 -0.061140746 67 20
1.3546884 -0.11097984 -0.091677189 71 19
1.3413625 -0.28848818 -0.12004072 75 18
1.3814483 -0.11312959 -0.15466388 31 17
1.3897738 -0.11332656 -0.23702489 19 15
1.2970102 -0.10844097 0.24437526 88 29
1.2697909 -0.27644336 0.19780856 116 28
1.3033049 -0.11007592 0.15540871 79 27
1.2937696 -0.28148252 0.1232203 104 26
1.3245161 -0.1122867 0.090057209 75 25
1.3078423 -0.28481427 0.060791366 26 24
1.3372105 -0.11380325 0.030348113 71 23
1.3140597 -0.28641933 0 61 22
1.3446625 -0.11466014 -0.030522192 75 21
1.3174989 -0.2874158 -0.061257202 80 20
1.356778 -0.11591573 -0.091849834 70 19
1.3379666 -0.29239917 -0.11981718 78 18
1.3785696 -0.11774407 -0.15437956 37 17
1.3893698 -0.11817709 -0.23702489 19 15
1.2917517 -0.11232546 0.24342807 90 29
1.2688673 -0.28065261 0.19780856 115 28
1.3029329 -0.11439723 0.15540871 77 27
1.2903503 -0.28545532 0.12298243 103 26
1.3241364 -0.11667834 0.090057209 75 25
1.3166404 -0.29132363 0.061257202 72 24
1.3368257 -0.11823698 0.030348113 70 23
1.3106629 -0.29023084 0 81 22
1.3417643 -0.11913667 -0.030464167 77 21
1.3141015 -0.2912389 -0.061140746 80 20
1.3563863 -0.12041433 -0.091849834 61 19
1.3393676 -0.29761177 -0.12004072 79 18
1.3756973 -0.12209975 -0.15409526 48 17
1.3865165 -0.12257124 -0.23659548 19 15
1.2913517 -0.11683384 0.24342807 90 29
1.2702887 -0.28562602 0.19819492 115 28
1.3025256 -0.11894462 0.15540871 75 27
1.2966273 -0.29160801 0.12369605 102 26
1.3237211 -0.12129973 0.090057209 71 25
1.3034379 -0.29315785 0.060674913 83 24
1.3314049 -0.12268633 0.030232059 64 23
1.3096417 -0.29480413 0 74 22
1.353786 -0.12494566 -0.0307543 50 21
1.3154602 -0.29660663 -0.061257202 52 20
1.3534739 -0.12492353 -0.091677189 28 19
1.3383206 -0.30228522 -0.12004072 73 18
1.365346 -0.12624411 -0.15295802 61 17
1.3885108 -0.12787376 -0.23702489 19 15
1.2733359 -0.11884832 0.331927 95 31
1.2884705 -0.12134063 0.24295449 93 29
1.2692332 -0.29027998 0.19819492 115 28
1.2996098 -0.12348771 0.15510577 75 27
1.2882746 -0.29468149 0.12298243 108 26
1.3183012 -0.12568639 0.089710169 47 25
1.304788 -0.29849413 0.060791366 83 24
1.3334569 -0.12756653 0.030290084 38 23
1.3061163 -0.29904029 0 21 22
1.3458539 -0.12920368 -0.030580221 20 21
1.3217169 -0.30288193 -0.061606579 10 20
1.3530068 -0.12988342 -0.091677189 9 19
1.3372037 -0.30718839 -0.12004072 65 18
1.3698426 -0.13147506 -0.15352663 71 17
1.3856039 -0.13248971 -0.23659548 20 15
1.275318 -0.12352053 0.33257151 100 31
1.2880391 -0.1258375 0.24295449 93 29
1.275427 -0.29639816 0.19935395 111 28
1.2991709 -0.12802345 0.15510577 67 27
1.2920843 -0.30031151 0.12345818 102 26
1.3228191 -0.1307689 0.090057209 20 25
1.3037382 -0.30304685 0.060791366 80 24
1.3354912 -0.13246253 0.030348113 16 23
1.3148007 -0.30587944 0 9 22
1.3528572 -0.13462986 -0.0307543 9 21
1.3182201 -0.30692345 -0.061490119 8 20
1.3475809 -0.13412049 -0.091331884 8 19
1.3336993 -0.31128436 -0.11981718 48 18
1.3693755 -0.13625591 -0.15352663 75 17
1.3826818 -0.13708696 -0.23616609 21 15
1.2748792 -0.12797147 0.33257151 101 31
1.2875921 -0.13033283 0.24295449 93 29
1.2719817 -0.30027688 0.19896761 111 28
1.3110622 -0.13379429 0.15662047 46 27
1.28866 -0.30401906 0.1232203 99 26
1.3223546 -0.13538559 0.090057209 9 25
1.300243 -0.30701804 0.060674913 78 24
1.332534 -0.13687262 0.030290084 10 23
1.3088609 -0.30930921 0 8 22
1.3449433 -0.13836154 -0.030580221 9 21
1.3147115 -0.31094432 -0.061373662 8 20
1.3520671 -0.13932595 -0.091677189 8 19
1.3326597 -0.31570536 -0.11981718 38 18
1.3664201 -0.14078493 -0.15324232 73 17
1.3821949 -0.14191258 -0.23616609 21 15
1.3922896 -0.1424582 -0.31255016 50 14
1.2696414 -0.13170937 0.33128247 101 31
1.2871528 -0.13460192 0.24295449 93 29
1.270979 -0.30449325 0.19896761 109 28
1.3007379 -0.13711911 0.15540871 23 27
1.2851719 -0.30793157 0.12298243 100 26
1.3218985 -0.13976994 0.090057209 9 25
1.2992177 -0.31132811 0.060674913 78 24
1.3320727 -0.14129072 0.030290084 10 23
1.305398 -0.31306088 0 8 22
1.3494236 -0.14357534 -0.030696275 9 21
1.3161004 -0.31588912 -0.061490119 8 20
1.3466368 -0.14329001 -0.091331884 9 19
1.3363897 -0.32152802 -0.12026427 23 18
1.3610053 -0.14479873 -0.15267371 74 17
1.3817167 -0.14649533 -0.23616609 21 15
1.3917838 -0.14731734 -0.31255016 60 14
1.2715762 -0.13639335 0.331927 101 31
1.2915571 -0.13961241 0.24390168 98 29
1.2699083 -0.30892795 0.19896761 107 28
1.3076535 -0.14245109 0.15631753 20 27
1.2889235 -0.31360051 0.12345818 97 26
1.3189228 -0.14411706 0.089883685 9 25
1.2956976 -0.31526691 0.060558449 72 24
1.3390006 -0.14697663 0.030464167 14 23
1.3018692 -0.31702012 0 8 22
1.3439445 -0.14774758 -0.030580221 23 21
1.3125087 -0.32011509 -0.061373662 8 20
1.3486079 -0.14825784 -0.091504529 30 19
1.3352592 -0.32619092 -0.12026427 21 18
1.3629347 -0.15005346 -0.15295802 73 17
1.3860677 -0.15208714 -0.23702489 19 15
1.2758703 -0.14157644 0.33321604 102 31
1.2934767 -0.14461334 0.24437526 111 29
1.2663707 -0.3129836 0.19858125 107 28
1.2997234 -0.14642341 0.15540871 57 27
1.2853504 -0.31772131 0.1232203 98 26
1.3183857 -0.14895017 0.089883685 31 25
1.2921101 -0.31941044 0.060441993 62 24
1.3310276 -0.15081912 0.030290084 39 23
1.3006984 -0.32178959 0 8 22
1.3508456 -0.15350558 -0.0307543 55 21
1.3113832 -0.32469463 -0.061373662 8 20
1.345577 -0.1529226 -0.091331884 56 19
1.3388861 -0.33228999 -0.12071135 20 18
1.3624027 -0.15481009 -0.15295802 73 17
1.3830806 -0.15665166 -0.23659548 18 15
1.2705677 -0.14548901 0.331927 105 31
1.2929641 -0.14912753 0.24437526 136 29
1.3016697 -0.15124117 0.15571165 76 27
1.2891157 -0.32320037 0.12369605 95 26
1.31538 -0.15326725 0.089710169 64 25
1.2982507 -0.32575408 0.060791366 56 24
1.32801 -0.15517884 0.030232059 72 23
1.3092622 -0.32877931 0 8 22
1.3379147 -0.15655448 -0.030464167 76 21
1.3102419 -0.32927024 -0.061373662 8 20
1.345035 -0.15761861 -0.091331884 73 19
1.3329493 -0.33550477 -0.12026427 22 18
1.361854 -0.15956482 -0.15295802 73 17
1.3874189 -0.16204129 -0.23745427 19 15
1.2724776 -0.14997961 0.33257151 106 31
1.2875861 -0.15284494 0.24342807 147 29
1.3011611 -0.15555683 0.15571165 75 27
1.2879796 -0.32769829 0.12369605 95 26
1.3148644 -0.15762834 0.089710169 79 25
1.2899059 -0.32819808 0.060441993 63 24
1.3299701 -0.15987559 0.030290084 76 23
1.3105865 -0.33374006 0 9 22
1.3398418 -0.16151835 -0.030522192 75 21
1.3115616 -0.33423394 -0.061490119 8 20
1.3469815 -0.16237204 -0.091504529 73 19
1.3341817 -0.34077564 -0.1204878 19 18
1.3662503 -0.16466561 -0.15352663 71 17
1.3844281 -0.16635178 -0.23702489 18 15
1.2695479 -0.15413404 0.331927 107 31
1.2846076 -0.15704533 0.24295449 156 29
1.3006101 -0.16009779 0.15571165 76 27
1.2820106 -0.33094004 0.1232203 96 26
1.316782 -0.16251805 0.089883685 79 25
1.3008372 -0.33583981 0.061024286 55 24
1.3318849 -0.16481949 0.030348113 77 23
1.3142525 -0.33957151 0 9 22
1.336789 -0.16589101 -0.030464167 77 21
1.3152206 -0.34006828 -0.061723035 9 20
1.348882 -0.16737553 -0.091677189 73 19
1.3402121 -0.34731621 -0.12115843 19 18
1.3656671 -0.1694337 -0.15352663 71 17
1.3813943 -0.17088529 -0.23659548 18 15
1.271372 -0.15908134 0.33257151 108 31
1.2840234 -0.1617526 0.24295449 163 29
1.3024771 -0.16517128 0.15601459 75 27
1.280789 -0.33563665 0.1232203 95 26
1.3186522 -0.16765317 0.090057209 78 25
1.297183 -0.33996832 0.06090783 53 24
1.3263123 -0.16907696 0.030232059 76 23
1.3081647 -0.34310982 0 10 22
1.3361721 -0.17078945 -0.030464167 76 21
1.306722 -0.34297276 -0.061373662 52 20
1.3433107 -0.17169487 -0.091331884 73 19
1.3365231 -0.35158864 -0.12093488 20 18
1.3625726 -0.17412753 -0.15324232 71 17
1.3783151 -0.17564026 -0.23616609 22 15
1.2708088 -0.16351829 0.33257151 106 31
1.2858858 -0.1665443 0.24342807 170 29
1.2994312 -0.16940059 0.15571165 76 27
1.2844179 -0.34139195 0.12369605 96 26
1.3155854 -0.17193651 0.089883685 77 25
1.293576 -0.34384874 0.060791366 49 24
1.3306714 -0.17434596 0.030348113 75 23
1.3021293 -0.34638083 0 51 22
1.3330891 -0.17513147 -0.030406138 78 21
1.3031046 -0.34688562 -0.061257202 77 20
1.3476498 -0.17702354 -0.091677189 73 19
1.3376924 -0.35689759 -0.12115843 20 18
1.3594934 -0.1785637 -0.15295802 68 17
1.3703659 -0.17950389 -0.23487791 29 15
1.2726256 -0.16826519 0.33321604 104 31
1.2852967 -0.17103189 0.24342807 176 29
1.2914512 -0.1729611 0.15480281 77 27
1.2856202 -0.34652495 0.12393393 96 26
1.3174496 -0.17685494 0.090057209 76 25
1.297188 -0.34966984 0.061024286 39 24
1.3300548 -0.17898983 0.030348113 73 23
1.3033248 -0.35157901 0 82 22
1.3374245 -0.18044314 -0.030522192 75 21
1.3042958 -0.35208696 -0.061373662 74 20
1.3445514 -0.18139768 -0.091504529 71 19
1.3711721 -0.18494631 -0.15437956 32 17
1.3697309 -0.18428628 -0.23487791 33 15
1.2696364 -0.17238615 0.33257151 105 31
1.2822591 -0.17518973 0.24295449 185 29
1.2982169 -0.17846811 0.15571165 77 27
1.2796036 -0.34969044 0.12345818 93 26
1.3168242 -0.18145265 0.090057209 75 25
1.2959596 -0.35419577 0.061024286 43 24
1.3294219 -0.18363148 0.030348113 71 23
1.2996793 -0.35546285 0 86 22
1.3442155 -0.18612553 -0.030696275 68 21
1.3006512 -0.3559745 -0.061257202 72 20
1.341439 -0.18575233 -0.091331884 41 19
1.3680573 -0.18939525 -0.15409526 9 17
1.3690794 -0.1890664 -0.23487791 33 15
1.2618479 -0.17583099 0.33063796 105 31
1.2840713 -0.18000069 0.24342807 195 29
1.3000439 -0.18334061 0.15601459 76 27
1.2807724 -0.35482335 0.12369605 88 26
1.3087726 -0.18501458 0.089536645 60 25
1.2971209 -0.35938814 0.061140746 43 24
1.3188717 -0.18688649 0.030116005 48 23
1.3008386 -0.36066929 0 82 22
1.3386074 -0.19012262 -0.030580221 34 21
1.2994006 -0.36051247 -0.061257202 71 20
1.3432523 -0.19077992 -0.091504529 12 19
1.3673879 -0.19416952 -0.15409526 8 17
1.3708501 -0.1941853 -0.23530731 33 15
1.2684019 -0.18124563 0.33257151 104 31
1.2810048 -0.18413725 0.24295449 212 29
1.2944828 -0.18717647 0.15540871 78 27
1.2771939 -0.35839227 0.12345818 82 26
1.3130565 -0.19028817 0.089883685 33 25
1.2910522 -0.36255544 0.06090783 46 24
1.3182114 -0.19148907 0.030116005 24 23
1.3019774 -0.36588818 0 79 22
1.3478655 -0.19598129 -0.030812329 10 21
1.30294 -0.3664059 -0.061490119 62 20
1.3499842 -0.19653215 -0.092022486 9 19
1.3691602 -0.19929479 -0.15437956 8 17
1.3701639 -0.19896927 -0.23530731 32 15
1.2654032 -0.18510586 0.331927 104 31
1.2730993 -0.18732622 0.2415337 224 29
1.2864882 -0.19039209 0.15449989 61 27
1.2759349 -0.36284831 0.12345818 74 26
1.3222888 -0.1960866 0.090577766 12 25
1.2898427 -0.36683476 0.06090783 42 24
1.3249875 -0.1969482 0.030290084 9 23
1.3007568 -0.37020364 0 72 22
1.3447005 -0.20032123 -0.0307543 9 21
1.3065193 -0.37210044 -0.061723035 47 20
1.3468574 -0.20064473 -0.091849834 9 19
1.3684918 -0.203834 -0.15437956 8 17
1.3694966 -0.20351179 -0.23530731 28 15
1.2671388 -0.1898751 0.33257151 105 31
1.2797219 -0.19285245 0.24295449 238 29
1.295633 -0.19635054 0.15571165 39 27
1.2746606 -0.36729991 0.12345818 79 26
1.3117307 -0.19922139 0.089883685 9 25
1.2957498 -0.37342128 0.061257202 47 24
1.3267283 -0.20217523 0.030348113 9 23
1.2970556 -0.37404525 0 68 22
1.3489357 -0.20575877 -0.030870354 9 21
1.3147392 -0.37967345 -0.062188867 39 20
1.3436828 -0.20497327 -0.091677189 16 19
1.3628235 -0.20810728 -0.15381095 11 17
1.3760476 -0.20962964 -0.23659548 21 15
1.2664344 -0.1945181 0.33257151 103 31
1.2765796 -0.19717154 0.24248089 245 29
1.2875458 -0.19996928 0.15480281 29 27
1.2756934 -0.37267113 0.12369605 71 26
1.3208518 -0.20554362 0.090577766 10 25
1.2919766 -0.37746373 0.061140746 52 24
1.3210741 -0.20604384 0.030232059 19 23
1.2932776 -0.37809125 0 47 22
1.3358225 -0.20879395 -0.030580221 35 21
1.3062189 -0.3821452 -0.061839495 33 20
1.335528 -0.20875466 -0.091159232 40 19
1.3596342 -0.21248403 -0.15352663 34 17
1.3801758 -0.21518183 -0.23745427 16 15
1.2609737 -0.19819686 0.33128247 104 31
1.2734582 -0.20124793 0.24200727 255 29
1.2917432 -0.20523201 0.15540871 59 27
1.2768359 -0.37760922 0.12393393 72 26
1.3102716 -0.20860274 0.089883685 36 25
1.2906512 -0.3819713 0.061140746 50 24
1.3203468 -0.21065402 0.030232059 48 23
1.2943459 -0.38331708 0 38 22
1.3400602 -0.21400194 -0.030696275 66 21
1.3096634 -0.38812935 -0.062072415 22 20
1.3372548 -0.21380457 -0.091331884 68 19
1.3564308 -0.21684107 -0.15324232 59 17
1.3842819 -0.2207654 -0.23831305 15 15
1.2679355 -0.20469666 0.24106009 255 29
1.2935057 -0.20990735 0.15571165 78 27
1.2755101 -0.3820639 0.12393393 72 26
1.3071103 -0.21255091 0.089710169 71 25
1.2917684 -0.38696963 0.061257202 51 24
1.3196411 -0.21503128 0.030232059 71 23
1.2930677 -0.38760722 0 31 22
1.3294356 -0.21708512 -0.030464167 79 21
1.3083692 -0.39247018 -0.062072415 22 20
1.3414626 -0.21903278 -0.091677189 72 19
1.3557043 -0.22133793 -0.15324232 69 17
1.3859737 -0.22574626 -0.23874246 15 15
1.2720588 -0.20991135 0.24200727 254 29
1.2952141 -0.21482272 0.15601459 76 27
1.2717884 -0.38578755 0.12369605 63 26
1.3112824 -0.21792093 0.090057209 80 25
1.2904098 -0.39147639 0.061257202 44 24
1.3164163 -0.21923029 0.03017403 72 23
1.2917068 -0.39211851 0 31 22
1.3311356 -0.2221313 -0.030522192 78 21
1.3117677 -0.3984943 -0.062305331 20 20
1.3406899 -0.22371402 -0.091677189 72 19
1.3524728 -0.22566451 -0.15295802 70 17
1.380317 -0.22978255 -0.23788367 14 15
1.2712809 -0.21457227 0.24200727 255 29
1.294418 -0.21956848 0.15601459 73 27
1.2727435 -0.39118138 0.12393393 61 26
1.3104749 -0.22272556 0.090057209 81 25
1.2913522 -0.39694101 0.061373662 39 24
1.3180686 -0.22446884 0.030232059 72 23
1.2950375 -0.39832792 0 29 22
1.3278481 -0.22659272 -0.030464167 79 21
1.3102983 -0.40329951 -0.062305331 20 20
1.3374017 -0.22821134 -0.091504529 72 19
1.3491874 -0.23020668 -0.15267371 71 17
1.3818942 -0.23524918 -0.23831305 13 15
1.2705241 -0.21900856 0.24200727 254 29
1.2911975 -0.22366652 0.15571165 90 27
1.2951205 -0.40305552 0.1263127 84 26
1.3096894 -0.2272986 0.090057209 81 25
1.2947253 -0.40293819 0.061606579 38 24
1.3172771 -0.22906838 0.030232059 72 23
1.2912537 -0.40209883 0 28 22
1.324586 -0.23080184 -0.030406138 79 21
1.3064996 -0.40712404 -0.062188867 20 20
1.336597 -0.23287836 -0.091504529 73 19
1.353271 -0.23575866 -0.15324232 70 17
1.3956277 -0.24257648 -0.2408894 17 15
1.2673335 -0.22302139 0.2415337 255 29
1.2928536 -0.22859979 0.15601459 99 27
1.3113444 -0.23229937 0.090230726 81 25
1.2909302 -0.40670085 0.061490119 39 24
1.3164693 -0.23366515 0.030232059 72 23
1.2898421 -0.40660372 0 29 22
1.326275 -0.23562579 -0.030464167 78 21
1.307451 -0.4124372 -0.062305331 18 20
1.3406883 -0.23840697 -0.091849834 70 19
1.3499936 -0.24005057 -0.15295802 72 17
1.271421 -0.22808038 0.24248089 234 29
1.2847592 -0.23157895 0.15510577 109 27
1.3081119 -0.23620804 0.090057209 80 25
1.2895744 -0.41097948 0.061490119 39 24
1.3181058 -0.23869994 0.030290084 71 23
1.2908672 -0.41164216 0 26 22
1.3254445 -0.24025391 -0.030464167 77 21
1.3060032 -0.41699854 -0.062305331 19 20
1.3349808 -0.24197081 -0.091504529 70 19
1.3540368 -0.24563943 -0.15352663 70 17
1.2705766 -0.23273885 0.24248089 204 29
1.2839017 -0.23628627 0.15510577 115 27
1.3023305 -0.24010563 0.089710169 79 25
1.2880594 -0.41570324 0.061490119 39 24
1.3221817 -0.24419844 0.030406138 70 23
1.2893498 -0.41637066 0 27 22
1.3245549 -0.24511029 -0.030464167 74 21
1.3291786 -0.24596341 -0.091159232 47 19
1.3458416 -0.24902183 -0.15267371 70 17
1.2745842 -0.23806472 0.24342807 192 29
1.2903889 -0.24212576 0.15601459 114 27
1.3039362 -0.24510635 0.089883685 73 25
1.2866005 -0.42019689 0.061490119 32 24
1.3164073 -0.24789616 0.030290084 63 23
1.2926387 -0.42242962 0 26 22
1.3310617 -0.25110903 -0.030638246 44 21
1.3307636 -0.25105956 -0.091331884 18 19
1.3498473 -0.2546303 -0.15324232 68 17
1.2761577 -0.24296692 0.24390168 176 29
1.2944123 -0.24755175 0.15662047 111 27
1.2932715 -0.24779741 0.089189604 47 25
1.2827561 -0.42389801 0.061373662 31 24
1.315534 -0.25248978 0.030290084 38 23
1.288784 -0.4261505 0 27 22
1.3302218 -0.25552163 -0.030638246 17 21
1.332329 -0.25616971 -0.091504529 8 19
1.3489503 -0.25934055 -0.15324232 68 17
1.2705234 -0.24627247 0.24295449 166 29
1.2838373 -0.24996412 0.15540871 110 27
1.2973402 -0.25303048 0.089536645 26 25
1.2837105 -0.42894471 0.061490119 31 24
1.3170984 -0.25755551 0.030348113 14 23
1.2897334 -0.43121848 0 36 22
1.3219607 -0.25873658 -0.030464167 9 21
1.3388176 -0.26201028 -0.092022486 9 19
1.3455986 -0.26357466 -0.15295802 65 17
1.2744305 -0.25187019 0.24390168 154 29
1.2829126 -0.25466794 0.15540871 110 27
1.303745 -0.25922933 0.090057209 11 25
1.2844942 -0.43445086 0.061606579 41 24
1.3161913 -0.26215145 0.030348113 9 23
1.2881442 -0.43594268 0 27 22
1.3308111 -0.26551849 -0.030696275 13 21
1.3329549 -0.26594839 -0.091677189 26 19
1.3471069 -0.26875162 -0.15324232 61 17
1.2735435 -0.25631723 0.24390168 147 29
1.2868824 -0.26011881 0.15601459 110 27
1.3052773 -0.26426902 0.090230726 13 25
1.2876929 -0.44055635 0.061839495 37 24
1.3103675 -0.26575962 0.030232059 28 23
1.2913425 -0.44206351 0 25 22
1.3249757 -0.26917595 -0.030580221 41 21
1.3369085 -0.27158386 -0.092022486 47 19
1.3534654 -0.27492258 -0.15409526 47 17
1.2750467 -0.26124927 0.24437526 141 29
1.283535 -0.26411366 0.15571165 109 27
1.2994599 -0.26782587 0.089883685 43 25
1.2885057 -0.44586897 0.061955951 34 24
1.314329 -0.27133372 0.030348113 58 23
1.2827084 -0.44410321 0 31 22
1.3191313 -0.27279592 -0.030464167 70 21
1.333509 -0.27574822 -0.091849834 69 19
1.3500643 -0.27914676 -0.15381095 34 17
1.271723 -0.26520196 0.24390168 136 29
1.287465 -0.26960057 0.15631753 106 27
1.300959 -0.27286762 0.090057209 70 25
1.2798743 -0.447878 0.061606579 31 24
1.3109272 -0.27541056 0.030290084 71 23
1.2835085 -0.44940794 0 29 22
1.3206176 -0.2779091 -0.030522192 74 21
1.3349799 -0.28091058 -0.092022486 69 19
1.3466502 -0.28335062 -0.15352663 24 17
1.2731917 -0.27014434 0.24437526 133 29
1.284088 -0.27358049 0.15601459 108 27
1.3024385 -0.27792311 0.090230726 76 25
1.2830088 -0.45401663 0.061839495 30 24
1.3075128 -0.27946693 0.030232059 72 23
1.2842872 -0.45472375 0 30 22
1.3147497 -0.28147966 -0.030406138 74 21
1.326672 -0.28401574 -0.091504529 70 19
1.3553717 -0.29011181 -0.15466388 20 17
1.2698406 -0.27407369 0.24390168 128 29
1.2831253 -0.27806115 0.15601459 107 27
1.2990222 -0.28194329 0.090057209 74 25
1.3114157 -0.28508222 0.030348113 71 23
1.2826922 -0.45920396 0 31 22
1.3186452 -0.28712192 -0.030522192 73 21
1.3281103 -0.28917113 -0.091677189 69 19
1.3494951 -0.29379308 -0.15409526 21 17
1.2712747 -0.27902624 0.24437526 121 29
1.2869955 -0.28359735 0.15662047 106 27
1.2980303 -0.28647605 0.090057209 67 25
1.3104125 -0.28965819 0.030348113 71 23
1.2857802 -0.46538788 0 28 22
1.3176349 -0.2917231 -0.030522192 74 21
1.3270929 -0.29380536 -0.091677189 69 19
1.3484613 -0.29850191 -0.15409526 21 17
1.2966582 -0.28929263 0.24958482 103 29
1.2811527 -0.28701216 0.15601459 108 27
1.2945879 -0.29046378 0.089883685 65 25
1.3069539 -0.29368711 0.030290084 71 23
1.2841479 -0.46987325 0 28 22
1.3142209 -0.29554701 -0.030464167 74 21
1.3284934 -0.29897916 -0.091849834 68 19
1.3498352 -0.30374804 -0.15437956 20 17
1.2801939 -0.29125908 0.15601459 108 27
1.2936176 -0.29475519 0.089883685 63 25
1.3083584 -0.29879946 0.030348113 71 23
1.2849261 -0.47499964 0 36 22
1.3204937 -0.30179003 -0.030638246 73 21
1.329927 -0.30393425 -0.092022486 67 19
1.3560336 -0.31010634 -0.15523249 17 17
1.2839552 -0.29705894 0.15662047 106 27
1.2949592 -0.30005303 0.090057209 69 25
1.3073075 -0.30336466 0.030348113 73 23
1.3145078 -0.3055051 -0.030522192 73 21
1.3239435 -0.3076863 -0.091677189 66 19
1.3549428 -0.3148379 -0.15523249 17 17
1.2780769 -0.30041239 0.15601459 106 27
1.2963324 -0.30513838 0.090230726 70 25
1.3062406 -0.30792615 0.030348113 70 23
1.325601 -0.3129411 -0.030812329 55 21
1.3252897 -0.3128745 -0.091849834 68 19
1.2794353 -0.30544358 0.15631753 102 27
1.2904061 -0.30851072 0.089883685 65 25
1.3002943 -0.31132889 0.030232059 47 23
1.3196927 -0.31617934 -0.030696275 24 21
1.3266158 -0.31807584 -0.092022486 69 19
1.2808282 -0.31026441 0.15662047 102 27
1.2918007 -0.31337163 0.090057209 66 25
1.3016846 -0.31622469 0.030290084 24 23
1.3112923 -0.31902471 -0.030522192 9 21
1.3255539 -0.32247332 -0.092022486 65 19
1.2797374 -0.31473345 0.15662047 100 27
1.290699 -0.31787896 0.090057209 70 25
1.3077997 -0.32277691 0.030464167 12 23
1.3198807 -0.32597968 -0.0307543 26 21
1.3195754 -0.3259111 -0.091677189 65 19
1.2737579 -0.31822783 0.15601459 101 27
1.2919456 -0.32320824 0.090230726 77 25
1.301814 -0.32613412 0.030348113 40 23
1.3114012 -0.32900369 -0.030580221 56 21
1.3256325 -0.33255294 -0.092195131 61 19
1.2774525 -0.32388291 0.15662047 99 27
1.2908096 -0.32771602 0.090230726 78 25
1.3055145 -0.33189914 0.030464167 65 23
1.3102448 -0.3335793 -0.030580221 73 21
1.3172095 -0.33534536 -0.091677189 50 19
1.2811232 -0.32956767 0.15722635 99 27
1.2896578 -0.33221978 0.090230726 69 25
1.3019265 -0.33583432 0.030406138 69 23
1.3091313 -0.33792239 -0.030580221 74 21
1.3184466 -0.34056062 -0.091849834 40 19
1.2800232 -0.3338142 0.15722635 98 27
1.2837207 -0.33524323 0.089883685 62 25
1.3031654 -0.34100521 0.030464167 66 23
1.3079438 -0.34249008 -0.030580221 76 21
1.3173101 -0.34493086 -0.091849834 32 19
1.2811912 -0.33913404 0.15752929 98 27
1.2824835 -0.33994603 0.089883685 62 25
1.3019673 -0.345552 0.030464167 55 23
1.3090963 -0.34791926 -0.030638246 74 21
1.3160371 -0.34975675 -0.091849834 23 19
1.2776016 -0.34296522 0.15722635 99 27
1.2812889 -0.3444207 0.089883685 54 25
1.2983384 -0.3494494 0.030406138 42 23
1.3127027 -0.35377881 -0.0307543 74 21
1.3172175 -0.3549931 -0.092022486 19 19
1.274001 -0.34677553 0.15692341 97 27
1.2848936 -0.35019383 0.090230726 52 25
1.2995231 -0.35463297 0.030464167 39 23
1.3066977 -0.35682184 -0.030638246 74 21
1.3159703 -0.35958889 -0.092022486 19 19
1.2752376 -0.35165358 0.15722635 96 27
1.2813201 -0.35379344 0.090057209 50 25
1.29834 -0.35894039 0.030464167 37 23
1.3030343 -0.36071843 -0.030580221 72 21
1.3123657 -0.36328977 -0.091849834 20 19
1.2763934 -0.35676643 0.15752929 92 27
1.2776743 -0.35759622 0.089883685 57 25
1.2946079 -0.36302614 0.030406138 37 23
1.3065827 -0.36660641 -0.030696275 70 21
1.3158946 -0.36920747 -0.092195131 19 19
1.2750775 -0.36144221 0.15752929 87 27
1.2763551 -0.36227673 0.089883685 54 25
1.2933327 -0.36754295 0.030406138 37 23
1.302825 -0.37071311 -0.030638246 71 21
1.3145326 -0.37402797 -0.092195131 18 19
1.2798789 -0.36809963 0.090230726 47 25
1.294445 -0.37274256 0.030464167 35 23
1.3063285 -0.37663472 -0.0307543 70 21
1.3156166 -0.37930089 -0.092367783 17 19
1.2809819 -0.37325832 0.09040425 46 25
1.2931359 -0.37725875 0.030464167 36 23
1.3050724 -0.38096461 -0.0307543 69 21
1.3166798 -0.38458592 -0.092540428 17 19
1.272557 -0.37540048 0.089883685 44 25
1.2918112 -0.38177037 0.030464167 37 23
1.3013366 -0.38481343 -0.030696275 70 21
1.2783449 -0.38219208 0.09040425 46 25
1.295262 -0.38770196 0.030580221 35 23
1.3047082 -0.39100689 -0.030812329 69 21
1.2722265 -0.38521534 0.090057209 40 25
1.2891145 -0.39077953 0.030464167 33 23
1.3033354 -0.39555877 -0.030812329 65 21
1.2780312 -0.39183387 0.090577766 40 25
1.2901331 -0.39600602 0.030522192 33 23
1.299626 -0.39914912 -0.0307543 54 21
1.2791084 -0.39680442 0.09075129 42 25
1.2935892 -0.40175608 0.030638246 30 23
1.3006128 -0.40442106 -0.030812329 40 21
1.2824768 -0.40275267 0.091098331 39 25
1.2873371 -0.40500313 0.030522192 29 23
1.3087345 -0.41194317 -0.031044437 39 21
1.280992 -0.40745047 0.091098331 36 25
1.2906812 -0.41100243 0.030638246 29 23
1.3072158 -0.41673717 -0.031044437 33 21
1.279562 -0.4119195 0.091098331 36 25
1.2916189 -0.4162676 0.030696275 29 23
1.3057532 -0.42129767 -0.031044437 23 21
1.280489 -0.41715172 0.091271847 37 25
1.2830253 -0.41846162 0.030522192 28 23
1.3019716 -0.42485428 -0.030986408 22 21
1.2863065 -0.42449564 0.030638246 28 23
1.3028554 -0.43017578 -0.031044437 25 21
1.2895612 -0.43055761 0.0307543 29 23
1.3036417 -0.43573621 -0.031102462 22 21
1.285681 -0.43426085 0.030696275 27 23
1.2997437 -0.43948773 -0.031044437 20 21
1.2888905 -0.44035369 0.030812329 26 23
1.2982792 -0.44379544 -0.031044437 24 21
1.2826954 -0.44300207 0.030696275 26 23
1.3014493 -0.4499495 -0.031160491 26 21
1.283424 -0.44852069 0.0307543 26 23
1.2998707 -0.45448965 -0.031160491 25 21
1.2818505 -0.45299798 0.0307543 26 23
1.2888451 -0.45570853 -0.030928383 23 21
1.2802615 -0.4574697 0.0307543 31 23
1.3013761 -0.46522766 -0.031276543 23 21
1.281009 -0.46278083 0.030812329 30 23
1.3090696 -0.4733775 -0.031508651 16 21
1.2840841 -0.46895593 0.030928383 27 23
1.2848682 -0.47407249 0.030986408 27 23
1.2784357 -0.47703943 0.030870354 24 23
1.2720824 -0.47974366 0.0307543 24 23
1.3820778 0.17755243 0.063353457 9 24
1.3653394 0.17058752 0.062538244 32 24
1.3733944 0.16647181 0.062887624 25 24
1.3972198 0.16907386 0 9 22
1.3764477 0.16196464 0.063004084 30 24
1.3729677 0.16131787 0 29 22
1.3770046 0.15715896 0.063004084 30 24
1.3710382 0.15624523 0 20 22
1.3775183 0.15259178 0.063004084 31 24
1.3715487 0.15169784 0 25 22
1.3705922 0.14699541 0.062654711 31 24
1.3745561 0.14717151 0 44 22
1.3736061 0.14222418 0.062771164 35 24
1.3725991 0.14187945 0 46 22
1.3740942 0.13742854 0.062771164 35 24
1.3755739 0.13733172 0 39 22
1.3720564 0.13263482 0.062654711 35 24
1.3760219 0.13276939 0 38 22
1.3650503 0.12716171 0.062305331 33 24
1.3764769 0.12796536 0 39 22
1.375458 0.12303179 0.062771164 37 24
1.3769367 0.12291946 0 43 22
1.3709022 0.11781012 0.062538244 38 24
1.3673927 0.11727379 0 46 22
1.3713052 0.11302407 0.062538244 41 24
1.3702854 0.11270092 0 24 22
1.3642027 0.10789733 0.062188867 47 24
1.3656665 0.10777093 0 42 22
1.3649389 0.10316804 0.12750208 10 26
1.3720428 0.10368734 0.062538244 45 24
1.361048 0.10263528 0 49 22
1.3454475 0.096768863 0.12559907 36 26
1.3649399 0.09813264 0.062188867 52 24
1.3564272 0.097296454 0 54 22
1.3457609 0.092306666 0.12559907 46 26
1.367766 0.093533888 0.062305331 52 24
1.3567586 0.092561036 0 62 22
1.3727822 0.093387447 -0.062538244 45 20
1.3460749 0.087608516 0.12559907 45 26
1.3655763 0.088839576 0.062188867 46 24
1.362048 0.088377051 0 58 22
1.3730843 0.088834628 -0.062538244 73 20
1.3438885 0.082760409 0.12536119 46 26
1.3633853 0.083922885 0.062072415 51 24
1.3598529 0.083472945 0 71 22
1.3659219 0.083357103 -0.062188867 80 20
1.3441827 0.077834263 0.12536119 53 26
1.3562037 0.078504443 0.061723035 59 24
1.3651417 0.078768253 0 79 22
1.3686979 0.078728043 -0.062305331 75 20
1.3394759 0.072879478 0.12488544 60 26
1.3539758 0.073638365 0.061606579 66 24
1.3654084 0.074002534 0 95 22
1.3664706 0.07381922 -0.062188867 82 20
1.3422077 0.068325832 0.12512331 56 26
1.349236 0.068665929 0.061373662 73 24
1.3656584 0.069235921 0 97 22
1.3692142 0.069170885 -0.062305331 75 20
1.339952 0.063526474 0.12488544 60 26
1.3544569 0.064184114 0.061606579 73 24
1.3708866 0.064696148 0 98 22
1.3694475 0.064391017 -0.062305331 64 20
1.3401656 0.058848783 0.12488544 58 26
1.3496825 0.059244886 0.061373662 75 24
1.3636106 0.059595093 0 102 22
1.3696638 0.059610359 -0.062305331 61 20
1.3353894 0.053977575 0.12440969 61 26
1.354872 0.054726731 0.061606579 54 24
1.3613123 0.054738436 0 105 22
1.3648727 0.05463725 -0.062072415 61 20
1.335561 0.049548969 0.12440969 61 26
1.362533 0.050498892 0.061955951 11 24
1.3614863 0.050223857 0 107 22
1.367542 0.050198454 -0.062188867 49 20
1.3382131 0.044966154 0.12464756 59 26
1.355213 0.045503214 0.061606579 9 24
1.3616533 0.04547108 0 112 22
1.3627245 0.04502894 -0.061955951 48 20
1.3333936 0.039920345 0.12417181 60 26
1.3553706 0.040535808 0.061606579 9 24
1.3618109 0.040480062 0 112 22
1.3628736 0.040271871 -0.061955951 51 20
1.3385006 0.035389036 0.12464756 68 26
1.3530072 0.03574254 0.061490119 9 24
1.3644431 0.035787724 0 113 22
1.3655025 0.035575327 -0.062072415 50 20
1.3890126 0.03542826 -0.1216055 30 18
1.3410987 0.031003635 0.12488544 76 26
1.3531239 0.031019449 0.061490119 9 24
1.3620603 0.030971922 0 101 22
1.3656183 0.030808616 -0.062072415 46 20
1.3916118 0.030873206 -0.12182904 33 18
1.3387104 0.026277399 0.12464756 78 26
1.3532193 0.026532158 0.061490119 39 24
1.3621556 0.026454996 0 74 22
1.3707067 0.026367933 -0.062305331 44 20
1.3817526 0.025845036 -0.12093488 35 18
1.3412825 0.021640319 0.12488544 78 26
1.3433155 0.021663681 0.061024286 69 24
1.3522406 0.021556914 0 64 22
1.3707943 0.021343863 -0.062305331 44 20
1.386814 0.021089457 -0.12138196 34 18
1.3338872 0.01664334 0.12417181 77 26
1.3433858 0.016740037 0.061024286 75 24
1.3548102 0.016627174 0 68 22
1.3608718 0.016454164 -0.061839495 54 20
1.3843921 0.015981616 -0.12115843 34 18
1.3143007 0.011855343 0.20012663 97 28
1.3314466 0.012201242 0.12393393 73 26
1.3459334 0.012068949 0.061140746 72 24
1.3573601 0.011915793 0 74 22
1.3584236 0.011686299 -0.061723035 47 20
1.3869275 0.011407232 -0.12138196 34 18
1.3143328 0.0074969009 0.20012663 96 28
1.331481 0.0075535527 0.12393393 72 26
1.3484633 0.007615631 0.061257202 75 24
