# .PCD v0.7 - Point Cloud Data file format
VERSION 0.7
FIELDS x y z intensity ring
SIZE 4 4 4 4 2
TYPE F F F F U
COUNT 1 1 1 1 1
WIDTH 1175
HEIGHT 1
VIEWPOINT 0 0 0 1 0 0 0
POINTS 1175
DATA ascii
-0.44911221 -0.23151083 0.044958759 83 26
-0.40345001 -0.27596417 0.031580754 91 25
-0.4394446 -0.22657384 0.021428375 82 24
-0.39200735 -0.26785868 0.010212749 92 23
-0.44438374 -0.22899467 0 80 22
-0.40032801 -0.27340162 -0.010444857 89 21
-0.44619903 -0.22982167 -0.021777751 84 20
-0.39133704 -0.26718712 -0.030386413 90 19
-0.45841461 -0.23574977 -0.043143127 83 18
-0.4000755 -0.27321249 -0.051459853 92 17
-0.44288057 -0.22765681 -0.064336143 84 16
-0.39484593 -0.26978278 -0.077290721 95 15
-0.4374814 -0.22418959 -0.13068865 91 13
-0.39698038 -0.27133724 -0.10213692 97 14
-0.43920681 -0.2245189 -0.15854068 92 12
-0.40132308 -0.27557775 -0.18277848 96 11
-0.34990442 -0.17804678 -0.18994872 6 9
-0.39228192 -0.26985383 -0.2072594 91 10
-0.33835122 -0.17157702 -0.20820534 7 8
-0.29441026 -0.2034395 -0.21859284 5 7
-0.39018834 -0.19602723 -0.30595404 7 6
-0.31663647 -0.22068721 -0.29721704 6 5
-0.39855295 -0.19816449 -0.39214736 8 4
-0.30906397 -0.21722299 -0.36388639 6 3
-0.39943999 -0.19651224 -0.48465261 5 2
-0.3138026 -0.22270682 -0.4593859 4 1
-0.25079226 -0.12364861 -0.34439147 5 0
-0.39608037 -0.26998851 0.11859138 96 31
-0.44755882 -0.22858675 0.10822137 85 30
-0.39820719 -0.27097368 0.086194374 95 29
-0.43794188 -0.22390075 0.0714738 83 28
-0.39223063 -0.26638886 0.053620551 95 27
-0.44325477 -0.22657312 0.044245128 83 26
-0.40646717 -0.27596539 0.031754274 93 25
-0.44023287 -0.22503851 0.021428375 82 24
-0.39500123 -0.26790217 0.010270776 90 23
-0.44294906 -0.2263145 0 82 22
-0.40334165 -0.2734153 -0.010502884 89 21
-0.44699851 -0.22826275 -0.021777751 83 20
-0.39432469 -0.26722923 -0.030559061 94 19
-0.45701164 -0.23302665 -0.042919587 83 18
-0.40717348 -0.27602619 -0.052312776 90 17
-0.44809496 -0.22833857 -0.065024234 83 16
-0.39781642 -0.26979572 -0.077720113 95 15
-0.44255689 -0.22481877 -0.13206431 90 13
-0.39993459 -0.27132839 -0.10269505 97 14
-0.4421002 -0.22404265 -0.15935791 91 12
-0.40037441 -0.27285981 -0.18184115 96 11
-0.35250118 -0.17780674 -0.19112125 6 9
-0.39135978 -0.26719666 -0.20619653 89 10
-0.33703032 -0.16944626 -0.20691213 7 8
-0.29511863 -0.20241058 -0.21859284 5 7
-0.39087024 -0.19466403 -0.30595404 7 6
-0.31272221 -0.21628833 -0.29237109 6 5
-0.40411946 -0.19913928 -0.39732993 8 4
-0.3182089 -0.22209767 -0.37480298 6 3
-0.40012351 -0.19511674 -0.48465261 6 2
-0.31088495 -0.21896119 -0.45341986 5 1
-0.25122234 -0.12277243 -0.34439147 5 0
-0.3970204 -0.26860428 0.11859138 96 31
-0.44835404 -0.22702308 0.10822137 85 30
-0.40117773 -0.27096641 0.08666797 95 29
-0.44313711 -0.22458413 0.072246492 85 28
-0.39110762 -0.26362038 0.05331761 94 27
-0.44849265 -0.2272547 0.044720881 82 26
-0.40948924 -0.27594885 0.031927794 92 25
-0.44548085 -0.22573838 0.021661293 86 24
-0.39593399 -0.26652172 0.010270776 90 23
-0.44820675 -0.22700651 0 81 22
-0.40016031 -0.2691946 -0.01038683 90 21
-0.45002556 -0.22781923 -0.021894209 82 20
-0.39525509 -0.26585114 -0.030559061 93 19
-0.45782226 -0.23142995 -0.042919587 83 18
-0.40608075 -0.27320641 -0.05202847 90 17
-0.4466742 -0.22566622 -0.064680189 83 16
-0.39875576 -0.26840541 -0.077720113 95 15
-0.44764206 -0.22541521 -0.13343999 92 13
-0.40087929 -0.26993069 -0.10269505 97 14
-0.44287956 -0.22249806 -0.15935791 90 12
-0.40323719 -0.2727693 -0.18277848 97 11
-0.36500439 -0.18242837 -0.19815637 6 9
-0.39415628 -0.26710862 -0.2072594 88 10
-0.34146184 -0.17015266 -0.20949854 6 8
-0.294121 -0.20020087 -0.21719161 5 7
-0.39870161 -0.19677855 -0.31201252 8 6
-0.31504002 -0.21628736 -0.29398641 6 5
-0.40318364 -0.19694403 -0.39560241 8 4
-0.31898224 -0.22098553 -0.37480298 6 3
-0.40371975 -0.19510612 -0.48846877 6 2
-0.31658387 -0.22138934 -0.46137458 5 1
-0.25557917 -0.12374734 -0.35050493 5 0
-0.3979556 -0.2672168 0.11859138 96 31
-0.44914377 -0.22545666 0.10822137 86 30
-0.40415308 -0.27094164 0.087141566 96 29
-0.44170633 -0.22193691 0.071860142 83 28
-0.39202544 -0.26225355 0.05331761 95 27
-0.45374066 -0.22790243 0.045196638 83 26
-0.40631771 -0.27172419 0.031580754 93 25
-0.44850257 -0.22529314 0.021777751 86 24
-0.39686191 -0.26513803 0.010270776 91 23
-0.44899642 -0.22544059 0 81 22
-0.40316907 -0.26919445 -0.010444857 90 21
-0.44634435 -0.2240262 -0.021661293 82 20
-0.39618066 -0.26446983 -0.030559061 94 19
-0.45193467 -0.22651255 -0.042248972 83 18
-0.40703195 -0.27178729 -0.05202847 91 17
-0.44745919 -0.22410566 -0.064680189 85 16
-0.39969021 -0.26701188 -0.077720113 95 15
-0.44627094 -0.22278748 -0.13275215 92 13
-0.40383819 -0.26989418 -0.10325318 97 14
-0.44365352 -0.22095078 -0.15935791 91 12
-0.40226954 -0.27005807 -0.18184115 96 11
-0.36167061 -0.17921592 -0.19581133 6 9
-0.39321566 -0.26445794 -0.20619653 88 10
-0.33820507 -0.16708922 -0.20691213 6 8
-0.29993746 -0.20269012 -0.22139531 5 7
-0.39938611 -0.19538562 -0.31201252 8 6
-0.32049868 -0.21844587 -0.29883233 6 5
-0.40549988 -0.19631316 -0.39732993 8 4
-0.32115665 -0.22085345 -0.37662241 6 3
-0.4000147 -0.19163008 -0.48274454 6 2
-0.312406 -0.21678549 -0.45341986 5 1
-0.25863379 -0.12408037 -0.35458058 5 0
-0.39888591 -0.26582605 0.11859138 96 31
-0.44992799 -0.22388746 0.10822137 83 30
-0.40916988 -0.27226961 0.088088758 96 29
-0.4402625 -0.21930245 0.0714738 83 28
-0.3949987 -0.2622669 0.053620551 95 27
-0.44779673 -0.22309676 0.044483006 83 26
-0.40726373 -0.27030423 0.031580754 90 25
-0.45152658 -0.22482957 0.021894209 85 24
-0.39778498 -0.26375115 0.010270776 90 23
-0.45202357 -0.22497609 0 82 22
-0.40821186 -0.27063894 -0.010560911 89 21
-0.45160502 -0.22467193 -0.021894209 83 20
-0.39502943 -0.26169717 -0.030386413 91 19
-0.46385601 -0.23050544 -0.043366667 83 18
-0.41004166 -0.27174723 -0.052312776 89 17
-0.45042247 -0.22371231 -0.065024234 84 16
-0.39857417 -0.26424357 -0.077290721 95 15
-0.44488686 -0.22017208 -0.13206431 92 13
-0.40270737 -0.26719576 -0.10269505 97 14
-0.44654548 -0.22043689 -0.16017513 89 12
-0.4012413 -0.26742694 -0.18090384 96 11
-0.3662377 -0.17993964 -0.19815637 6 9
-0.39788648 -0.26561704 -0.20832227 87 10
-0.34453949 -0.16875331 -0.21079174 7 8
-0.30235371 -0.20280835 -0.22279654 5 7
-0.40541515 -0.19663362 -0.31655639 8 6
-0.32279342 -0.21846317 -0.30044767 6 5
-0.40614861 -0.19496739 -0.39732993 8 4
-0.32188728 -0.21978721 -0.37662241 6 3
-0.40357494 -0.19166988 -0.4865607 6 2
-0.31932357 -0.22009954 -0.46336326 5 1
-0.26035792 -0.12383061 -0.3566184 5 0
-0.40177271 -0.26584521 0.1192359 93 31
-0.45504582 -0.2245304 0.10934868 84 30
-0.41007054 -0.27091128 0.088088758 95 29
-0.44098732 -0.21784127 0.0714738 84 28
-0.39173663 -0.25820252 0.05301467 92 27
-0.45080894 -0.22262442 0.044720881 83 26
-0.40400666 -0.26618686 0.031233713 93 25
-0.45226967 -0.223331 0.021894209 85 24
-0.4028185 -0.26520041 0.01038683 89 23
-0.44827396 -0.22128247 0 82 22
-0.40499204 -0.26644397 -0.010444857 89 21
-0.45234758 -0.22317311 -0.021894209 83 20
-0.39797166 -0.261767 -0.030559061 91 19
-0.46018109 -0.22670338 -0.042919587 83 18
-0.40887249 -0.26901039 -0.05202847 90 17
-0.45342696 -0.22322261 -0.065368272 85 16
-0.40149844 -0.26428512 -0.077720113 95 15
-0.447777 -0.21974468 -0.13275215 90 13
-0.40363756 -0.26578844 -0.10269505 97 14
-0.44302043 -0.2168968 -0.15854068 89 12
-0.40217233 -0.26602471 -0.18090384 95 11
-0.37283576 -0.18152539 -0.20167394 7 9
-0.39688584 -0.26303571 -0.2072594 86 10
-0.34512645 -0.16754963 -0.21079174 7 8
-0.30645338 -0.20412609 -0.22559904 5 7
-0.40609905 -0.19521727 -0.31655639 8 6
-0.31882635 -0.21410768 -0.29560173 6 5
-0.40028083 -0.19048218 -0.39041984 8 4
-0.32829908 -0.22255468 -0.38390011 6 3
-0.39691219 -0.18686715 -0.47702029 6 2
-0.31760368 -0.21725172 -0.4593859 5 1
-0.25157496 -0.11869298 -0.34235367 5 0
-0.39867392 -0.2617684 0.11794687 97 31
-0.45363417 -0.22188018 0.10878503 86 30
-0.40896764 -0.2681219 0.087615162 96 29
-0.44841465 -0.21952914 0.072632834 84 28
-0.39470515 -0.25820285 0.05331761 95 27
-0.45382336 -0.22213376 0.044958759 82 26
-0.40909418 -0.26752585 0.031580754 91 25
-0.44855091 -0.21957478 0.021661293 82 24
-0.40165642 -0.26241505 0.010328803 89 23
-0.45129403 -0.22080523 0 82 22
-0.40800548 -0.26640558 -0.010502884 89 21
-0.45537204 -0.22268008 -0.022010669 82 20
-0.39680156 -0.25900224 -0.030386413 90 19
-0.4609696 -0.22509566 -0.042919587 82 18
-0.40980899 -0.26758152 -0.05202847 88 17
-0.4542034 -0.2216385 -0.065368272 84 16
-0.40036359 -0.26152447 -0.077290721 95 15
-0.44637522 -0.21713875 -0.13206431 91 13
-0.40456292 -0.26437786 -0.10269505 97 14
-0.4480356 -0.21739227 -0.16017513 90 12
-0.40695971 -0.26718366 -0.18277848 96 11
-0.36549094 -0.17643036 -0.19698386 7 9
-0.39591798 -0.2603949 -0.20619653 83 10
-0.35151073 -0.16908997 -0.21467134 7 8
-0.30372715 -0.20074561 -0.22279654 5 7
-0.39777607 -0.18957211 -0.30898327 8 6
-0.32431072 -0.21620433 -0.30044767 6 5
-0.40586072 -0.19136636 -0.39560241 8 4
-0.32907394 -0.22140737 -0.38390011 6 3
-0.40049851 -0.18682742 -0.48083645 6 2
-0.32209849 -0.21872649 -0.46535197 5 1
-0.24803276 -0.11601588 -0.3362402 5 0
-0.40966928 -0.26702186 0.12116946 96 31
-0.45879862 -0.22240092 0.10991233 84 30
-0.40990108 -0.2666927 0.087615162 96 29
-0.44472432 -0.21582572 0.071860142 83 28
-0.39975274 -0.25954765 0.053923491 93 27
-0.45459595 -0.22054827 0.044958759 83 26
-0.41002554 -0.2660962 0.031580754 90 25
-0.44931462 -0.2180077 0.021661293 86 24
-0.40261552 -0.26094112 0.010328803 90 23
-0.45657045 -0.22139056 0 80 22
-0.40893292 -0.26497975 -0.010502884 89 21
-0.4561851 -0.22100955 -0.022010669 84 20
-0.39978942 -0.25898227 -0.030559061 91 19
-0.4662444 -0.22563541 -0.043366667 83 18
-0.41078699 -0.26607773 -0.05202847 90 17
-0.45720816 -0.22112006 -0.065712318 84 16
-0.40749907 -0.26410529 -0.078578897 93 15
-0.45584774 -0.21963567 -0.13481565 93 13
-0.40752101 -0.26430055 -0.10325318 97 14
-0.45309752 -0.21777627 -0.16180956 89 12
-0.40793628 -0.26569033 -0.18277848 95 11
-0.37009931 -0.17703578 -0.1993289 6 9
-0.3987579 -0.26018897 -0.2072594 84 10
-0.35212812 -0.16780049 -0.21467134 7 8
-0.31135157 -0.20422485 -0.2284015 5 7
-0.40387863 -0.19062896 -0.31352714 8 6
-0.32510096 -0.21501422 -0.30044767 6 5
-0.40655935 -0.18987752 -0.39560241 8 4
-0.32846466 -0.21923678 -0.38208067 6 3
-0.40555993 -0.18743323 -0.4865607 6 2
-0.32039943 -0.21583046 -0.46137458 5 1
-0.24581529 -0.11391686 -0.33216459 5 0
-0.40458018 -0.26155275 0.1192359 96 31
-0.45741045 -0.21967313 0.10934868 84 30
-0.4108758 -0.26518854 0.087615162 95 29
-0.44997406 -0.21631473 0.072632834 86 28
-0.40070134 -0.25808075 0.053923491 94 27
-0.45989665 -0.22101711 0.045434512 84 26
-0.41308826 -0.26595211 0.031754274 90 25
-0.45462167 -0.21850334 0.021894209 86 24
-0.40352392 -0.25953415 0.010328803 90 23
-0.45512065 -0.21864294 0 82 22
-0.41199705 -0.26484114 -0.010560911 89 21
-0.45469794 -0.21834464 -0.021894209 81 20
-0.39655358 -0.2547971 -0.030213762 91 19
-0.45806885 -0.21965757 -0.042472512 84 18
-0.41171327 -0.26464218 -0.05202847 92 17
-0.45354 -0.21732247 -0.065024234 84 16
-0.40635392 -0.26133847 -0.078149505 95 15
-0.45443815 -0.21701711 -0.13412783 90 13
-0.41052961 -0.26413417 -0.10381131 97 14
-0.45171732 -0.21518698 -0.16099234 90 12
-0.41274071 -0.26680148 -0.18465313 95 11
-0.36874485 -0.17474428 -0.19815637 6 9
-0.40344885 -0.26127616 -0.20938514 81 10
-0.35465205 -0.16747181 -0.21596454 7 8
-0.3103359 -0.20199434 -0.22700027 5 7
-0.4027352 -0.18838561 -0.31201252 8 6
-0.33537301 -0.22023189 -0.31013951 6 5
-0.40886423 -0.18920632 -0.39732993 8 4
-0.33207178 -0.22000493 -0.38571954 6 3
-0.40919021 -0.18727137 -0.49037686 6 2
-0.32741216 -0.2189739 -0.47131801 5 1
-0.24488886 -0.11246816 -0.33012676 5 0
-0.40751699 -0.26145378 0.11988043 96 31
-0.45817447 -0.21807513 0.10934868 83 30
-0.40767828 -0.26108384 0.08666797 95 29
-0.45072639 -0.21474272 0.072632834 86 28
-0.39951572 -0.25533327 0.053620551 94 27
-0.4561246 -0.21736923 0.044958759 85 26
-0.41820395 -0.26721498 0.032101315 91 25
-0.45086315 -0.21478692 0.021661293 82 24
-0.40442741 -0.25812402 0.010328803 89 23
-0.458143 -0.21811776 0 81 22
-0.41077286 -0.2621184 -0.010502884 90 21
-0.45771694 -0.21781941 -0.022010669 83 20
-0.39744055 -0.25341132 -0.030213762 89 19
-0.46555486 -0.22131553 -0.043143127 84 18
-0.41472185 -0.26454964 -0.052312776 91 17
-0.45649943 -0.21687002 -0.065368272 84 16
-0.40312517 -0.25724727 -0.077290721 95 15
-0.45519292 -0.2154295 -0.13412783 91 13
-0.40935621 -0.2614491 -0.10325318 97 14
-0.45460683 -0.21460778 -0.16180956 88 12
-0.41167927 -0.26416937 -0.18371581 95 11
-0.37132618 -0.17444772 -0.1993289 6 9
-0.40625536 -0.26110002 -0.210448 80 10
-0.35326213 -0.16539976 -0.21467134 7 8
-0.31276974 -0.20204623 -0.2284015 5 7
-0.41059428 -0.19035459 -0.31807101 8 6
-0.33769223 -0.22017224 -0.31175482 6 5
-0.41937149 -0.19231135 -0.40769503 8 4
-0.33707479 -0.22176242 -0.39117783 6 3
-0.40685856 -0.18459734 -0.4865607 6 2
-0.32437128 -0.21534152 -0.46535197 5 1
-0.23201509 -0.10579974 -0.30974856 5 0
-0.40432054 -0.25748467 0.11859138 96 31
-0.45889515 -0.21655455 0.10934868 84 30
-0.41267133 -0.2623857 0.087615162 95 29
-0.45367402 -0.21429192 0.073019177 85 28
-0.40453726 -0.25668758 0.054226432 94 27
-0.4568806 -0.21577574 0.044958759 85 26
-0.41698837 -0.26448041 0.031927794 88 25
-0.45609844 -0.2154038 0.021894209 86 24
-0.40528113 -0.25678146 0.010328803 91 23
-0.45886377 -0.21659732 0 82 22
-0.41379017 -0.26203063 -0.010560911 89 21
-0.46069986 -0.21735616 -0.022127127 85 20
-0.40037912 -0.25343677 -0.030386413 91 19
-0.4708387 -0.22179216 -0.043590207 83 18
-0.41768858 -0.26451218 -0.052597087 89 17
-0.46398848 -0.21841002 -0.066400409 89 16
-0.40604967 -0.25723776 -0.077720113 95 15
-0.45590481 -0.21391883 -0.13412783 92 13
-0.41231799 -0.26133367 -0.10381131 97 14
-0.45531601 -0.21309906 -0.16180956 87 12
-0.40870214 -0.26022044 -0.18184115 94 11
-0.37193286 -0.17315048 -0.1993289 6 9
-0.40901992 -0.26097885 -0.21151088 78 10
-0.35967663 -0.16683044 -0.21855094 7 8
-0.32211006 -0.20666116 -0.23540768 5 7
-0.40582019 -0.18646 -0.31352714 8 6
-0.3416476 -0.22108841 -0.31498545 6 5
-0.42004022 -0.19084629 -0.40769503 8 4
-0.33499002 -0.21868782 -0.38753897 6 3
-0.41045547 -0.18448178 -0.49037686 6 2
-0.32889512 -0.21674024 -0.47131801 5 1
-0.23370956 -0.10557015 -0.31178638 5 0
-0.40725201 -0.2573728 0.1192359 95 31
-0.46185908 -0.21597341 0.10991233 86 30
-0.41358474 -0.26094359 0.087615162 95 29
-0.45441931 -0.21270698 0.073019177 85 28
-0.40961716 -0.2579399 0.054832313 92 27
-0.45988959 -0.21522465 0.045196638 82 26
-0.42001313 -0.26436219 0.032101315 90 25
-0.45911402 -0.21485908 0.022010669 85 24
-0.40621957 -0.25529429 0.010328803 90 23
-0.46642426 -0.21814252 0 82 22
-0.4147023 -0.26058465 -0.010560911 89 21
-0.46149343 -0.21566615 -0.022127127 85 20
-0.40547147 -0.25471258 -0.030731712 90 19
-0.46708858 -0.21805999 -0.043143127 83 18
-0.41446197 -0.26031631 -0.05202847 90 17
-0.4624995 -0.21575196 -0.066056363 87 16
-0.41530392 -0.26103219 -0.079437681 97 15
-0.45886993 -0.21324962 -0.13481565 91 13
-0.41322771 -0.25989285 -0.10381131 97 14
-0.45824203 -0.21241273 -0.16262679 87 12
-0.41355905 -0.26121673 -0.18371581 95 11
-0.37655556 -0.17367749 -0.20167394 7 9
-0.40997371 -0.25947794 -0.21151088 75 10
-0.3622354 -0.16639218 -0.21984413 7 8
-0.31764975 -0.20210634 -0.23120397 6 7
-0.41194591 -0.18741159 -0.31807101 8 6
-0.35204515 -0.22608843 -0.32467732 6 5
-0.42569375 -0.19150104 -0.41287759 8 4
-0.34008494 -0.22028777 -0.39299726 6 3
-0.40517789 -0.18045703 -0.48274454 6 2
-0.32716501 -0.21385437 -0.46734065 5 1
-0.22213668 -0.099528149 -0.293446 5 0
-0.4061527 -0.25458488 0.11859138 93 31
-0.46486214 -0.21529308 0.11047598 85 30
-0.41661257 -0.26073879 0.088088758 95 29
-0.44845957 -0.20795308 0.071860142 84 28
-0.40426564 -0.2524609 0.053923491 94 27
-0.45841295 -0.21250087 0.044958759 84 26
-0.42097926 -0.26282096 0.032101315 89 25
-0.45989841 -0.21317489 0.022010669 86 24
-0.40922225 -0.25520808 0.01038683 90 23
-0.46267483 -0.21434933 0 82 22
-0.41565463 -0.25906292 -0.010560911 87 21
-0.46678469 -0.21613309 -0.022360044 86 20
-0.40007246 -0.2492355 -0.030213762 91 19
-0.46562016 -0.21531121 -0.042919587 83 18
-0.41536814 -0.25886795 -0.05202847 91 17
-0.45878243 -0.2119977 -0.065368272 84 16
-0.41204628 -0.25695324 -0.078578897 95 15
-0.45304865 -0.20865984 -0.13275215 92 13
-0.41417748 -0.25837654 -0.10381131 97 14
-0.45682925 -0.20983547 -0.16180956 87 12
-0.41055378 -0.25728923 -0.18184115 95 11
-0.37316236 -0.17048457 -0.1993289 7 9
-0.41278666 -0.2592591 -0.21257375 73 10
-0.37062499 -0.16862401 -0.22501695 7 8
-0.3183533 -0.20099629 -0.23120397 5 7
-0.41441542 -0.18677956 -0.31958562 9 6
-0.3528322 -0.22485819 -0.32467732 6 5
-0.41974029 -0.18710962 -0.4059675 8 4
-0.34085181 -0.21909931 -0.39299726 6 3
-0.41028294 -0.18089764 -0.48846877 6 2
-0.32538146 -0.21104093 -0.46336326 5 1
-0.21849065 -0.097037829 -0.28733253 5 0
-0.4070389 -0.25316557 0.11859138 94 31
-0.4678289 -0.21467526 0.11103964 86 30
-0.41959894 -0.26058847 0.088562354 95 29
-0.45592973 -0.2094498 0.073019177 84 28
-0.40514442 -0.25104821 0.053923491 95 27
-0.46594995 -0.21398601 0.045672391 83 26
-0.42400774 -0.26267368 0.032274839 89 25
-0.4629136 -0.21260069 0.022127127 87 24
-0.41222921 -0.25510401 0.010444857 89 23
-0.46114373 -0.21169984 0 82 22
-0.41867545 -0.25893563 -0.010618938 88 21
-0.465262 -0.21347073 -0.022243585 86 20
-0.40728378 -0.25180459 -0.030731712 89 19
-0.46863702 -0.21471202 -0.043143127 85 18
-0.42048103 -0.26005036 -0.052597087 92 17
-0.46628746 -0.21345787 -0.066400409 88 16
-0.41502842 -0.25681993 -0.079008289 96 15
-0.46034747 -0.21004093 -0.13481565 92 13
-0.41507685 -0.25692922 -0.10381131 97 14
-0.45971379 -0.20920843 -0.16262679 87 12
-0.41144937 -0.25585452 -0.18184115 95 11
-0.37778875 -0.17097849 -0.20167394 7 9
-0.41560307 -0.25902376 -0.21363662 67 10
-0.36925551 -0.16646175 -0.22372375 7 8
-0.32778469 -0.2054444 -0.23821014 5 7
-0.41870615 -0.18693328 -0.32261488 8 6
-0.35682595 -0.22568741 -0.32790792 6 5
-0.42702028 -0.18852448 -0.41287759 8 4
-0.34880671 -0.22257347 -0.40209445 6 3
-0.40942752 -0.17882727 -0.4865607 6 2
-0.32611614 -0.20990384 -0.46336326 5 1
-0.21749537 -0.095707774 -0.28529471 5 0
-0.41611573 -0.25686041 0.12116946 95 31
-0.46857539 -0.21304093 0.11103964 87 30
-0.42050603 -0.25912219 0.088562354 96 29
-0.4566581 -0.20785704 0.073019177 85 28
-0.41023278 -0.25225374 0.054529373 96 27
-0.46438757 -0.21141835 0.045434512 84 26
-0.42280379 -0.2598756 0.032101315 89 25
-0.46593037 -0.21200801 0.022243585 87 24
-0.4088707 -0.25102645 0.010328803 90 23
-0.46187991 -0.21008885 0 83 22
-0.42165533 -0.25886399 -0.010676964 90 21
-0.46372652 -0.21082167 -0.022127127 85 20
-0.40816024 -0.25038138 -0.030731712 91 19
-0.4738895 -0.21519659 -0.043590207 82 18
-0.42138618 -0.25858101 -0.052597087 91 17
-0.46473342 -0.21089694 -0.066056363 85 16
-0.4138301 -0.25407037 -0.078578897 95 15
-0.45888335 -0.20745246 -0.13412783 92 13
-0.41385677 -0.25426501 -0.10325318 96 14
-0.46691597 -0.21048655 -0.16507845 86 12
-0.41622695 -0.25694436 -0.18371581 94 11
-0.37027466 -0.16615646 -0.19698386 7 9
-0.40883213 -0.25276965 -0.20938514 66 10
-0.37959871 -0.1695414 -0.23018974 8 8
-0.33025005 -0.205405 -0.23961139 5 7
-0.41750047 -0.18474911 -0.32110026 8 6
-0.35274565 -0.22142556 -0.323062 6 5
-0.43096256 -0.18853699 -0.41633263 9 4
-0.34954286 -0.22141556 -0.40209445 6 3
-0.4100183 -0.17746857 -0.4865607 6 2
-0.32681042 -0.20882124 -0.46336326 5 1
-0.21247335 -0.092736542 -0.27714345 5 0
-0.41696522 -0.2554791 0.12116946 96 31
-0.46705443 -0.21049486 0.11047598 85 30
-0.4192754 -0.25643501 0.088088758 95 29
-0.45508894 -0.20533575 0.072632834 84 28
-0.40895543 -0.24958834 0.054226432 94 27
-0.4651227 -0.20979604 0.045434512 82 26
-0.42154068 -0.25716269 0.031927794 89 25
-0.46434999 -0.20944484 0.022127127 86 24
-0.41395608 -0.25229213 0.010444857 88 23
-0.46714103 -0.21059133 0 81 22
-0.42255634 -0.25739056 -0.010676964 88 21
-0.46442306 -0.20928274 -0.022127127 83 20
-0.4132354 -0.25164241 -0.031077012 88 19
-0.47463781 -0.21354111 -0.043590207 84 18
-0.42224136 -0.25718224 -0.052597087 90 17
-0.47451812 -0.21329579 -0.067432538 89 16
-0.41257381 -0.25140435 -0.078149505 95 15
-0.45956877 -0.20592962 -0.13412783 93 13
-0.42096454 -0.25665608 -0.10492755 97 14
-0.46112719 -0.20607445 -0.16262679 84 12
-0.41121146 -0.25182703 -0.18090384 94 11
-0.37287521 -0.16574796 -0.19815637 7 9
-0.41543442 -0.25499478 -0.21257375 61 10
-0.38411149 -0.16992366 -0.23277615 8 8
-0.32391387 -0.1999079 -0.23400643 6 7
-0.42179489 -0.18486723 -0.32412949 9 6
-0.35512894 -0.22121306 -0.32467732 6 5
-0.4249692 -0.18419552 -0.40942255 9 4
-0.34597936 -0.21742436 -0.39663616 6 3
-0.40914664 -0.17540926 -0.48465261 6 2
-0.33008248 -0.20932321 -0.46734065 5 1
-0.21680529 -0.093667433 -0.28325692 5 0
-0.41579694 -0.25275677 0.12052495 96 31
-0.47224301 -0.21082979 0.11160329 84 30
-0.42435217 -0.25753799 0.089035951 94 29
-0.46258113 -0.20673974 0.073791869 85 28
-0.40770808 -0.24686302 0.053923491 94 27
-0.47040519 -0.21018213 0.045910265 82 26
-0.42243576 -0.25568968 0.031927794 89 25
-0.46279389 -0.20681371 0.022010669 87 24
-0.41061318 -0.24816589 0.010328803 90 23
-0.46329921 -0.20694008 0 82 22
-0.42558482 -0.25721726 -0.010734991 87 21
-0.46975684 -0.20959467 -0.022360044 84 20
-0.41198319 -0.24889787 -0.030904362 89 19
-0.47310171 -0.21087898 -0.043366667 84 18
-0.42318115 -0.25563291 -0.052597087 89 17
-0.4639281 -0.20664969 -0.065712318 85 16
-0.42189759 -0.25502902 -0.07986708 95 15
-0.46912572 -0.20810358 -0.13687916 92 13
-0.41354313 -0.25009775 -0.10269505 97 14
-0.45971447 -0.20343667 -0.16180956 78 12
-0.42002934 -0.25517306 -0.18465313 96 11
-0.37547749 -0.16532333 -0.1993289 7 9
-0.4105868 -0.24990934 -0.20938514 62 10
-0.38473174 -0.16851467 -0.23277615 7 8
-0.3281602 -0.20090687 -0.23680891 6 7
-0.42064071 -0.18253843 -0.32261488 9 6
-0.35432109 -0.21889572 -0.323062 6 5
-0.42730623 -0.18333958 -0.41115007 10 4
-0.34532583 -0.21523687 -0.3948167 6 3
-0.41721058 -0.17708899 -0.49419302 6 2
-0.33212304 -0.20892933 -0.46932933 5 1
-0.22116275 -0.094530568 -0.28937036 5 0
-0.41672051 -0.25123107 0.12052495 96 31
-0.46631676 -0.20617221 0.10991233 85 30
-0.42109966 -0.25342816 0.088088758 96 29
-0.46107271 -0.20405327 0.073405527 85 28
-0.41073099 -0.24665554 0.054226432 95 27
-0.47117239 -0.20845661 0.045910265 84 26
-0.42763388 -0.25672802 0.032274839 89 25
-0.46812493 -0.20711727 0.022243585 88 24
-0.41361389 -0.24802732 0.01038683 88 23
-0.46634531 -0.20624191 0 82 22
-0.42224997 -0.25306478 -0.010618938 90 21
-0.4681972 -0.20695384 -0.022243585 82 20
-0.41715837 -0.24997163 -0.031249661 89 19
-0.47843593 -0.2111349 -0.043813746 84 18
-0.426195 -0.25544161 -0.052881397 92 17
-0.4646824 -0.20494793 -0.065712318 85 16
-0.41857374 -0.25100023 -0.079008289 95 15
-0.46764457 -0.20550749 -0.13619132 91 13
-0.42070702 -0.25237298 -0.10436943 97 14
-0.46692637 -0.20464686 -0.16426124 78 12
-0.42091748 -0.25370532 -0.18465313 95 11
-0.37405175 -0.16307551 -0.19815637 7 9
-0.41724849 -0.25201547 -0.21257375 58 10
-0.38531759 -0.16717067 -0.23277615 8 8
-0.32005098 -0.19432203 -0.22980274 6 7
-0.42677027 -0.1833947 -0.32715875 9 6
-0.3583225 -0.21967477 -0.32629263 6 5
-0.4329454 -0.18393815 -0.41633263 9 4
-0.35333166 -0.21859457 -0.40391389 6 3
-0.41636375 -0.17494231 -0.49228492 6 2
-0.32773665 -0.2045172 -0.46137458 5 1
-0.22015092 -0.093209863 -0.28733253 5 0
-0.41966149 -0.25102547 0.12116946 96 31
-0.47373956 -0.20744513 0.11160329 86 30
-0.42618418 -0.25449482 0.089035951 96 29
-0.46178219 -0.20244256 0.073405527 84 28
-0.4137148 -0.2465014 0.054529373 93 27
-0.46732992 -0.2048323 0.045434512 83 26
-0.42852741 -0.25523373 0.032274839 89 25
-0.46655351 -0.20448935 0.022127127 85 24
-0.41233569 -0.24529326 0.010328803 89 23
-0.46706238 -0.20461279 0 82 22
-0.42527267 -0.2528773 -0.010676964 89 21
-0.47120866 -0.20631006 -0.022360044 84 20
-0.41375372 -0.24594341 -0.030904362 91 19
-0.47917002 -0.20946355 -0.043813746 83 18
-0.42495549 -0.25267234 -0.052597087 89 17
-0.47448865 -0.20725039 -0.067088492 84 16
-0.42155752 -0.25080752 -0.079437681 95 15
-0.4727751 -0.20577297 -0.137567 94 13
-0.41949767 -0.24964598 -0.10381131 96 14
-0.46546638 -0.2020846 -0.16344401 74 12
-0.42180052 -0.25223449 -0.18465313 96 11
-0.38884383 -0.16781288 -0.20636404 7 9
-0.41812566 -0.25055751 -0.21257375 52 10
-0.37998694 -0.16332495 -0.22889654 8 8
-0.32778928 -0.19752952 -0.23540768 6 7
-0.42924219 -0.18267269 -0.32867336 9 6
-0.3623336 -0.2204285 -0.32952324 7 5
-0.43191513 -0.1817345 -0.41460511 10 4
-0.34827453 -0.21372864 -0.39663616 6 3
-0.41697192 -0.17348789 -0.49228492 6 2
-0.33229229 -0.20579718 -0.46734065 5 1
-0.21376309 -0.089723609 -0.27714345 5 0
-0.424633 -0.25211987 0.1224585 96 31
-0.47442484 -0.20587301 0.11160329 85 30
-0.42702579 -0.25308013 0.089035951 95 29
-0.46699041 -0.20285857 0.074178211 85 28
-0.41452998 -0.24512811 0.054529373 95 27
-0.47486728 -0.20622623 0.046148144 83 26
-0.43151215 -0.25509092 0.032448359 89 25
-0.46722904 -0.20294109 0.022127127 87 24
-0.41529256 -0.24520619 0.01038683 91 23
-0.46773833 -0.20306285 0 83 22
-0.43040121 -0.2540274 -0.010793019 87 21
-0.47418535 -0.20573053 -0.022476502 83 20
-0.41670862 -0.24584818 -0.031077012 89 19
-0.47986197 -0.20787343 -0.043813746 85 18
-0.43005666 -0.2538076 -0.053165704 90 17
-0.47061998 -0.20372801 -0.066400409 87 16
-0.42661569 -0.25193405 -0.080296472 93 15
-0.46903259 -0.20231961 -0.13619132 92 13
-0.42450699 -0.25075346 -0.10492755 96 14
-0.46830854 -0.20146386 -0.16426124 71 12
-0.42660826 -0.25322104 -0.18652779 93 11
-0.38736317 -0.16566582 -0.20519152 8 9
-0.41701564 -0.24800242 -0.21151088 48 10
-0.38841996 -0.16537075 -0.23406935 8 8
-0.32490438 -0.19429025 -0.2326052 6 7
-0.43351942 -0.18277377 -0.33170265 9 6
-0.36631566 -0.22122081 -0.33275387 6 5
-0.43251541 -0.18030123 -0.41460511 9 4
-0.35335383 -0.21528147 -0.40209445 6 3
-0.42053941 -0.17331649 -0.49610108 6 2
-0.32912111 -0.20228164 -0.46137458 5 1
-0.2234686 -0.092787176 -0.29140818 5 0
-0.42343545 -0.2493996 0.12181398 95 31
-0.4796243 -0.20611985 0.1127306 85 30
-0.42368692 -0.24907857 0.088088758 95 29
-0.46769565 -0.20122723 0.074178211 85 28
-0.41324908 -0.24241307 0.054226432 93 27
-0.47558427 -0.20456737 0.046148144 84 26
-0.43454504 -0.25485525 0.032621879 90 25
-0.47253108 -0.20326287 0.022360044 86 24
-0.41833889 -0.24495618 0.010444857 90 23
-0.47074524 -0.20240651 0 83 22
-0.43343592 -0.25379688 -0.010851046 89 21
-0.47493619 -0.20399117 -0.022476502 85 20
-0.41541821 -0.24312142 -0.030904362 89 19
-0.48287708 -0.20716923 -0.044037286 86 18
-0.42884657 -0.25096458 -0.052881397 91 17
-0.47588834 -0.20401588 -0.067088492 87 16
-0.42329821 -0.24785838 -0.079437681 94 15
-0.46755639 -0.19966505 -0.13550349 94 13
-0.42328346 -0.24802747 -0.10436943 96 14
-0.47122166 -0.20066202 -0.16507845 65 12
-0.4235512 -0.24928366 -0.18465313 94 11
-0.3879391 -0.16431265 -0.20519152 8 9
-0.42375037 -0.24995235 -0.21469949 43 10
-0.38902342 -0.16394602 -0.23406935 8 8
-0.33270627 -0.19737458 -0.23821014 6 7
-0.43234673 -0.18042761 -0.33018804 9 6
-0.36386365 -0.21789357 -0.32952324 6 5
-0.44322014 -0.18279231 -0.42497027 10 4
-0.35706213 -0.2157802 -0.40573332 6 3
-0.42114186 -0.17184748 -0.49610108 7 2
-0.32599974 -0.19867568 -0.45540854 5 1
nan nan nan 0 0
-0.41602853 -0.24293052 0.1192359 94 31
-0.4758859 -0.20247285 0.11160329 83 30
-0.424597 -0.24752401 0.088088758 95 29
-0.46615344 -0.19855373 0.073791869 84 28
-0.4205507 -0.24467304 0.055135254 95 27
-0.47633088 -0.20282289 0.046148144 85 26
-0.43117672 -0.2507323 0.032274839 89 25
-0.47327292 -0.20152958 0.022360044 85 24
-0.41919142 -0.24349442 0.010444857 90 23
-0.47609288 -0.20261817 0 81 22
-0.43220794 -0.25094104 -0.010793019 89 21
-0.4779475 -0.20329982 -0.02259296 84 20
-0.41630647 -0.24159719 -0.030904362 90 19
-0.48363313 -0.20539801 -0.044037286 85 18
-0.43186185 -0.25072369 -0.053165704 91 17
-0.47891647 -0.20322788 -0.067432538 88 16
-0.42628419 -0.24762708 -0.07986708 95 15
-0.474904 -0.20081088 -0.137567 91 13
-0.42839128 -0.24894436 -0.10548568 97 14
-0.47410029 -0.19992428 -0.16589567 62 12
-0.42441875 -0.24780366 -0.18465313 93 11
-0.39262089 -0.16457389 -0.20753656 8 9
-0.42462027 -0.24847165 -0.21469949 38 10
-0.39553106 -0.16502471 -0.23794894 8 8
-0.33694667 -0.19833787 -0.24101262 6 7
-0.43297392 -0.17891735 -0.33018804 9 6
-0.36298838 -0.21563625 -0.32790792 6 5
-0.44217873 -0.18057033 -0.42324275 10 4
-0.35634926 -0.21363997 -0.40391389 6 3
-0.42176884 -0.17030276 -0.49610108 6 2
-0.32798091 -0.19833145 -0.45739722 5 1
nan nan nan 0 0
-0.42312548 -0.24514161 0.12116946 95 31
-0.47658977 -0.20081046 0.11160329 83 30
-0.4275772 -0.24727994 0.088562354 94 29
-0.46912363 -0.19787534 0.074178211 82 28
-0.42354524 -0.24445485 0.055438194 92 27
-0.47703597 -0.20115896 0.046148144 84 26
-0.4320493 -0.24922566 0.032274839 88 25
-0.47166833 -0.19891582 0.022243585 85 24
-0.42003879 -0.24202968 0.010444857 91 23
-0.47218156 -0.19903278 0 83 22
-0.43740058 -0.25194678 -0.010909073 89 21
-0.47634873 -0.20067054 -0.022476502 84 20
-0.41930237 -0.24139784 -0.031077012 89 19
-0.48204789 -0.20275289 -0.043813746 82 18
-0.43702683 -0.25171497 -0.053734321 89 17
-0.47276229 -0.19870609 -0.066400409 85 16
-0.42714596 -0.24613756 -0.07986708 95 15
-0.47560203 -0.19915193 -0.137567 93 13
-0.43136269 -0.24867514 -0.10604381 97 14
-0.47479525 -0.19826813 -0.16589567 55 12
-0.42927998 -0.24866487 -0.18652779 92 11
-0.38910496 -0.16153245 -0.20519152 8 9
-0.42353413 -0.24584155 -0.21363662 37 10
-0.39610472 -0.16364306 -0.23794894 9 8
-0.33763695 -0.1971605 -0.24101262 6 7
-0.43175086 -0.17666173 -0.32867336 9 6
-0.37028718 -0.21828853 -0.33436915 6 5
-0.44784379 -0.18102939 -0.42842531 10 4
-0.36442792 -0.21683183 -0.41301104 6 3
-0.41784987 -0.16705894 -0.49037686 6 2
-0.32737884 -0.19639495 -0.45540854 5 1
-0.22984308 -0.092501387 -0.29955944 5 0
-0.42606664 -0.24487744 0.12181398 96 31
-0.48404342 -0.20193008 0.11329425 85 30
-0.43268394 -0.24825032 0.089509547 95 29
-0.46524498 -0.19435252 0.073405527 84 28
-0.42010123 -0.24048734 0.054832313 93 27
-0.4754 -0.19862637 0.045910265 84 26
-0.43291664 -0.24771602 0.032274839 90 25
-0.47697681 -0.19917306 0.022476502 87 24
-0.41871747 -0.23931082 0.01038683 91 23
-0.47518462 -0.19833642 0 82 22
-0.43390602 -0.24799331 -0.010793019 87 21
-0.48166403 -0.20090982 -0.022709418 86 20
-0.42230189 -0.24118049 -0.031249661 89 19
-0.48502001 -0.20210129 -0.044037286 83 18
-0.43790284 -0.25018793 -0.053734321 89 17
-0.48028868 -0.1999633 -0.067432538 89 16
-0.43439865 -0.24834378 -0.081155255 94 15
-0.4696216 -0.19475795 -0.13550349 92 13
-0.42796665 -0.244802 -0.10492755 97 14
-0.47329709 -0.19571649 -0.16507845 49 12
-0.42609566 -0.24490902 -0.18465313 91 11
-0.39987233 -0.16438222 -0.21105413 8 9
-0.42829949 -0.24664083 -0.21576236 33 10
-0.40458408 -0.16552487 -0.24312176 9 8
-0.3436754 -0.19913222 -0.24521634 6 7
-0.43048695 -0.174492 -0.32715875 10 6
-0.37264937 -0.21803413 -0.33598447 6 5
-0.44171619 -0.17689404 -0.42151523 10 4
-0.36808491 -0.21738726 -0.41664991 6 3
-0.41990715 -0.16625758 -0.49228492 6 2
-0.33579844 -0.20002514 -0.46734065 5 1
-0.23014857 -0.091738693 -0.29955944 5 0
-0.42687634 -0.24346322 0.12181398 96 31
-0.4802005 -0.19848248 0.11216695 84 30
-0.42925048 -0.24436381 0.088562354 95 29
-0.47045967 -0.19467755 0.074178211 84 28
-0.41874489 -0.23785624 0.054529373 95 27
-0.4830015 -0.19979027 0.046623897 84 26
-0.43157303 -0.24503696 0.032101315 88 25
-0.47994635 -0.19853504 0.02259296 87 24
-0.42601201 -0.24165297 0.010560911 90 23
-0.47121102 -0.19486876 0 82 22
-0.43476903 -0.2464772 -0.010793019 88 21
-0.4777036 -0.19742352 -0.022476502 83 20
-0.42309937 -0.23977877 -0.031249661 89 19
-0.48802829 -0.20134704 -0.044260826 84 18
-0.43226603 -0.24502793 -0.052881397 90 17
-0.47639716 -0.19641754 -0.066744447 87 16
-0.4309476 -0.24445023 -0.080296472 95 15
-0.47471938 -0.19500655 -0.13687916 91 13
-0.42670518 -0.24209331 -0.10436943 97 14
-0.48051444 -0.19680341 -0.1675301 41 12
-0.42694795 -0.24342018 -0.18465313 91 11
-0.40659264 -0.16544855 -0.2145717 8 9
-0.43694964 -0.24975164 -0.22001383 29 10
-0.40317193 -0.16331947 -0.24182856 9 8
-0.34969658 -0.20112516 -0.24942005 6 7
-0.43849313 -0.17591055 -0.33321726 10 6
-0.3766956 -0.21867 -0.3392151 6 5
-0.44738197 -0.17732041 -0.42669779 10 4
-0.37031451 -0.21697848 -0.41846934 6 3
-0.41897732 -0.1642109 -0.49037686 7 2
-0.33649462 -0.19885178 -0.46734065 5 1
-0.23723423 -0.093512006 -0.30974856 5 0
-0.423531 -0.23957153 0.12052495 95 31
-0.48314855 -0.19771785 0.1127306 86 30
-0.43436366 -0.24529938 0.089509547 95 29
-0.47113636 -0.19303414 0.074178211 86 28
-0.42819577 -0.24130966 0.055741135 93 27
-0.48138899 -0.19716959 0.046386018 82 26
-0.4389267 -0.2472326 0.032621879 89 25
-0.47600654 -0.19498509 0.022360044 86 24
-0.42255023 -0.23761787 0.010444857 90 23
-0.47884127 -0.19603471 0 81 22
-0.43997175 -0.24742939 -0.010909073 89 21
-0.48073944 -0.19660681 -0.02259296 85 20
-0.42176586 -0.23706739 -0.031077012 91 19
-0.49103719 -0.20057425 -0.044484366 83 18
-0.43532041 -0.24466954 -0.053165704 90 17
-0.481673 -0.19660541 -0.067432538 87 16
-0.42755944 -0.24043307 -0.079437681 94 15
-0.47766146 -0.19416061 -0.137567 92 13
-0.43390051 -0.24422009 -0.10604381 97 14
-0.49000669 -0.19855209 -0.17079899 36 12
-0.42783728 -0.24185371 -0.18465313 86 11
-0.4030627 -0.1624005 -0.21222666 8 9
-0.43001091 -0.24364477 -0.21576236 25 10
-0.41172934 -0.16498001 -0.24700136 9 8
-0.35222277 -0.20088013 -0.25082126 6 7
-0.43542981 -0.17285465 -0.33018804 12 6
-0.37749454 -0.21728788 -0.3392151 6 5
-0.44634283 -0.17502922 -0.42497027 10 4
-0.37110728 -0.21561973 -0.41846934 6 3
-0.42407686 -0.16447136 -0.49610108 6 2
-0.33982241 -0.19917084 -0.47131801 5 1
-0.24299638 -0.094683811 -0.31789982 5 0
-0.43280894 -0.24278712 0.12310302 95 31
-0.48839283 -0.19775474 0.1138579 85 30
-0.43312395 -0.24249583 0.089035951 95 29
-0.46954769 -0.19038801 0.073791869 83 28
-0.42691708 -0.2385174 0.055438194 92 27
-0.48210841 -0.19540389 0.046386018 83 26
-0.43982995 -0.24562217 0.032621879 87 25
-0.47903636 -0.19416735 0.022476502 85 24
-0.42337713 -0.23614144 0.010444857 91 23
-0.48187762 -0.19520716 0 82 22
-0.43652165 -0.24335977 -0.010793019 88 21
-0.4791041 -0.19400012 -0.022476502 85 20
-0.42045951 -0.23429486 -0.030904362 90 19
-0.49176899 -0.19877315 -0.044484366 84 18
-0.4361718 -0.24314851 -0.053165704 89 17
-0.48699015 -0.19667381 -0.068120621 88 16
-0.43483061 -0.2425707 -0.080725864 93 15
-0.4783363 -0.19249208 -0.137567 91 13
-0.4347927 -0.24262813 -0.10604381 97 14
-0.48850021 -0.1959703 -0.16998176 30 12
-0.42263216 -0.23692659 -0.18184115 84 11
-0.40776616 -0.16253482 -0.2145717 8 9
-0.43675891 -0.24549945 -0.21895096 18 10
-0.4063234 -0.16120817 -0.24312176 9 8
-0.34933183 -0.1975859 -0.2480188 6 7
-0.4434509 -0.1742029 -0.33624652 10 6
-0.38320258 -0.21884048 -0.34406102 7 5
-0.44526276 -0.17282575 -0.42324275 10 4
-0.37777475 -0.2177904 -0.42574707 6 3
-0.42014164 -0.16120857 -0.49037686 7 2
-0.34181893 -0.19875577 -0.47330669 5 1
-0.23925434 -0.092317767 -0.31178638 5 0
-0.43575859 -0.24245988 0.12374754 95 31
-0.4868156 -0.1951521 0.11329425 84 30
-0.43610784 -0.24218489 0.089509547 95 29
-0.4725056 -0.18965787 0.074178211 84 28
-0.42341802 -0.23459837 0.054832313 93 27
-0.48278755 -0.19371983 0.046386018 82 26
-0.43850884 -0.24286641 0.032448359 88 25
-0.47971117 -0.192494 0.022476502 86 24
-0.42637968 -0.23588297 0.010502884 90 23
-0.48023179 -0.1926032 0 82 22
-0.43954974 -0.24305463 -0.010851046 88 21
-0.47977838 -0.19232655 -0.022476502 85 20
-0.4278048 -0.23647822 -0.03142231 88 19
-0.49477547 -0.19797075 -0.044707906 82 18
-0.43485016 -0.240412 -0.052881397 90 17
-0.48767376 -0.19497271 -0.068120621 87 16
-0.43782374 -0.24225442 -0.081155255 94 15
-0.47900531 -0.19082119 -0.137567 91 13
-0.435637 -0.24110894 -0.10604381 97 14
-0.48698166 -0.19340147 -0.16916455 25 12
-0.43153483 -0.23999798 -0.18559046 84 11
-0.41038927 -0.16190962 -0.21574421 9 9
-0.42381892 -0.23618801 -0.21151088 13 10
-0.41686273 -0.16364345 -0.24958776 9 8
-0.3536166 -0.19841626 -0.25082126 6 7
-0.44219866 -0.17194307 -0.33473188 10 6
-0.37734836 -0.21369578 -0.33759978 6 5
-0.44755384 -0.17190892 -0.42497027 11 4
-0.38001499 -0.21733208 -0.4275665 6 3
-0.42524293 -0.16143256 -0.49610108 6 2
-0.34251064 -0.19756135 -0.47330669 5 1
-0.24636902 -0.093987107 -0.32197547 5 0
-0.43027544 -0.23740426 0.12181398 90 31
-0.49202925 -0.19522901 0.11442155 85 30
-0.43266204 -0.23827122 0.088562354 95 29
-0.48006284 -0.19071347 0.075337246 86 28
-0.42857185 -0.23553117 0.055438194 94 27
-0.48574388 -0.19302703 0.046623897 83 26
-0.44371396 -0.24375701 0.032795399 87 25
-0.48735458 -0.19355439 0.022825878 85 24
-0.42720047 -0.23439319 0.010502884 91 23
-0.48555613 -0.19275089 0 81 22
-0.44035333 -0.24159569 -0.010851046 89 21
-0.48974726 -0.19429544 -0.022942336 84 20
-0.42644677 -0.23377359 -0.031249661 88 19
-0.49079192 -0.19451347 -0.044260826 82 18
-0.44220254 -0.24250737 -0.053734321 90 17
-0.48831758 -0.19335446 -0.068120621 86 16
-0.44081989 -0.24192017 -0.081584647 93 15
-0.4774287 -0.1882761 -0.13687916 92 13
-0.43643412 -0.239663 -0.10604381 97 14
-0.48985639 -0.19255517 -0.16998176 20 12
-0.43435165 -0.23969598 -0.18652779 82 11
-0.4150458 -0.16213255 -0.21808928 9 9
-0.44241115 -0.24465497 -0.2210767 9 10
-0.41940147 -0.16302449 -0.25088096 9 8
-0.35430706 -0.19718072 -0.25082126 6 7
-0.4483462 -0.17258975 -0.33927575 12 6
-0.38634035 -0.21717301 -0.34567633 7 5
-0.45150685 -0.17168956 -0.42842531 10 4
-0.38221875 -0.21692745 -0.42938593 6 3
-0.42426032 -0.15946269 -0.49419302 7 2
-0.34839806 -0.19947821 -0.4812614 5 1
-0.24123761 -0.091183588 -0.31382418 5 0
-0.43317321 -0.23714681 0.1224585 96 31
-0.49267396 -0.19359632 0.11442155 86 30
-0.43774623 -0.23921081 0.089509547 94 29
-0.48069263 -0.18912046 0.075337246 85 28
-0.42500502 -0.23171082 0.054832313 92 27
-0.48409498 -0.19042914 0.046386018 82 26
-0.44233584 -0.24108012 0.032621879 89 25
-0.48333815 -0.19012858 0.02259296 87 24
-0.43016452 -0.23418124 0.010560911 89 23
-0.48386213 -0.1902348 0 82 22
-0.44338349 -0.2412623 -0.010909073 87 21
-0.48806074 -0.19176683 -0.022825878 83 20
-0.4272196 -0.23235814 -0.031249661 89 19
-0.49843329 -0.19549799 -0.044931445 83 18
-0.44300425 -0.24103965 -0.053734321 90 17
-0.48898956 -0.19164872 -0.068120621 88 16
-0.43514821 -0.23689193 -0.080296472 94 15
-0.48029304 -0.1875563 -0.137567 91 13
-0.43726805 -0.23813809 -0.10604381 97 14
-0.48828682 -0.19008222 -0.16916455 16 12
-0.4270767 -0.23368531 -0.18277848 81 11
-0.41560924 -0.16068278 -0.21808928 8 9
-0.44322002 -0.24318655 -0.2210767 9 10
-0.42397001 -0.16307417 -0.25346735 9 8
-0.3567645 -0.19701791 -0.25222251 6 7
-0.44708356 -0.1703255 -0.33776113 11 6
-0.38543573 -0.21488295 -0.34406102 6 5
-0.45549312 -0.17136636 -0.43188035 11 4
-0.38148549 -0.21474037 -0.4275665 6 3
-0.43240193 -0.16074842 -0.5037334 7 2
-0.34384742 -0.19522543 -0.47330669 5 1
-0.24972737 -0.093291461 -0.32605109 5 0
-0.43611526 -0.2367966 0.12310302 95 31
-0.4887993 -0.19012888 0.11329425 85 30
-0.43857858 -0.23768134 0.089509547 94 29
-0.4836553 -0.18832774 0.075723588 86 28
-0.4345189 -0.23499119 0.056044076 92 27
-0.49172539 -0.19141737 0.04709965 84 26
-0.44755107 -0.24192764 0.03296892 87 25
-0.48166794 -0.18754409 0.022476502 86 24
-0.43097934 -0.23267825 0.010560911 89 23
-0.48919052 -0.1903381 0 82 22
-0.44641674 -0.24091071 -0.0109671 87 21
-0.48872715 -0.19006202 -0.022825878 83 20
-0.43240631 -0.23325551 -0.031594962 88 19
-0.49911264 -0.19375695 -0.044931445 83 18
-0.44166288 -0.23830172 -0.053450014 89 17
-0.49196795 -0.19082646 -0.068464667 86 16
-0.44461766 -0.24009484 -0.082014047 92 15
-0.48319048 -0.18673527 -0.13825484 91 13
-0.43809664 -0.23661029 -0.10604381 97 14
-0.48673898 -0.18753685 -0.16834733 12 12
-0.42788979 -0.23219311 -0.18277848 76 11
-0.42030033 -0.16078694 -0.22043432 9 9
nan nan nan 0 10
-0.43255129 -0.16459458 -0.25864017 10 8
-0.35745001 -0.19577137 -0.25222251 6 7
-0.4495402 -0.1694555 -0.33927575 12 6
-0.39117438 -0.21633931 -0.34890693 6 5
-0.45439148 -0.16915433 -0.43015283 12 4
-0.38670599 -0.21594654 -0.43302476 6 3
-0.43599927 -0.16033451 -0.50754958 6 2
-0.34584063 -0.19477825 -0.47529536 6 1
-0.24868764 -0.091932192 -0.32401329 5 0
-0.43698025 -0.23519656 0.12310302 94 31
-0.49860045 -0.19179571 0.11554886 85 30
-0.44160342 -0.23724471 0.089983143 93 29
-0.48434231 -0.18655381 0.075723588 85 28
-0.43101478 -0.23103034 0.055438194 95 27
-0.49009758 -0.18872929 0.046861775 82 26
-0.45062736 -0.24147415 0.03314244 88 25
-0.49168894 -0.18932791 0.022942336 85 24
-0.43622467 -0.23347762 0.010676964 89 23
-0.48287413 -0.18587935 0 81 22
-0.44729674 -0.23927288 -0.0109671 87 21
-0.48942047 -0.18826947 -0.022825878 82 20
-0.42887139 -0.22929509 -0.031249661 90 19
-0.49981949 -0.1919263 -0.044931445 83 18
-0.44471776 -0.23786342 -0.053734321 90 17
-0.49266407 -0.18902203 -0.068464667 87 16
-0.44549468 -0.23846363 -0.082014047 94 15
-0.48612046 -0.18581145 -0.13894267 91 13
-0.43681833 -0.23384209 -0.10548568 97 14
-0.48963451 -0.18658328 -0.16916455 14 12
-0.43280843 -0.23284072 -0.18465313 76 11
-0.4167484 -0.15770465 -0.21808928 10 9
nan nan nan 0 10
-0.43114531 -0.16226511 -0.25734696 11 8
-0.3599779 -0.19546022 -0.25362375 6 7
-0.44455627 -0.16575226 -0.33473188 12 6
-0.38863054 -0.21304759 -0.34567633 7 5
-0.463505 -0.17056179 -0.43879044 11 4
-0.38600072 -0.21368684 -0.43120533 6 3
-0.43962684 -0.15982072 -0.51136571 6 2
-0.34918544 -0.19500829 -0.47927272 5 1
-0.26131371 -0.095357999 -0.34235367 5 0
-0.43354821 -0.23137353 0.12181398 96 31
-0.49698699 -0.18919714 0.11498521 86 30
-0.44891104 -0.23919645 0.091403924 95 29
-0.48036709 -0.18312231 0.074950904 83 28
-0.4296332 -0.22834869 0.055135254 92 27
-0.49774104 -0.18964666 0.047575407 81 26
-0.44707406 -0.23753802 0.032795399 89 25
-0.48533493 -0.18497205 0.02259296 85 24
-0.43483514 -0.23077089 0.010618938 88 23
-0.48586002 -0.18507268 0 79 22
-0.44372469 -0.23534641 -0.010851046 88 21
-0.49007466 -0.18655993 -0.022825878 84 20
-0.42747158 -0.22661735 -0.031077012 89 19
-0.50048637 -0.19018042 -0.044931445 82 18
-0.44335681 -0.23513517 -0.053450014 90 17
-0.4956395 -0.18817037 -0.068808712 86 16
-0.44198495 -0.23457646 -0.081155255 93 15
-0.48901784 -0.18495399 -0.1396305 89 13
-0.43763191 -0.23231588 -0.10548568 97 14
-0.48142549 -0.18157724 -0.16589567 10 12
-0.43361858 -0.2313285 -0.18465313 74 11
-0.42972782 -0.16082779 -0.2251244 9 9
nan nan nan 0 10
-0.43773597 -0.16296706 -0.26122656 10 8
-0.36065799 -0.19420245 -0.25362375 6 7
-0.45261097 -0.16691266 -0.34079039 14 6
-0.39438275 -0.21445705 -0.35052225 7 5
-0.45729175 -0.16650733 -0.43188035 11 4
-0.39123559 -0.21484517 -0.43666363 6 3
-0.44018203 -0.15828517 -0.51136571 6 2
-0.34590635 -0.19155365 -0.47330669 5 1
-0.26984888 -0.097308584 -0.35458058 5 0
-0.43861154 -0.23214017 0.12310302 94 31
-0.49536151 -0.18661219 0.11442155 85 30
-0.44108415 -0.23299864 0.089509547 92 29
-0.48100337 -0.18144438 0.074950904 83 28
-0.43918556 -0.23151995 0.05634702 91 27
-0.4960351 -0.18712635 0.047337528 82 26
-0.45230216 -0.2383223 0.03314244 87 25
-0.50001985 -0.18850459 0.023291713 85 24
-0.43563801 -0.22925162 0.010618938 89 23
-0.49353224 -0.18599109 0 79 22
-0.44670886 -0.23504819 -0.010909073 87 21
-0.49306357 -0.1857186 -0.022942336 80 20
-0.43486509 -0.22863874 -0.031594962 88 19
-0.49878019 -0.1876526 -0.044707906 82 18
-0.45075279 -0.23708661 -0.054302938 88 17
-0.49161774 -0.18480268 -0.068120621 83 16
-0.44497484 -0.23418996 -0.081584647 93 15
-0.48740581 -0.18241318 -0.13894267 91 13
-0.4427008 -0.23315597 -0.10660193 97 14
nan nan nan 0 12
-0.43642601 -0.23098415 -0.18559046 70 11
-0.42403546 -0.1571331 -0.22160684 10 9
nan nan nan 0 10
-0.44028541 -0.16224389 -0.26251978 10 8
-0.3631534 -0.19392994 -0.25502497 6 7
-0.45129004 -0.16473874 -0.33927575 13 6
-0.39007169 -0.21039736 -0.34567633 7 5
-0.46635869 -0.16800612 -0.44051796 12 4
-0.39644545 -0.2160387 -0.44212192 6 3
-0.44680491 -0.15895376 -0.51899809 6 2
-0.34786138 -0.19114602 -0.47529536 5 1
-0.25648117 -0.091686368 -0.33420238 5 0
-0.44364485 -0.23295169 0.12439205 95 31
-0.50054896 -0.18665133 0.11554886 85 30
-0.4526974 -0.23728544 0.09187752 93 29
-0.48392004 -0.18070242 0.075337246 84 28
-0.43775755 -0.22890145 0.056044076 92 27
-0.4990204 -0.18625428 0.047575407 83 26
-0.44868058 -0.23448941 0.032795399 88 25
-0.49829894 -0.1859819 0.023175254 83 24
-0.43418601 -0.22663815 0.010560911 90 23
-0.4871085 -0.18176126 0 79 22
-0.44531637 -0.23232064 -0.010851046 88 21
-0.49367672 -0.18408251 -0.022942336 83 20
-0.44003204 -0.22952411 -0.031940263 87 19
-0.5017693 -0.18676937 -0.044931445 81 18
-0.45373303 -0.23675011 -0.054587249 88 17
-0.50155789 -0.18649915 -0.069496796 88 16
-0.44792658 -0.23386361 -0.082014047 91 15
-0.4925229 -0.18244629 -0.14031833 89 13
-0.44351199 -0.23160924 -0.10660193 97 14
nan nan nan 0 12
-0.43927619 -0.23054706 -0.18652779 68 11
-0.43081254 -0.15789902 -0.2251244 10 9
nan nan nan 0 10
-0.44084907 -0.16070601 -0.26251978 10 8
-0.36197156 -0.19174306 -0.25362375 6 7
-0.4574852 -0.16515911 -0.34381962 13 6
-0.38912719 -0.20812346 -0.34406102 7 5
-0.46523672 -0.16577992 -0.43879044 10 4
-0.39569443 -0.21382807 -0.44030249 6 3
-0.44430315 -0.15633923 -0.5151819 6 2
-0.34852645 -0.18993059 -0.47529536 6 1
nan nan nan 0 0
-0.44659221 -0.23252781 0.12503657 96 31
-0.49662027 -0.18323608 0.11442155 85 30
-0.44483247 -0.23113348 0.089983143 93 29
-0.48918894 -0.18070412 0.076109938 85 28
-0.44075128 -0.22852518 0.05634702 91 27
-0.50200564 -0.18536364 0.047813285 81 26
-0.45170513 -0.23407994 0.03296892 87 25
-0.49659884 -0.18338603 0.023058794 85 24
-0.43944201 -0.22736421 0.010676964 87 23
-0.49008894 -0.1809157 0 80 22
-0.45055321 -0.23308295 -0.0109671 88 21
-0.49669477 -0.18312599 -0.023058794 84 20
-0.43420169 -0.22451681 -0.03142231 89 19
-0.50709844 -0.18671834 -0.045378525 80 18
-0.44799551 -0.23163101 -0.053734321 89 17
-0.4928959 -0.18136607 -0.068120621 85 16
-0.44878072 -0.23222031 -0.082014047 96 15
-0.49318826 -0.18063988 -0.14031833 89 13
-0.44431776 -0.23005968 -0.10660193 96 14
nan nan nan 0 12
-0.43601722 -0.22677507 -0.18465313 65 11
-0.43344074 -0.15713599 -0.22629693 12 9
nan nan nan 0 10
-0.4414351 -0.15908915 -0.26251978 12 8
-0.36632487 -0.1923648 -0.25642622 6 7
-0.45245731 -0.16150518 -0.33927575 15 6
-0.39996663 -0.21212518 -0.35375291 7 5
-0.46754897 -0.16466466 -0.44051796 12 4
-0.40249863 -0.21565618 -0.44758025 6 3
-0.45401883 -0.15791714 -0.5266304 6 2
-0.34523943 -0.1864589 -0.46932933 6 1
-0.23517488 -0.082442679 -0.3015973 5 0
-0.4410184 -0.2275344 0.12310302 95 31
-0.50187182 -0.18306473 0.11554886 86 30
-0.44349986 -0.22836693 0.089509547 94 29
-0.48984799 -0.17890993 0.076109938 85 28
-0.43498117 -0.22347291 0.055438194 91 27
-0.49565792 -0.18099096 0.04709965 82 26
-0.45034704 -0.23127274 0.032795399 87 25
-0.49961704 -0.18241142 0.023175254 84 24
-0.44245112 -0.22698063 0.010734991 87 23
-0.49545285 -0.18081272 0 79 22
-0.45584151 -0.23373194 -0.011083154 86 21
-0.49733099 -0.18139108 -0.023058794 83 20
-0.43502167 -0.22292387 -0.03142231 87 19
-0.50543612 -0.18401626 -0.045154985 80 18
-0.44880131 -0.23006581 -0.053734321 87 17
-0.50054902 -0.18206859 -0.069152758 85 16
-0.44740283 -0.22951743 -0.081584647 92 15
-0.49381581 -0.17891723 -0.14031833 90 13
-0.44515797 -0.22842963 -0.10660193 96 14
-0.45275509 -0.16373655 -0.15445459 5 12
-0.44296896 -0.2284708 -0.18746512 63 11
-0.44026086 -0.1577487 -0.2298145 12 9
nan nan nan 0 10
-0.44198775 -0.15754728 -0.26251978 11 8
-0.36699414 -0.19108489 -0.25642622 6 7
-0.45489734 -0.16057695 -0.34079039 12 6
-0.3973386 -0.2089297 -0.35052225 7 5
-0.46641114 -0.16244654 -0.43879044 11 4
