# .PCD v0.7 - Point Cloud Data file format
VERSION 0.7
FIELDS x y z intensity ring
SIZE 4 4 4 4 2
TYPE F F F F U
COUNT 1 1 1 1 1
WIDTH 1121
HEIGHT 1
VIEWPOINT 0 0 0 1 0 0 0
POINTS 1121
DATA ascii
1.1425064 -0.073271215 0.10609316 7 26
1.1298436 -0.076198004 0.10490377 84 26
1.1270888 -0.079960465 0.1046659 86 26
1.1292695 -0.084280968 0.10490377 80 26
1.1255937 -0.084005527 0.05100885 7 24
1.1289684 -0.088222347 0.10490377 75 26
1.13774 -0.088931128 0.051591143 46 24
1.1261896 -0.091758713 0.1046659 77 26
1.1349341 -0.092693947 0.051474687 71 24
1.1209038 -0.095258079 0.10419014 73 26
1.1346205 -0.096457005 0.051474687 75 24
1.1407799 -0.097193211 0 4 22
1.1180859 -0.098945916 0.10395226 73 26
1.134277 -0.10041698 0.051474687 77 24
1.1329641 -0.10049754 0 36 22
1.1201935 -0.10327658 0.10419014 71 26
1.1314149 -0.10433949 0.051358223 75 24
1.1350772 -0.10488422 0 75 22
1.1198449 -0.10699071 0.10419014 65 26
1.1285584 -0.10804541 0.05124177 75 24
1.1347042 -0.10884575 0 75 22
1.1334914 -0.10892673 -0.051474687 7 20
1.1194646 -0.11089905 0.10419014 49 26
1.1257093 -0.11153618 0.051125307 74 24
1.1343369 -0.11260796 0 68 22
1.1505157 -0.11444845 -0.052289892 36 20
1.1190706 -0.11480604 0.10419014 37 26
1.1277969 -0.11572471 0.05124177 73 24
1.1289642 -0.11604594 0 10 22
1.140154 -0.11762039 -0.051824059 82 20
1.1211165 -0.11917476 0.10442802 22 26
1.1273651 -0.11985751 0.05124177 74 24
1.1359875 -0.12099171 0 9 22
1.1347712 -0.12106014 -0.051591143 82 20
1.14882 -0.12318873 -0.10059278 5 18
1.1206937 -0.12308747 0.10442802 11 26
1.1219763 -0.12323701 0.05100885 71 24
1.1281049 -0.12412161 0 8 22
1.1343417 -0.1250205 -0.051591143 79 20
1.1483831 -0.1271981 -0.10059278 21 18
1.1153127 -0.12642832 0.10395226 10 26
1.12402 -0.12743886 0.051125307 69 24
1.1301483 -0.12834558 0 8 22
1.1338984 -0.12897933 -0.051591143 79 20
1.140512 -0.13034347 -0.099922165 71 18
1.1074734 -0.12924603 0.10323863 70 26
1.1186315 -0.13057676 0.05089239 69 24
1.1222689 -0.13120715 0 9 22
1.1359211 -0.13323228 -0.051707603 75 20
1.1351287 -0.13353345 -0.099475086 70 18
1.1119328 -0.13390912 0.10371439 82 26
1.1156666 -0.1343724 0.050775934 67 24
1.1217805 -0.13531959 0 9 22
1.1304916 -0.13658787 -0.051474687 81 20
1.137103 -0.13799778 -0.099698633 59 18
1.122979 -0.13922867 0.17153712 90 28
1.1065202 -0.13716754 0.10323863 83 26
1.1127131 -0.13795385 0.050659474 67 24
1.1337029 -0.140799 0 9 22
1.1324856 -0.14084619 -0.051591143 80 20
1.1341441 -0.14165279 -0.099475086 10 18
1.1004407 -0.14029236 0.16806002 84 28
1.1085273 -0.14115541 0.10347651 82 26
1.1147015 -0.14215787 0.050775934 22 24
1.1307254 -0.14443396 0 9 22
1.1270341 -0.14415516 -0.051358223 80 20
1.1361374 -0.14573453 -0.099698633 10 18
1.0975208 -0.14361538 0.16767366 83 28
1.1006268 -0.14404044 0.10276287 81 26
1.1166993 -0.14618254 0.05089239 9 24
1.127762 -0.147853 0 9 22
1.1289992 -0.14841864 -0.051474687 80 20
1.1380898 -0.15002966 -0.099922165 10 18
1.0920928 -0.14696833 0.16690096 85 28
1.1025573 -0.14841039 0.10300075 80 26
1.116156 -0.15027447 0.05089239 8 24
1.1272125 -0.15198545 0 9 22
1.1235261 -0.15168086 -0.05124177 79 20
1.1375321 -0.15419997 -0.099922165 10 18
1.0891271 -0.15043665 0.16651464 88 28
1.1020325 -0.15225813 0.10300075 79 26
1.1230439 -0.15520976 0.05124177 8 24
1.1217238 -0.15522423 0 38 22
1.1229898 -0.15560177 -0.05124177 78 20
1.1295903 -0.15712628 -0.099251553 10 18
1.0812607 -0.15318318 0.16535559 89 28
1.1015216 -0.15591176 0.10300075 74 26
1.1150798 -0.15806298 0.05089239 8 24
1.116226 -0.15842657 0 73 22
1.1249114 -0.15987696 -0.051358223 74 20
1.1265985 -0.16051525 -0.099028006 10 18
1.0831904 -0.15712748 0.16574195 89 28
1.1009707 -0.15975586 0.10300075 71 26
1.1170201 -0.1621234 0.05100885 9 24
1.1206411 -0.16285591 0 74 22
1.1243751 -0.16360644 -0.051358223 79 20
1.1334208 -0.16554067 -0.099698633 21 18
1.0875202 -0.16164371 0.16651464 85 28
1.0979453 -0.16322711 0.10276287 70 26
1.1090393 -0.16490512 0.050659474 9 24
1.1175938 -0.16639373 0 78 22
1.1311755 -0.16884667 -0.051707603 47 20
1.135298 -0.16986921 -0.099922165 34 18
1.0844793 -0.16525154 0.16612828 85 28
1.0973397 -0.16725017 0.10276287 67 26
1.1108954 -0.16935001 0.050775934 10 24
1.1120352 -0.16972473 0 78 22
1.1231756 -0.17164803 -0.051358223 11 20
1.1223654 -0.17211807 -0.098804474 42 18
1.0790164 -0.16826501 0.16535559 84 28
1.091833 -0.1703027 0.10228712 13 26
1.1102976 -0.17322676 0.050775934 10 24
1.1089666 -0.17321476 0 78 22
1.1299692 -0.17673959 -0.051707603 10 20
1.1217577 -0.17603479 -0.098804474 58 18
1.0784225 -0.17203045 0.16535559 81 28
1.1035466 -0.17590542 0.10347651 9 26
1.1047553 -0.17630449 0.050543014 10 24
1.1108232 -0.17748401 0 77 22
1.1293454 -0.18068284 -0.051707603 10 20
1.1236256 -0.18015265 -0.099028006 72 18
1.0802832 -0.17600782 0.16574195 79 28
1.1078366 -0.18056679 0.10395226 8 26
1.0967728 -0.17874731 0.050193641 10 24
1.1052953 -0.18035172 0 75 22
1.1262763 -0.18401945 -0.051591143 10 20
1.118077 -0.18325867 -0.098580927 78 18
1.0820976 -0.18018828 0.16612828 74 28
1.1022917 -0.1836053 0.10347651 8 26
1.0986046 -0.18298985 0.050310094 58 24
1.1095893 -0.18504097 0 74 22
1.1182072 -0.18689682 -0.05124177 10 20
1.1223406 -0.18799259 -0.099028006 77 18
1.0789961 -0.1837336 0.16574195 74 28
1.1016113 -0.18764417 0.10347651 8 26
1.0979266 -0.18701521 0.050310094 71 24
1.1015128 -0.18783127 0 73 22
1.1150873 -0.19037388 -0.051125307 20 20
1.1191907 -0.19167982 -0.098804474 79 18
1.0783482 -0.18749888 0.16574195 72 28
1.100983 -0.1912962 0.10347651 9 26
1.0923481 -0.18998097 0.050077178 74 24
1.1033126 -0.19210881 0 74 22
1.1168752 -0.19469877 -0.05124177 32 20
1.1185488 -0.19539015 -0.098804474 77 18
1.0752892 -0.19063763 0.16535559 69 28
1.0880607 -0.19294107 0.10228712 9 26
1.0966282 -0.19448414 0.050310094 71 24
1.1026694 -0.19576648 0 33 22
1.1113077 -0.19751777 -0.05100885 42 20
1.112959 -0.19840981 -0.098357394 78 18
1.0697581 -0.19350073 0.16458291 30 28
1.0775886 -0.19494605 0.10133561 10 26
1.0910298 -0.19741188 0.050077178 72 24
1.0995204 -0.19916388 0 10 22
1.1056637 -0.20068799 -0.050775934 55 20
1.1196064 -0.2036446 -0.099028006 77 18
1.0787535 -0.19923431 0.16612828 11 28
1.1450262 -0.060866803 0.13571756 7 27
1.0817595 -0.1998082 0.10181136 10 26
1.0902988 -0.20140938 0.050077178 72 24
1.1086127 -0.20503029 0 9 22
1.1098659 -0.20546499 -0.05100885 67 20
1.1115108 -0.20636885 -0.098357394 79 18
1.080478 -0.20346066 0.16651464 8 28
1.1274616 -0.063917845 0.13359696 13 27
1.0712764 -0.2017211 0.10085986 10 26
1.0846826 -0.20427983 0.049844261 73 24
1.1078902 -0.20889883 0 9 22
1.1066887 -0.20886993 -0.05089239 40 20
1.1132292 -0.21071532 -0.098580927 79 18
1.0797613 -0.207231 0.16651464 8 28
1.1321862 -0.068140462 0.13420284 39 27
1.0779312 -0.20669323 0.10157349 10 26
1.0839629 -0.20806482 0.049844261 70 24
1.102246 -0.21181162 0 10 22
1.1108557 -0.21368475 -0.051125307 10 20
1.1125244 -0.21440578 -0.098580927 79 18
1.0766448 -0.21033196 0.16612828 9 28
1.1369079 -0.072198421 0.13480872 43 27
1.0820863 -0.21141887 0.10204925 61 26
1.0857171 -0.21214202 0.049960721 71 24
1.1015375 -0.21546564 0 9 22
1.1076534 -0.21707602 -0.05100885 9 20
1.1117691 -0.2182879 -0.098580927 79 18
1.0661809 -0.21232721 0.16458291 10 28
1.124254 -0.075559869 0.13329403 44 27
1.0739847 -0.21391033 0.10133561 72 26
1.1446018 -0.077278033 0.077390201 10 25
1.0800358 -0.21513446 0.049727805 71 24
1.1056418 -0.22048895 0 10 22
1.1142329 -0.22242193 -0.051358223 9 20
1.1060804 -0.22137439 -0.098133847 79 18
1.0630137 -0.21555178 0.16419657 11 28
1.1239834 -0.0794838 0.13329403 43 27
1.0707935 -0.21715836 0.10109774 79 26
1.1343727 -0.080587506 0.07669612 37 25
1.0817246 -0.21940444 0.049844261 69 24
1.0950694 -0.22233795 0 15 22
1.1061109 -0.22480354 -0.05100885 9 20
1.1053009 -0.22523397 -0.098133847 75 18
1.0670906 -0.22026959 0.16496925 16 28
1.1286495 -0.083763331 0.13389991 44 27
1.0725039 -0.2212157 0.10133561 78 26
1.136572 -0.084726766 0.076869637 43 25
1.0858417 -0.22419871 0.050077178 26 24
1.0918393 -0.22564828 0 32 22
1.102875 -0.22815251 -0.05089239 9 20
1.1069851 -0.2294081 -0.098357394 70 18
1.0687706 -0.22431922 0.16535559 19 28
1.1234164 -0.08713261 0.13329403 47 27
1.0692906 -0.22444195 0.10109774 79 26
1.1337979 -0.088307008 0.07669612 43 25
1.0899782 -0.22883411 0.050310094 11 24
1.1485889 -0.089824133 0.02593806 8 23
1.0959761 -0.23030555 0 39 22
1.0996696 -0.23128976 -0.050775934 9 20
1.1037422 -0.23275225 -0.098133847 72 18
1.0534945 -0.22492437 0.16303752 20 28
1.1255791 -0.091248661 0.13359696 47 27
1.0709333 -0.22869775 0.10133561 77 26
1.1384552 -0.092658125 0.077043161 22 25
1.0867317 -0.23211102 0.050193641 10 24
1.135795 -0.093039811 0.025647927 33 23
1.0902781 -0.23307492 0 50 22
1.0988145 -0.23531869 -0.050775934 9 20
1.1029229 -0.23660362 -0.098133847 70 18
1.0599005 -0.23037276 0.16419657 22 28
1.1178178 -0.09476091 0.13268815 47 27
1.0652264 -0.23155425 0.10085986 74 26
1.1405934 -0.097036228 0.077216677 9 25
1.0809951 -0.23502171 0.049960721 10 24
1.1329725 -0.09679649 0.0255899 45 23
1.0918584 -0.23760584 0 34 22
1.0979863 -0.23915283 -0.050775934 10 20
1.0996168 -0.24010848 -0.097910315 70 18
1.0615005 -0.23460905 0.16458291 44 28
1.1174803 -0.098662242 0.13268815 44 27
1.0668406 -0.23581322 0.10109774 78 26
1.1327935 -0.10037277 0.07669612 7 25
1.0752935 -0.23770583 0.049727805 10 24
1.1301378 -0.10053464 0.025531873 51 23
1.0934622 -0.24196061 0 9 22
1.1550016 -0.10309875 -0.026112143 7 21
1.0947076 -0.24243928 -0.050659474 10 20
1.1012017 -0.24448985 -0.098133847 70 18
1.0558575 -0.2372202 0.16381021 82 28
1.117129 -0.10256238 0.13268815 43 27
1.0636256 -0.2387996 0.10085986 75 26
1.1374042 -0.10477321 0.077043161 7 25
1.0768925 -0.24201027 0.049844261 10 24
1.132269 -0.10470372 0.0255899 53 23
1.082859 -0.24356224 0 9 22
1.1446967 -0.10602742 -0.025880035 33 21
1.1011603 -0.24791887 -0.05100885 10 20
1.0955291 -0.24703521 -0.097686768 71 18
1.0526583 -0.2401659 0.16342388 84 28
1.1217246 -0.10672566 0.13329403 42 27
1.0627855 -0.24251089 0.10085986 75 26
1.1296009 -0.10784939 0.076522596 7 25
1.0712171 -0.24445906 0.049611345 13 24
1.1318966 -0.10865544 0.0255899 51 23
1.0820453 -0.24715181 0 8 22
1.1393429 -0.1095547 -0.025763981 46 21
1.0905551 -0.24951403 -0.050543014 42 20
1.0970861 -0.2514188 -0.097910315 70 18
1.0493659 -0.24345927 0.16303752 88 28
1.1163858 -0.11035884 0.13268815 42 27
1.0570433 -0.24526969 0.1003841 81 26
1.1316803 -0.11222964 0.07669612 7 25
1.0776083 -0.25009185 0.049960721 27 24
1.1240479 -0.11187937 0.025415819 54 23
1.0786983 -0.25054559 0 9 22
1.1364462 -0.11348685 -0.025705952 54 21
1.0896775 -0.25331923 -0.050543014 74 20
1.1465216 -0.11447732 -0.077347234 5 19
1.0961572 -0.25543812 -0.097910315 73 18
1.0509127 -0.24769235 0.16342388 85 28
1.1135246 -0.11400776 0.13238519 42 27
1.0682864 -0.25183746 0.10157349 32 26
1.121356 -0.11518153 0.076002039 8 25
1.0742992 -0.25327399 0.049844261 39 24
1.1236506 -0.11580235 0.025415819 50 23
1.0705209 -0.25257257 0 9 22
1.1385297 -0.11770479 -0.025763981 40 21
1.0863572 -0.25654268 -0.050426558 80 20
1.131227 -0.11697171 -0.076311335 32 19
1.0855712 -0.2569496 -0.097016148 75 18
1.0476408 -0.25077924 0.16303752 88 28
1.1155881 -0.11814994 0.13268815 34 27
1.0650262 -0.25479469 0.10133561 12 26
1.1308693 -0.12012745 0.07669612 8 25
1.0709813 -0.25643611 0.049727805 51 24
1.1232394 -0.11972392 0.025415819 51 23
1.0744928 -0.25748271 0 9 22
1.1356473 -0.1212197 -0.025705952 38 21
1.0854552 -0.26033321 -0.050426558 80 20
1.1308118 -0.12091971 -0.076311335 44 19
1.0919732 -0.26230711 -0.097686768 69 18
1.0492023 -0.25483987 0.16342388 84 28
1.1225924 -0.1226411 0.13359696 10 27
1.0689645 -0.2596955 0.10181136 11 26
1.120546 -0.12281163 0.076002039 9 25
1.0652739 -0.25879732 0.049494889 66 24
1.1203512 -0.12318029 0.025357792 48 23
1.071205 -0.26044899 0 9 22
1.1352173 -0.12518311 -0.025705952 45 21
1.0821606 -0.263336 -0.050310094 79 20
1.1304046 -0.12466896 -0.076311335 47 19
1.0958866 -0.26730677 -0.098133847 61 18
1.0507033 -0.25909701 0.16381021 82 28
1.1172245 -0.12601344 0.13299108 9 27
1.0632213 -0.26222372 0.10133561 11 26
1.1275465 -0.12754722 0.076522596 9 25
1.069211 -0.26372001 0.049727805 40 24
1.1223763 -0.12756261 0.025415819 49 23
1.0799932 -0.26660243 0 9 22
1.1322895 -0.12886772 -0.025647927 51 21
1.0811881 -0.26730055 -0.050310094 82 20
1.1299626 -0.12861405 -0.076311335 31 19
1.047352 -0.26234123 0.16342388 81 28
1.1142898 -0.12982565 0.13268815 8 27
1.0598404 -0.26550919 0.10109774 11 26
1.114683 -0.13025877 0.075654998 11 25
1.0706582 -0.26824886 0.049844261 11 24
1.1169583 -0.13090862 0.025299765 49 23
1.0741613 -0.2693333 0 10 22
1.1367754 -0.13358967 -0.025763981 54 21
1.0802486 -0.27107298 -0.050310094 81 20
1.1270059 -0.13246891 -0.076138675 10 19
1.0416446 -0.26476872 0.1626512 75 28
1.1162941 -0.13400483 0.13299108 8 27
1.0517217 -0.26716942 0.1003841 11 26
1.1142215 -0.13414894 0.075654998 37 25
1.0624583 -0.2701239 0.049494889 10 24
1.1164947 -0.13480672 0.025299765 49 23
1.070793 -0.27245986 0 10 22
1.1363261 -0.13735864 -0.025763981 53 21
1.0792958 -0.27484211 -0.050310094 79 20
1.12406 -0.13610765 -0.07596603 8 19
1.1911062 -0.14408481 -0.13334073 90 17
1.0431514 -0.26884282 0.16303752 74 28
1.1133802 -0.13740732 0.13268815 9 27
1.0531914 -0.271465 0.10062198 11 26
1.1112946 -0.13754217 0.075481474 45 25
1.0615567 -0.27364567 0.049494889 10 24
1.1135602 -0.13820598 0.025241738 43 23
1.0698837 -0.27600926 0 15 22
1.1333588 -0.14102103 -0.025705952 54 21
1.0759617 -0.27779064 -0.050193641 80 20
1.1285537 -0.14043972 -0.076311335 7 19
1.0445951 -0.27311221 0.16342388 69 28
1.1128938 -0.1412929 0.13268815 9 27
1.0450181 -0.27323633 0.099908352 20 26
1.1108078 -0.14142045 0.075481474 47 25
1.0654247 -0.27862287 0.049727805 10 24
1.1130463 -0.14228645 0.025241738 35 23
1.0664965 -0.27910444 0 74 22
1.1328596 -0.14497632 -0.025705952 54 21
1.0773506 -0.28237024 -0.050310094 75 20
1.125582 -0.14406694 -0.076138675 7 19
1.0388149 -0.27566209 0.1626512 19 28
1.1074457 -0.14473855 0.13208227 9 27
1.058434 -0.28092429 0.10133561 32 26
1.1127557 -0.14580949 0.075654998 48 25
1.0571589 -0.28058943 0.049378429 10 24
1.1175003 -0.14681117 0.025357792 33 23
1.0702962 -0.28430471 0 77 22
1.1273634 -0.14848541 -0.0255899 55 21
1.0787708 -0.2867755 -0.050426558 74 20
1.1324666 -0.1491525 -0.076656632 7 19
1.042614 -0.28058007 0.16342388 9 28
1.1020132 -0.14795382 0.13147637 9 27
1.0502416 -0.28266221 0.10062198 42 26
1.1072949 -0.14903829 0.07530795 49 25
1.053763 -0.28362396 0.049261972 10 24
1.1120257 -0.15005346 0.025241738 37 23
1.0668845 -0.28738391 0 77 22
1.1268382 -0.15241973 -0.0255899 54 21
1.0753531 -0.28988463 -0.050310094 60 20
1.1319389 -0.15310465 -0.076656632 8 19
1.0392466 -0.28356269 0.16303752 8 28
1.1088674 -0.15279976 0.13238519 10 27
1.0468489 -0.2856665 0.1003841 61 26
1.1092391 -0.15323846 0.075481474 49 25
1.0527666 -0.28730056 0.049261972 11 24
1.1114953 -0.15393423 0.025241738 44 23
1.0634645 -0.29044282 0 82 22
1.123823 -0.15601389 -0.025531873 49 21
1.0815576 -0.29562607 -0.050659474 10 20
1.1264555 -0.15637971 -0.076311335 9 19
1.0382504 -0.28718862 0.16303752 8 28
1.1009533 -0.15564366 0.13147637 10 27
1.0434985 -0.28846842 0.10014623 70 26
1.1062274 -0.15676497 0.07530795 50 25
1.0637847 -0.29432729 0.049844261 11 24
1.1035253 -0.1567748 0.025067655 51 23
1.0600363 -0.29348135 0 77 22
1.1356755 -0.16147247 -0.025822006 27 21
1.0781137 -0.29872802 -0.050543014 10 20
1.1259029 -0.16031082 -0.076311335 9 19
1.0325384 -0.28928745 0.16226484 8 28
1.1028881 -0.1596438 0.13177931 21 27
1.0520653 -0.29481459 0.10109774 12 26
1.1057016 -0.1604325 0.07530795 45 25
1.0555931 -0.29581723 0.049494889 11 24
1.1079195 -0.16133538 0.025183709 53 23
1.0566515 -0.2963151 0 79 22
1.1301569 -0.16472536 -0.025705952 9 21
1.0818703 -0.30384949 -0.050775934 9 20
1.1204276 -0.16333471 -0.07596603 9 19
1.0362202 -0.2944299 0.16303752 9 28
1.0973846 -0.16296683 0.13117343 43 27
1.0390151 -0.29524294 0.099908352 10 26
1.1026384 -0.16412227 0.075134434 42 25
1.0521009 -0.29899663 0.049378429 11 24
1.1122952 -0.16592853 0.025299765 51 23
1.0603647 -0.30156329 0 75 22
1.1320182 -0.16923073 -0.025763981 8 21
1.0760019 -0.30624732 -0.050543014 9 20
1.1247562 -0.16816711 -0.076311335 9 19
1.0256977 -0.29529211 0.16149215 10 28
1.0943547 -0.16642876 0.13087049 49 27
1.0403682 -0.29956147 0.10014623 10 26
1.1045251 -0.16834055 0.07530795 36 25
1.0510508 -0.30266732 0.049378429 12 24
1.1042948 -0.16869412 0.025125684 53 23
1.0569048 -0.30456573 0 72 22
1.1141212 -0.17057104 -0.025357792 8 21
1.0749264 -0.31000137 -0.050543014 9 20
1.114298 -0.17060389 -0.075620733 36 19
1.0246606 -0.29887065 0.16149215 11 28
1.0937672 -0.17024775 0.13087049 51 27
1.0441447 -0.30441263 0.10062198 10 26
1.1063958 -0.17257401 0.075481474 34 25
1.0499878 -0.30633435 0.049378429 72 24
1.0987587 -0.1717865 0.02500963 55 23
1.0534369 -0.30754775 0 73 22
1.1160195 -0.17464577 -0.025415819 8 21
1.0738378 -0.3137517 -0.050543014 9 20
1.1136955 -0.17449248 -0.075620733 55 19
1.0236639 -0.30226693 0.16149215 15 28
1.0931966 -0.17387389 0.13087049 51 27
1.0359197 -0.30592632 0.099908352 10 26
1.0934987 -0.17430633 0.074613869 42 25
1.0465728 -0.30910239 0.049261972 81 24
1.1006519 -0.175818 0.025067655 51 23
1.0500151 -0.31032601 0 72 22
1.1104656 -0.17776096 -0.025299765 8 21
1.0656115 -0.31517187 -0.050193641 10 20
1.1131109 -0.17818466 -0.075620733 61 19
1.0155078 -0.30370036 0.16033313 18 28
1.0901328 -0.17729589 0.13056755 53 27
1.0396112 -0.31097656 0.1003841 11 26
1.0978084 -0.17891376 0.07496091 49 25
1.0478784 -0.31347421 0.049378429 82 24
1.1000001 -0.17985091 0.025067655 49 23
1.0513191 -0.31471109 0 77 22
1.1221752 -0.18362762 -0.0255899 8 21
1.0620584 -0.31835365 -0.050077178 10 20
1.1124821 -0.18206905 -0.075620733 61 19
1.1971847 -0.35960007 -0.10908729 4 18
1.0191126 -0.30886301 0.16110581 19 28
1.0943733 -0.18209402 0.13117343 50 27
1.0456049 -0.31696519 0.10109774 11 26
1.0922234 -0.1821267 0.074613869 54 25
1.0443342 -0.31658354 0.049261972 83 24
1.0968996 -0.18328305 0.02500963 40 23
1.0549403 -0.3200233 0 11 22
1.1264265 -0.18855405 -0.025705952 9 21
1.0609407 -0.32205898 -0.050077178 10 20
1.1093465 -0.1857388 -0.075448081 62 19
1.0251074 -0.31460714 0.16226484 44 28
1.0839415 -0.18427125 0.12996167 51 27
1.0349817 -0.31767279 0.10014623 12 26
1.0965 -0.18676487 0.07496091 57 25
1.0432227 -0.320227 0.049261972 82 24
1.103647 -0.1883561 0.025183709 15 23
1.0466517 -0.32148719 0 9 22
1.118368 -0.19123703 -0.025531873 9 21
1.05981 -0.32576039 -0.050077178 10 20
1.1111507 -0.19002509 -0.075620733 61 19
1.0192885 -0.31670797 0.16149215 84 28
1.0832915 -0.1880538 0.12996167 53 27
1.0434232 -0.32407498 0.10109774 12 26
1.0933836 -0.1901693 0.074787393 56 25
1.0420985 -0.32386658 0.049261972 84 24
1.0955933 -0.19093633 0.02500963 9 23
1.0407518 -0.32364434 0 9 22
1.1201907 -0.19536872 -0.0255899 9 21
1.0515175 -0.32721749 -0.049727805 10 20
1.1055651 -0.19305527 -0.075275436 65 19
1.0182327 -0.3200863 0.16149215 85 28
1.082662 -0.19164509 0.12996167 49 27
1.0375407 -0.32621279 0.10062198 14 26
1.0927469 -0.19379406 0.074787393 56 25
1.0386381 -0.32656667 0.049145512 82 24
1.0924923 -0.19413656 0.024951601 8 23
1.0444392 -0.32860404 0 9 22
1.1145788 -0.19841231 -0.025473846 9 21
1.0599487 -0.3337214 -0.050193641 71 20
1.1073753 -0.19715218 -0.075448081 61 19
1.0218134 -0.32514629 0.16226484 86 28
1.0795434 -0.19498749 0.12965873 50 27
1.0292858 -0.32755387 0.099908352 18 26
1.0896084 -0.19716862 0.074613869 57 25
1.0374918 -0.33019018 0.049145512 80 24
1.0917734 -0.19813943 0.024951601 8 23
1.0456665 -0.33301121 0 9 22
1.1089593 -0.2014191 -0.025357792 37 21
1.0539628 -0.33607721 -0.049960721 79 20
1.0993155 -0.19969532 -0.074930124 62 19
1.0159161 -0.32736436 0.16149215 90 28
1.0837042 -0.19983202 0.13026461 39 27
1.0304455 -0.33209243 0.10014623 69 26
1.0937855 -0.20205617 0.07496091 54 25
1.0362746 -0.33399057 0.049145512 83 24
1.0910752 -0.20194922 0.024951601 8 23
1.0515721 -0.33915791 0 10 22
1.110672 -0.2059326 -0.025415819 55 21
1.0527833 -0.33975419 -0.049960721 81 20
1.1034828 -0.20462193 -0.075275436 58 19
1.0194606 -0.33244982 0.16226484 83 28
1.0830002 -0.20361364 0.13026461 16 27
1.0222448 -0.33317947 0.099432595 90 26
1.0881697 -0.20496057 0.074613869 54 25
1.0327297 -0.33682662 0.049029056 82 24
1.0903636 -0.20575655 0.024951601 8 23
1.0432568 -0.34048524 0 10 22
1.1050693 -0.20869768 -0.025299765 61 21
1.0492185 -0.34264702 -0.049844261 81 20
1.1052134 -0.20893048 -0.075448081 56 19
1.0136644 -0.33427185 0.16149215 84 28
1.0798807 -0.20674273 0.12996167 14 27
1.0234374 -0.33753008 0.099670477 90 26
1.0850339 -0.20810363 0.074440353 54 25
1.0316072 -0.34024945 0.049029056 83 24
1.0921309 -0.20983738 0.02500963 8 23
1.042122 -0.34394294 0 10 22
1.1092447 -0.21348789 -0.025415819 61 21
1.0528162 -0.34770018 -0.050077178 79 20
1.1069646 -0.21306041 -0.075620733 28 19
1.0124913 -0.33780816 0.16149215 84 28
1.0888993 -0.21238969 0.13117343 23 27
1.0246121 -0.34189302 0.099908352 90 26
1.0843008 -0.21188983 0.074440353 40 25
1.0375149 -0.34623423 0.049378429 38 24
1.0889379 -0.21317358 0.024951601 9 23
1.0361756 -0.34598538 0 10 22
1.1035855 -0.21640737 -0.025299765 61 21
1.0492289 -0.35057697 -0.049960721 78 20
1.1135595 -0.21834694 -0.076138675 9 19
1.013585 -0.34231204 0.1618785 89 28
1.0808085 -0.21494342 0.13026461 34 27
1.0186397 -0.34404373 0.099432595 90 26
1.0884109 -0.21682629 0.074787393 15 25
1.0338746 -0.34923062 0.049261972 11 24
1.0906013 -0.21764706 0.02500963 9 23
1.0396341 -0.35139135 0 11 22
1.1052366 -0.22093534 -0.025357792 58 21
1.045573 -0.35361543 -0.049844261 83 20
1.0980716 -0.21952543 -0.075102776 8 19
1.0100482 -0.34504467 0.16149215 81 28
1.0824851 -0.21920197 0.13056755 40 27
1.0221393 -0.34921613 0.099908352 90 26
1.0803114 -0.21915303 0.074266829 9 25
1.0350108 -0.35364959 0.049378429 10 24
1.0898349 -0.22145265 0.02500963 9 23
1.0313092 -0.35257766 0 11 22
1.0995582 -0.22380567 -0.025241738 62 21
1.0443321 -0.35726303 -0.049844261 81 20
1.0997436 -0.22384921 -0.075275436 8 19
1.0111705 -0.34937981 0.1618785 75 28
1.071987 -0.22099681 0.12935579 48 27
1.0162742 -0.35096934 0.099432595 90 26
1.0819834 -0.22342163 0.074440353 9 25
1.0290527 -0.3556194 0.049145512 11 24
1.0792607 -0.22325213 0.024777522 11 23
1.0324334 -0.35699725 0 63 22
1.0988101 -0.22745071 -0.025241738 60 21
1.0430788 -0.36090624 -0.049844261 83 20
1.0916257 -0.22618471 -0.074757479 8 19
1.0006856 -0.34945419 0.16033313 61 28
1.0688181 -0.22404675 0.12905285 55 27
1.0197387 -0.3561655 0.099908352 90 26
1.0861205 -0.22802244 0.074787393 9 25
1.0349356 -0.36151472 0.049494889 10 24
1.0784749 -0.22701809 0.024777522 42 23
1.0336022 -0.36124849 0 90 22
1.0980095 -0.23128489 -0.025241738 59 21
1.0394572 -0.36371556 -0.049727805 81 20
1.0957528 -0.23082091 -0.075102776 8 19
1.0017253 -0.35394728 0.16071945 58 28
1.0631338 -0.22693758 0.12844697 59 27
1.0160817 -0.35906664 0.099670477 88 26
1.0755173 -0.22993784 0.074093312 9 25
1.0288979 -0.36363173 0.049261972 11 24
1.0776758 -0.23078127 0.024777522 57 23
1.0299159 -0.36419621 0 90 22
1.0995994 -0.23582655 -0.025299765 57 21
1.0428863 -0.36901715 -0.049960721 80 20
1.0900199 -0.23380011 -0.074757479 8 19
1.0097805 -0.36078525 0.16226484 70 28
1.0647615 -0.23116826 0.12874991 58 27
1.0124801 -0.36176902 0.099432595 88 26
1.0771462 -0.23421517 0.074266829 9 25
1.039372 -0.37144655 0.049844261 11 24
1.079307 -0.23506813 0.024835547 59 23
1.0309907 -0.36863548 0 90 22
1.0938833 -0.23860876 -0.025183709 54 21
1.0439416 -0.37350121 -0.050077178 23 20
1.0940731 -0.23865598 -0.075102776 9 19
1.008515 -0.36430782 0.16226484 82 28
1.063948 -0.23488355 0.12874991 57 27
1.0182921 -0.36767444 0.10014623 84 26
1.0690131 -0.23637472 0.073746271 9 25
1.0333751 -0.37336579 0.049611345 11 24
1.073597 -0.23776419 0.024719493 60 23
1.0273483 -0.37137744 0 90 22
1.0979687 -0.24330574 -0.025299765 27 21
1.037938 -0.3754347 -0.049844261 11 20
1.0956694 -0.24300826 -0.075275436 9 19
1.0026644 -0.36594689 0.16149215 90 28
1.0607407 -0.2378729 0.12844697 56 27
1.0123303 -0.36951044 0.099670477 86 26
1.0730926 -0.24100055 0.074093312 9 25
1.0415078 -0.38023487 0.050077178 11 24
1.0752423 -0.24186616 0.024777522 60 23
1.0308042 -0.37650707 0 89 22
1.0995519 -0.24768081 -0.025357792 10 21
1.0319997 -0.37715077 -0.049611345 19 20
1.0924233 -0.24609751 -0.075102776 9 19
1.0013809 -0.36944458 0.16149215 90 28
1.0720077 -0.24430408 0.12996167 22 27
1.0180334 -0.37564066 0.1003841 14 26
1.0698122 -0.24419528 0.073919788 10 25
1.0331509 -0.38126031 0.049727805 11 24
1.071911 -0.24525347 0.024719493 60 23
1.0247966 -0.37836173 0 89 22
1.0913681 -0.24986011 -0.025183709 9 21
1.039973 -0.38441265 -0.050077178 33 20
1.0818281 -0.24770418 -0.074412182 10 19
1.0046449 -0.37484881 0.16226484 86 28
1.0614301 -0.24601211 0.12874991 10 27
1.01432 -0.37849462 0.10014623 11 26
1.0762018 -0.24979015 0.074440353 10 25
1.022395 -0.38153309 0.049261972 11 24
1.0710484 -0.24899365 0.024719493 60 23
1.0210626 -0.38123605 0 90 22
1.0977515 -0.25554264 -0.025357792 9 21
1.0339497 -0.38628319 -0.049844261 43 20
1.0857736 -0.25278798 -0.074757479 38 19
1.0033302 -0.37835336 0.16226484 84 28
1.0605648 -0.2497157 0.12874991 9 27
1.0176462 -0.38379884 0.10062198 10 26
1.0680373 -0.25184441 0.073919788 10 25
1.0327311 -0.3895295 0.049844261 11 24
1.0701727 -0.25273079 0.024719493 59 23
1.0267373 -0.38745999 0 88 22
1.0919858 -0.25823319 -0.025241738 9 21
1.0302606 -0.38900319 -0.049727805 59 20
1.0824562 -0.25600782 -0.074584827 59 19
0.99969727 -0.38096905 0.1618785 83 28
1.057272 -0.25284451 0.12844697 9 27
1.0070056 -0.38378456 0.099670477 10 26
1.064725 -0.25499558 0.073746271 38 25
1.0220381 -0.38955551 0.049378429 79 24
1.069284 -0.25646484 0.024719493 59 23
1.0253787 -0.39104158 0 89 22
1.0886462 -0.26146501 -0.025183709 9 21
1.026565 -0.39170218 -0.049611345 78 20
1.0839823 -0.26036188 -0.074757479 65 19
0.99836135 -0.38445631 0.1618785 84 28
1.0563828 -0.25653353 0.12844697 9 27
1.0103009 -0.38909563 0.10014623 10 26
1.0638285 -0.25871062 0.073746271 58 25
1.0160149 -0.39131621 0.049145512 88 24
1.0659525 -0.25960979 0.024661468 59 23
1.0240073 -0.39461845 0 90 22
1.0901564 -0.26585037 -0.025241738 9 21
1.0275197 -0.39618626 -0.049727805 88 20
1.075794 -0.26238728 -0.074239522 66 19
0.99701321 -0.38793886 0.1618785 80 28
1.0603024 -0.26139656 0.12905285 9 27
1.0089365 -0.39261985 0.10014623 11 26
1.0629188 -0.2624225 0.073746271 65 25
1.0192935 -0.39668113 0.049378429 86 24
1.0626122 -0.26273459 0.024603439 56 23
1.0179681 -0.39636692 0 90 22
1.0892217 -0.26965407 -0.025241738 9 21
1.0261306 -0.39977053 -0.049727805 89 20
1.0772939 -0.26673499 -0.074412182 66 19
0.99794978 -0.39232519 0.16226484 78 28
1.0497488 -0.26270816 0.12784109 10 27
1.0168167 -0.3998006 0.10109774 11 26
1.0644169 -0.26673198 0.073919788 62 25
1.0179027 -0.4002367 0.049378429 86 24
1.0689652 -0.26825103 0.024777522 27 23
1.0189028 -0.40083778 0 19 22
1.0809979 -0.27164313 -0.025067655 9 21
1.0270506 -0.40426925 -0.049844261 88 20
1.073936 -0.26989129 -0.074239522 68 19
0.99657422 -0.39580628 0.16226484 72 28
1.0512319 -0.2669763 0.12814403 10 27
1.0062406 -0.39947832 0.10014623 11 26
1.0586426 -0.26922736 0.073572747 65 25
1.0188185 -0.40471402 0.049494889 90 24
1.0680224 -0.27198079 0.024777522 10 23
1.0151761 -0.40346399 0 27 22
1.0752448 -0.2740027 -0.024951601 9 21
1.027952 -0.40877926 -0.049960721 85 20
1.0729874 -0.27363837 -0.074239522 67 19
0.99525619 -0.39910886 0.16226484 19 28
1.0527455 -0.27107421 0.12844697 10 27
1.0163797 -0.40764359 0.10133561 11 26
1.0625767 -0.27397099 0.073919788 67 25
1.012839 -0.40622178 0.049261972 88 24
1.069536 -0.27614042 0.024835547 9 23
1.0207874 -0.40963534 0 39 22
1.0718606 -0.27713403 -0.024893576 9 21
1.0196439 -0.40938056 -0.049611345 90 20
1.0720739 -0.27719504 -0.074239522 68 19
1.0007191 -0.40537673 0.16342388 11 28
1.0493904 -0.27412558 0.12814403 10 27
1.0103412 -0.4093107 0.10085986 11 26
1.0567855 -0.27642697 0.073572747 65 25
1.0114149 -0.40975478 0.049261972 86 24
1.0588403 -0.27754536 0.024603439 9 23
1.0124063 -0.41036469 0 60 22
1.0781435 -0.28276002 -0.025067655 35 21
1.0227609 -0.41500214 -0.049844261 88 20
1.0710999 -0.28093556 -0.074239522 67 19
0.99237478 -0.40622047 0.16226484 10 28
1.0483786 -0.27796993 0.12814403 10 27
1.0065331 -0.41206354 0.10062198 11 26
1.0557653 -0.28029844 0.073572747 65 25
1.0099062 -0.413459 0.049261972 86 24
1.0530314 -0.27996621 0.024487386 9 23
1.0155185 -0.41597709 0 77 22
1.0746833 -0.28607216 -0.02500963 57 21
1.021306 -0.41856971 -0.049844261 90 20
1.0724746 -0.28549573 -0.074412182 66 19
1.046154 -0.28034231 0.20222527 61 29
0.99779266 -0.41252726 0.16342388 13 28
1.042606 -0.28034988 0.12753814 33 27
1.007459 -0.41635421 0.10085986 65 26
1.0523707 -0.28333908 0.073399231 63 25
1.0107626 -0.41794059 0.049378429 86 24
1.0617062 -0.286221 0.024719493 9 23
1.0140603 -0.41951939 0 90 22
1.0761431 -0.29027992 -0.025067655 61 21
1.0221443 -0.42309189 -0.049960721 86 20
1.0714715 -0.28923762 -0.074412182 66 19
1.0452185 -0.28380993 0.20222527 59 29
0.98958677 -0.41296589 0.16226484 14 28
1.0464623 -0.28509954 0.12814403 51 27
0.99682081 -0.41601557 0.099908352 90 26
1.0466102 -0.28552544 0.07305219 65 25
1.009371 -0.4212901 0.049378429 86 24
1.0583388 -0.289087 0.024661468 9 23
1.0172735 -0.4248158 0 90 22
1.0702989 -0.29272658 -0.024951601 58 21
1.0207356 -0.4264791 -0.049960721 86 20
1.0705063 -0.29278916 -0.074412182 66 19
1.0442215 -0.28745672 0.20222527 59 29
0.98359096 -0.4144899 0.16149215 18 28
1.0406736 -0.28744012 0.12753814 60 27
1.0022367 -0.42240626 0.10062198 90 26
1.0504177 -0.29049572 0.073399231 59 25
1.0078944 -0.42481092 0.049378429 81 24
1.0645021 -0.29495013 0.024835547 9 23
1.0134828 -0.42738813 0 88 22
1.0716805 -0.29712328 -0.02500963 53 21
1.0191656 -0.43021744 -0.049960721 85 20
1.067073 -0.29586309 -0.074239522 63 19
1.040795 -0.29062727 0.20175166 60 29
0.9866063 -0.42003664 0.16226484 19 28
1.0396131 -0.29125246 0.12753814 60 27
0.99839389 -0.42509717 0.1003841 91 26
1.0517488 -0.29501191 0.073572747 37 25
1.0132177 -0.43145117 0.049727805 46 24
1.0586507 -0.29732326 0.024719493 9 23
1.0119096 -0.43109986 0 90 22
1.0681767 -0.30037794 -0.024951601 40 21
1.0176576 -0.43377236 -0.049960721 86 20
1.0659814 -0.29977211 -0.074239522 63 19
1.0350473 -0.29293251 0.20080447 60 29
0.9783327 -0.42053756 0.16110581 21 28
1.040979 -0.29555196 0.12784109 61 27
0.99690396 -0.42857963 0.1003841 90 26
1.0459116 -0.29732832 0.073225707 12 25
1.007121 -0.43300334 0.049494889 51 24
1.0503902 -0.29898033 0.024545414 9 23
1.0081041 -0.43363702 0 86 22
1.0743372 -0.30614376 -0.025125684 34 21
1.0184293 -0.43831381 -0.050077178 85 20
1.0625287 -0.30281305 -0.074066877 63 19
1.0340184 -0.29654372 0.20080447 62 29
0.97459501 -0.42296189 0.16071945 22 28
1.0375545 -0.29850319 0.12753814 60 27
0.99547726 -0.43188313 0.1003841 90 26
1.0472654 -0.30166236 0.073399231 10 25
1.0056033 -0.43651617 0.049494889 67 24
1.0541463 -0.30401954 0.024661468 10 23
1.0065843 -0.43715331 0 84 22
1.0661074 -0.30764177 -0.024951601 25 21
1.016893 -0.4418661 -0.050077178 85 20
1.0614651 -0.30652013 -0.074066877 62 19
1.0353884 -0.30065012 0.20127808 61 29
0.97770798 -0.42818257 0.16149215 21 28
1.0341748 -0.30125362 0.1272352 60 27
0.99396366 -0.43535534 0.1003841 90 26
1.0438635 -0.30444065 0.073225707 9 25
1.0018648 -0.43884188 0.049378429 80 24
1.0507315 -0.30681831 0.024603439 30 23
1.0165677 -0.44552913 0 23 22
1.0626267 -0.31066525 -0.024893576 11 21
1.0154222 -0.44523585 -0.050077178 85 20
1.0628381 -0.3107329 -0.074239522 61 19
1.0343325 -0.30426246 0.20127808 62 29
0.97620732 -0.43159282 0.16149215 20 28
1.0354986 -0.30555862 0.12753814 59 27
0.99016386 -0.43781126 0.10014623 90 26
1.0499746 -0.3101863 0.073746271 9 25
1.0048908 -0.4443655 0.049611345 84 24
1.0495999 -0.3106674 0.024603439 53 23
1.0172906 -0.45009097 0 10 22
1.0615358 -0.31437263 -0.024893576 10 21
1.011502 -0.4479388 -0.049960721 82 20
1.0593542 -0.31373814 -0.074066877 62 19
1.0332104 -0.30805147 0.20127808 63 29
0.97912538 -0.43719131 0.16226484 71 28
1.0296135 -0.30794057 0.12693226 60 27
0.99309325 -0.44347617 0.10062198 90 26
1.0512214 -0.31474251 0.073919788 9 25
1.0009772 -0.44702271 0.049494889 85 24
1.0437177 -0.31290457 0.024487386 60 23
1.0065122 -0.44971889 0 9 22
1.0699581 -0.32111403 -0.025125684 9 21
1.0122101 -0.4524906 -0.050077178 85 20
1.0581971 -0.31761879 -0.074066877 61 19
1.0297773 -0.31095198 0.20080447 63 29
0.97984314 -0.44162601 0.1626512 82 28
1.0309089 -0.31224665 0.1272352 58 27
0.98708332 -0.44471318 0.10014623 90 26
1.0405632 -0.31553671 0.073225707 10 25
1.0039599 -0.45257577 0.049727805 89 24
1.0450125 -0.31726667 0.024545414 59 23
1.0117669 -0.45632657 0 10 22
1.0664942 -0.32393917 -0.025067655 28 21
1.0106245 -0.4560211 -0.050077178 83 20
1.0594697 -0.32203057 -0.074239522 62 19
1.0287404 -0.31436515 0.20080447 63 29
0.97837323 -0.44487286 0.1626512 83 28
1.0298679 -0.31566355 0.1272352 58 27
0.98552495 -0.44815603 0.10014623 90 26
1.0418969 -0.31971186 0.073399231 9 25
0.99791116 -0.45382574 0.049494889 90 24
1.039173 -0.31927299 0.02442936 51 23
1.0147951 -0.46175903 0 10 22
1.060576 -0.32620105 -0.024951601 49 21
1.0113776 -0.46040913 -0.050193641 81 20
1.0560107 -0.32481426 -0.074066877 61 19
1.0252901 -0.31723407 0.2003309 67 29
0.97905701 -0.44932014 0.16303752 82 28
1.0335032 -0.32071674 0.12784109 51 27
0.98621422 -0.45263612 0.1003841 82 26
1.0455414 -0.32481596 0.073746271 10 25
0.9985885 -0.45835266 0.049611345 89 24
1.0427721 -0.32455441 0.024545414 40 23
1.0109072 -0.46425071 0 10 22
1.059431 -0.32990116 -0.024951601 59 21
1.0142173 -0.46620786 -0.050426558 78 20
1.0524876 -0.32776216 -0.073894225 63 19
1.0264645 -0.32171851 0.20080447 65 29
0.97516483 -0.45186251 0.1626512 74 28
1.0346898 -0.32524133 0.12814403 23 27
0.98003691 -0.45414579 0.099908352 86 26
1.0372019 -0.32641596 0.073225707 10 25
0.9946382 -0.46095496 0.049494889 83 24
1.0487891 -0.33042958 0.024719493 33 23
1.0114648 -0.46900889 0 10 22
1.0558294 -0.33303541 -0.024893576 60 21
1.0057938 -0.46657917 -0.050077178 81 20
1.0512791 -0.33161753 -0.073894225 63 19
1.0206523 -0.32382572 0.19985728 68 29
1.0359147 -0.32959816 0.12844697 11 27
0.98295003 -0.45968163 0.1003841 86 26
1.0408123 -0.33153769 0.073572747 10 25
0.99302304 -0.46442407 0.049494889 82 24
1.0500121 -0.33484259 0.024777522 21 23
0.99624789 -0.46615237 0 10 22
1.0546604 -0.33671889 -0.024893576 60 21
1.0064186 -0.47115046 -0.050193641 78 20
1.0524929 -0.33603847 -0.074066877 63 19
1.0241935 -0.32887673 0.20080447 66 29
1.0229386 -0.32943565 0.12693226 10 27
0.97692293 -0.4608061 0.099908352 86 26
1.0301471 -0.33212915 0.072878659 11 25
0.98913956 -0.46681714 0.049378429 84 24
1.0416963 -0.33621866 0.024603439 11 23
1.0013903 -0.47284293 0 10 22
1.0535381 -0.34021443 -0.024893576 60 21
1.0489384 -0.3389487 -0.073894225 62 19
1.0184244 -0.33076555 0.19985728 65 29
1.0289246 -0.33511543 0.12784109 10 27
0.98204333 -0.46743587 0.10062198 83 26
1.0361587 -0.33784679 0.073399231 35 25
0.99434429 -0.47332835 0.049727805 81 24
1.0381389 -0.33908215 0.024545414 10 23
1.0020717 -0.47724047 0 10 22
1.0499667 -0.34311879 -0.024835547 63 21
1.050181 -0.34319472 -0.074066877 63 19
1.019539 -0.33525747 0.2003309 62 29
1.0182554 -0.33579722 0.12662932 10 27
0.98256427 -0.47211435 0.10085986 81 26
1.0301733 -0.34008926 0.07305219 40 25
0.990354 -0.47588348 0.049611345 82 24
1.0416986 -0.34426185 0.024661468 10 23
0.99581385 -0.47873467 0 10 22
1.0510767 -0.34774458 -0.024893576 60 21
1.0441771 -0.34548521 -0.07372158 63 19
1.0160314 -0.33804473 0.19985728 57 29
1.0147212 -0.33856952 0.12632638 10 27
1.0313472 -0.34446794 0.073225707 36 25
0.98868686 -0.47933757 0.049611345 81 24
1.0310022 -0.34474689 0.02442936 12 23
0.99863106 -0.48439884 0 38 22
1.0498563 -0.35141143 -0.024893576 59 21
1.0453315 -0.34991437 -0.073894225 62 19
1.0171736 -0.34236696 0.2003309 56 29
1.0205923 -0.34447423 0.1272352 10 27
1.037232 -0.35044491 0.073746271 26 25
0.98476648 -0.481684 0.049494889 80 24
1.0297924 -0.34834367 0.02442936 40 23
0.9902041 -0.48457167 0 83 22
1.0439467 -0.35329905 -0.024777522 60 21
1.0464678 -0.35435581 -0.074066877 59 19
1.0206841 -0.3473089 0.20127808 31 29
1.0217948 -0.34865278 0.12753814 10 27
1.0289786 -0.35148004 0.073225707 15 25
0.98316383 -0.48494697 0.049494889 83 24
1.0309983 -0.35256007 0.024487386 63 23
0.99307114 -0.49007431 0 85 22
1.0450736 -0.35774517 -0.024835547 58 21
1.0429255 -0.35702154 -0.073894225 60 19
1.0171425 -0.35007614 0.20080447 14 29
1.0158763 -0.35060889 0.12693226 10 27
1.0277455 -0.35506967 0.073225707 10 25
1.0273355 -0.35552445 0.02442936 69 23
0.98911858 -0.49241912 0 88 22
1.0414549 -0.36057848 -0.024777522 43 21
1.0416729 -0.36065987 -0.073894225 60 19
1.0204926 -0.35540581 0.20175166 9 29
1.0239632 -0.35758126 0.12814403 10 27
1.0240811 -0.35801649 0.07305219 10 25
1.0284491 -0.35992861 0.024487386 70 23
0.98953885 -0.49716792 0 82 22
1.0495687 -0.36767772 -0.02500963 20 21
1.0521219 -0.36857229 -0.074757479 63 19
1.0238802 -0.36058611 0.20269886 8 29
1.0203669 -0.3603324 0.12784109 10 27
1.0298848 -0.36406681 0.073572747 10 25
1.0295445 -0.36434492 0.024545414 68 23
0.9855696 -0.49948442 0 60 22
1.0482789 -0.37133914 -0.02500963 10 21
1.020301 -0.36333975 0.20222527 8 29
1.0237808 -0.36555028 0.12844697 26 27
1.0262573 -0.36682543 0.073399231 10 25
1.0282664 -0.36793649 0.024545414 67 23
1.0446868 -0.37397614 -0.024951601 9 21
1.0237137 -0.36837286 0.20317246 7 29
1.0202267 -0.36810631 0.12814403 46 27
1.0297304 -0.37191045 0.073746271 10 25
1.0223359 -0.36965519 0.02442936 66 23
1.0480789 -0.37931126 -0.025067655 9 21
1.0201129 -0.37111011 0.20269886 8 29
1.0142691 -0.36997515 0.12753814 55 27
1.0213921 -0.37295225 0.073225707 10 25
1.0256727 -0.3751061 0.024545414 63 23
1.0397015 -0.38040668 -0.024893576 9 21
1.0233572 -0.37653127 0.20364605 8 29
1.0129063 -0.37369013 0.12753814 54 27
1.0293841 -0.3801282 0.073919788 27 25
1.0220109 -0.37782273 0.024487386 63 23
1.0383003 -0.38421482 -0.024893576 9 21
1.026642 -0.38180202 0.20459324 9 29
1.0139228 -0.37808535 0.12784109 47 27
1.0210357 -0.38111842 0.073399231 47 25
1.0206858 -0.38138789 0.024487386 63 23
1.0392956 -0.38870716 -0.024951601 9 21
1.0184039 -0.382808 0.20317246 9 29
1.0125968 -0.38162228 0.12784109 42 27
1.02437 -0.38643029 0.073746271 57 25
1.0170081 -0.38407069 0.02442936 60 23
1.0402724 -0.39321119 -0.02500963 9 21
1.0217226 -0.38791522 0.20411965 9 29
1.0182894 -0.38761082 0.12874991 35 27
1.0160853 -0.38717675 0.073225707 62 25
1.0226724 -0.39027604 0.024603439 36 23
1.0342888 -0.39488608 -0.024893576 9 21
1.0088254 -0.38728487 0.20175166 15 29
1.012226 -0.38956827 0.12814403 27 27
1.0169886 -0.39178962 0.073399231 63 25
1.0213038 -0.39384347 0.024603439 11 23
1.0281672 -0.39688456 -0.024777522 9 21
1.0120487 -0.39256901 0.20269886 39 29
1.0062302 -0.3913109 0.12753814 19 27
1.017941 -0.39623663 0.073572747 63 25
1.0292461 -0.40101483 0.024835547 10 23
1.0314366 -0.40227711 -0.024893576 9 21
0.99923474 -0.39164692 0.2003309 54 29
1.0048583 -0.39482093 0.12753814 13 27
1.0165517 -0.39978749 0.073572747 63 25
1.0255123 -0.40369484 0.024777522 9 23
1.0300969 -0.40569529 -0.024893576 35 21
1.0002149 -0.39585638 0.20080447 56 29
1.0035434 -0.39815098 0.12753814 12 27
1.0129004 -0.40224105 0.073399231 65 25
1.024168 -0.40709335 0.024777522 9 23
1.0263503 -0.40836963 -0.024835547 55 21
1.0011085 -0.40025142 0.20127808 59 29
0.99984193 -0.40073362 0.1272352 12 27
1.0114902 -0.40577427 0.073399231 63 25
1.0226691 -0.41084436 0.024777522 9 23
1.0249184 -0.41194981 -0.024835547 60 21
1.0041909 -0.40574679 0.20222527 58 29
1.0098773 -0.40902752 0.12874991 39 27
1.0123094 -0.4104107 0.073572747 61 25
1.0258648 -0.41628096 0.024893576 9 23
1.0280371 -0.41757447 -0.024951601 62 21
0.99594384 -0.40648252 0.20080447 60 29
1.0015466 -0.40974686 0.12784109 54 27
1.0085607 -0.41300189 0.073399231 58 25
1.019776 -0.41797388 0.024777522 9 23
1.0219444 -0.41927338 -0.024835547 65 21
1.001334 -0.41274741 0.20222527 59 29
0.99781454 -0.41229799 0.12753814 58 27
1.0117264 -0.41841581 0.073746271 49 25
1.0229336 -0.42343262 0.024893576 9 23
1.0251709 -0.42456236 -0.024951601 62 21
0.99769098 -0.41512784 0.20175166 59 29
0.99873435 -0.41655466 0.12784109 58 27
1.0172441 -0.42463532 0.074266829 27 25
1.0168332 -0.42508301 0.024777522 10 23
1.0213748 -0.42717904 -0.024893576 62 21
0.99842799 -0.41972792 0.20222527 58 29
0.99720091 -0.42021239 0.12784109 58 27
1.0087806 -0.4254688 0.073746271 11 25
1.0153431 -0.42862982 0.024777522 10 23
1.0174979 -0.42995194 -0.024835547 60 21
0.99695677 -0.42321056 0.20222527 58 29
0.99801368 -0.42465714 0.12814403 55 27
1.0095861 -0.42995957 0.073919788 9 25
1.0161421 -0.43314639 0.024835547 15 23
1.0182918 -0.43447685 -0.024893576 60 21
0.99095654 -0.42476419 0.20127808 58 29
0.99652523 -0.42813829 0.12814403 56 27
1.0080792 -0.43348104 0.073919788 9 25
1.0054322 -0.43275881 0.024603439 43 23
1.0168455 -0.43785122 -0.024893576 59 21
0.99405295 -0.42998675 0.20222527 58 29
0.99737906 -0.43242249 0.12844697 55 27
1.0066361 -0.43682158 0.073919788 9 25
1.0085809 -0.43807173 0.024719493 59 23
1.0198994 -0.4433808 -0.02500963 56 21
0.99254602 -0.43345404 0.20222527 57 29
0.99358791 -0.43491146 0.12814403 56 27
1.0073917 -0.44132841 0.074093312 9 25
1.0046777 -0.44076648 0.024661468 61 23
1.0137639 -0.4449394 -0.024893576 38 21
0.98645419 -0.43511796 0.20127808 53 29
0.99198723 -0.4385502 0.12814403 56 27
1.0012015 -0.44300964 0.073746271 9 25
0.99855798 -0.44225678 0.024545414 62 23
1.0167006 -0.45066768 -0.02500963 13 21
0.98268449 -0.43756533 0.20080447 53 29
0.98818189 -0.44100401 0.12784109 56 27
1.0064873 -0.44953772 0.074266829 9 25
1.0015761 -0.44776967 0.024661468 59 23
1.0105541 -0.45218229 -0.024893576 9 21
0.98787504 -0.4439964 0.20222527 48 29
0.98663652 -0.44445074 0.12784109 55 27
1.0026362 -0.45202839 0.074093312 9 25
1.000007 -0.45126304 0.024661468 59 23
1.0227304 -0.46167096 -0.025241738 9 21
0.99758697 -0.45231283 0.20459324 40 29
0.98515719 -0.44772011 0.12784109 55 27
0.99885923 -0.45432326 0.073919788 9 25
1.0007819 -0.45560718 0.024719493 59 23
1.0211126 -0.46523812 -0.025241738 9 21
0.98584634 -0.45218569 0.12814403 54 27
1.0018049 -0.45987794 0.074266829 10 25
0.99683219 -0.45823339 0.024661468 59 23
1.0126632 -0.46568191 -0.025067655 9 21
0.98643655 -0.45683375 0.12844697 53 27
0.99784768 -0.46250299 0.074093312 30 25
0.99295688 -0.46066338 0.024603439 61 23
1.0222956 -0.47462821 -0.025357792 9 21
0.98933691 -0.46236545 0.12905285 53 27
0.99622709 -0.46598333 0.074093312 46 25
0.99360883 -0.46518138 0.024661468 60 23
1.013919 -0.47485042 -0.025183709 9 21
0.99016058 -0.46716613 0.073746271 56 25
0.99432307 -0.46953589 0.024719493 60 23
1.0122553 -0.47838676 -0.025183709 9 21
0.99528635 -0.47382051 0.074266829 56 25
0.99041951 -0.47193381 0.024661468 61 23
1.0150959 -0.48405904 -0.025299765 10 21
0.99129277 -0.47639003 0.074093312 55 25
0.9886831 -0.47556072 0.024661468 61 23
1.0066365 -0.48436323 -0.025125684 14 21
0.98935169 -0.47992247 0.024719493 60 23
1.009441 -0.49004728 -0.025241738 31 21
0.98533899 -0.48245141 0.024661468 65 23
0.99648952 -0.48809561 -0.024951601 46 21
0.9836489 -0.48588791 0.024661468 61 23
0.9991796 -0.49395001 -0.025067655 55 21
0.99073225 -0.49410325 -0.024893576 60 21
0.993559 -0.49962181 -0.02500963 62 21
0.99627191 -0.50533843 -0.025125684 56 21
