# .PCD v0.7 - Point Cloud Data file format
VERSION 0.7
FIELDS x y z intensity ring
SIZE 4 4 4 4 2
TYPE F F F F U
COUNT 1 1 1 1 1
WIDTH 1257
HEIGHT 1
VIEWPOINT 0 0 0 1 0 0 0
POINTS 1257
DATA ascii
-0.6374101 0.45085886 -0.56798398 51 6
-0.55075771 0.27774805 -0.49266955 60 5
-0.21917969 0.15423456 -0.22285026 83 4
-0.22521423 0.11441179 -0.23106785 58 3
-0.23777761 0.16899109 -0.3033849 7 2
-0.34455997 0.17131504 -0.4593859 9 1
-0.23216099 0.16601186 -0.35254279 4 0
-1.5721375 0.81148201 0.46276423 59 31
-1.5102819 1.0547774 0.4182305 61 30
-1.5681199 0.81112069 0.33388481 63 29
-1.5092542 1.0532959 0.2824181 63 28
-1.5688062 0.81318182 0.2114528 63 27
-1.5204424 1.0611389 0.17388812 62 26
-1.5739942 0.81655169 0.12094387 63 25
-1.5153766 1.0576019 0.084548913 61 24
-1.5703683 0.81536549 0.040270727 67 23
-1.5188544 1.0604298 0 62 22
-1.5767417 0.81936187 -0.040444806 66 21
-1.5190986 1.0609956 -0.084781833 61 20
-1.5623879 0.81193483 -0.11947385 65 19
-1.5203111 1.0630227 -0.1634074 62 18
-1.5759361 0.8189584 -0.19930032 63 17
-1.5117013 1.0577666 -0.25149584 61 16
-1.5719292 0.81620747 -0.30272198 60 15
-1.4137081 0.99191689 -0.48423582 2 13
-1.5688024 0.81426269 -0.39682707 66 14
-1.3756617 0.9672637 -0.56960237 7 12
-1.5714473 0.81120914 -0.70111954 60 11
-1.0847757 0.76740718 -0.68709844 47 9
-1.5720274 0.80947334 -0.81415743 57 10
nan nan nan 0 8
-0.73324096 0.375274 -0.533871 85 7
-0.63744843 0.45424059 -0.5694986 53 6
-0.55148965 0.28052592 -0.49428487 58 5
-0.22742191 0.16135809 -0.23321539 80 4
-0.22481349 0.11519723 -0.23106785 61 3
-0.23846062 0.17081478 -0.30529296 7 2
-0.34124011 0.1711814 -0.45540854 9 1
-0.21758509 0.1565183 -0.32808894 4 0
-1.5714394 0.81807721 0.46340877 59 31
-1.5105714 1.0628508 0.41935784 60 30
-1.569635 0.81885415 0.33483198 65 29
-1.5035496 1.0571346 0.28203174 62 28
-1.5681586 0.81979966 0.21175572 63 27
-1.5167289 1.0664397 0.17388812 62 26
-1.5711341 0.82204098 0.12094387 65 25
-1.5116756 1.062885 0.084548913 61 24
-1.5675128 0.82084215 0.040270727 67 23
-1.5212728 1.0700474 0 62 22
-1.5716567 0.82370365 -0.040386781 68 21
-1.5174264 1.0677311 -0.084898293 62 20
-1.5617548 0.81853837 -0.1196465 65 19
-1.5165912 1.0683233 -0.1634074 62 18
-1.5730677 0.82445443 -0.19930032 63 17
-1.5100219 1.064466 -0.25183988 61 16
-1.5756209 0.82510817 -0.30401018 58 15
-1.4180807 1.0024053 -0.48698717 3 13
-1.5702716 0.82198811 -0.39794332 65 14
-1.3742031 0.97342801 -0.57041961 7 12
-1.5686059 0.81668955 -0.70111954 60 11
-1.0820903 0.77118903 -0.68709844 43 9
-1.5732116 0.81703562 -0.81628317 55 10
nan nan nan 0 8
-0.7319265 0.37783122 -0.533871 84 7
-0.63747096 0.4576281 -0.57101321 50 6
-0.54540169 0.27986032 -0.48943892 56 5
-0.22247742 0.15895595 -0.22803281 85 4
-0.22747532 0.11751828 -0.23470671 62 3
-0.23396096 0.16877249 -0.29956874 7 2
-0.34471312 0.17438877 -0.46137458 9 1
-0.21354766 0.15468892 -0.32197547 4 0
-1.5685742 0.82355756 0.46340877 58 31
-1.5068521 1.0681171 0.41935784 61 30
-1.573289 0.82774794 0.33625278 61 29
-1.4998504 1.0623766 0.28203174 63 28
-1.5652876 0.82526857 0.21175572 63 27
-1.5170554 1.0746094 0.17436387 62 26
-1.5704627 0.82868117 0.1211174 65 25
-1.5099925 1.0696013 0.084665373 62 24
-1.5690612 0.82863706 0.040386781 66 23
-1.5195664 1.0767988 0 61 22
-1.5731944 0.83151442 -0.040502835 66 21
-1.5136901 1.0730215 -0.084898293 61 20
-1.5588882 0.82398492 -0.1196465 65 19
-1.5169107 1.0764977 -0.16385446 62 18
-1.5701803 0.82994044 -0.19930032 65 17
-1.5103314 1.0726029 -0.25252795 61 16
-1.5683721 0.82830876 -0.3031514 58 15
-1.4067489 1.0017622 -0.48423582 3 13
-1.5673928 0.8274644 -0.39794332 65 14
-1.3746394 0.98096907 -0.57205403 5 12
-1.5719062 0.82538342 -0.70393151 59 11
-1.0847657 0.77883452 -0.69061601 39 9
-1.568344 0.82147521 -0.8152203 57 10
nan nan nan 0 8
-0.72876358 0.37943387 -0.53246975 83 7
-0.64230114 0.46453348 -0.57707173 47 6
-0.54951775 0.28436917 -0.49428487 54 5
-0.22628988 0.16294187 -0.23321539 84 4
-0.2224738 0.11599006 -0.22924842 59 3
-0.2346677 0.17055057 -0.30147681 7 2
-0.34681275 0.1769453 -0.46535197 10 1
-0.20604506 0.15023322 -0.30974856 3 0
-1.5636981 0.82762772 0.46276423 59 31
-1.5033019 1.0731082 0.41935784 61 30
-1.5727057 0.83410782 0.33672637 61 29
-1.5003374 1.0702181 0.28280443 63 28
-1.566928 0.83277792 0.2123616 66 27
-1.5134835 1.0796343 0.17436387 62 26
-1.5699093 0.83505255 0.12129091 63 25
-1.5084684 1.0760553 0.084781833 62 24
-1.5661591 0.83410907 0.040386781 66 23
-1.5200537 1.0847412 0 63 22
-1.5704283 0.83672673 -0.040502835 66 21
-1.5119659 1.0797526 -0.085014746 61 20
-1.5605526 0.83148926 -0.11999179 65 19
-1.5153565 1.082972 -0.16407801 61 18
-1.5716606 0.83774692 -0.19986893 63 17
-1.5067663 1.0776055 -0.25252795 60 16
-1.5698221 0.83608782 -0.30401018 58 15
-1.4110481 1.0122808 -0.48698717 3 13
-1.5667931 0.8337993 -0.39850146 63 14
-1.3750399 0.98852491 -0.57368851 5 12
-1.5710653 0.83194703 -0.70486885 58 11
-1.078603 0.77983367 -0.68827099 36 9
-1.5674694 0.8279987 -0.81628317 57 10
nan nan nan 0 8
-0.73110723 0.3838881 -0.53527224 77 7
-0.63586438 0.46324363 -0.57252783 46 6
-0.54173893 0.28278625 -0.48782364 49 5
-0.22136229 0.16050525 -0.22803281 85 4
-0.22664934 0.11910348 -0.23470671 62 3
-0.23668903 0.1732612 -0.30529296 5 2
-0.34619296 0.17815483 -0.46535197 10 1
-0.2020478 0.1483393 -0.30363509 3 0
-1.5649188 0.83562285 0.46405327 58 31
-1.501334 1.0800356 0.41992149 61 30
-1.5674721 0.83871138 0.33625278 61 29
-1.4984086 1.077154 0.28319079 63 28
-1.5704315 0.84202421 0.21327044 62 27
-1.5155733 1.0895394 0.17507748 63 26
-1.5712367 0.84315336 0.12163796 63 25
-1.5024885 1.080117 0.084665373 62 24
-1.5654414 0.84075034 0.040444806 66 23
-1.5180957 1.0917672 0 62 22
-1.5695541 0.84365731 -0.04056086 66 21
-1.5061623 1.0835627 -0.084898293 60 20
-1.559693 0.83838117 -0.12016445 66 19
-1.5154146 1.091434 -0.16452509 61 18
-1.5687268 0.84322792 -0.19986893 63 17
-1.5048136 1.084571 -0.25287202 60 16
-1.5690653 0.84272474 -0.30443954 58 15
-1.4036134 1.0143794 -0.4856115 3 13
-1.5637264 0.83953625 -0.39850146 63 14
-1.3696692 0.99193019 -0.57287127 5 12
-1.5722436 0.83960354 -0.70674348 57 11
nan nan nan 0 9
-1.5705657 0.83664793 -0.81947184 58 10
nan nan nan 0 8
-0.72059804 0.38162416 -0.52826607 71 7
-0.63264382 0.46427846 -0.57101321 47 6
-0.54582644 0.28731778 -0.49266955 54 5
-0.21645455 0.15803629 -0.22285026 84 4
-0.22775675 0.12067842 -0.23652615 66 3
-0.23218077 0.17121324 -0.29956874 5 2
-0.34691942 0.18004878 -0.46734065 10 1
-0.19229558 0.14204547 -0.28733253 3 0
-1.5641208 0.84222251 0.46469781 59 31
-1.4975549 1.0852697 0.41992149 60 30
-1.5645348 0.84417772 0.33625278 62 29
-1.4966382 1.083829 0.28357711 63 28
-1.5631135 0.84514648 0.21266456 62 27
-1.5117607 1.0948232 0.17507748 62 26
-1.5704789 0.8498168 0.12181149 65 25
-1.5047715 1.0897565 0.085014746 62 24
-1.5646964 0.84739685 0.040502835 66 23
-1.518321 1.0999979 0 61 22
-1.5665996 0.84913099 -0.04056086 68 21
-1.5043911 1.0902816 -0.085014746 62 20
-1.556757 0.84382045 -0.12016445 65 19
-1.515623 1.0996464 -0.16497216 61 18
-1.5657738 0.84869868 -0.19986893 63 17
-1.5050226 1.0927316 -0.2535601 60 16
-1.5682813 0.84936655 -0.30486897 57 15
-1.4078292 1.0249413 -0.48836285 2 13
-1.5607864 0.84498954 -0.39850146 65 14
-1.3719189 1.0008905 -0.57532293 4 12
-1.567261 0.84399062 -0.70580614 59 11
nan nan nan 0 9
-1.5676357 0.84212524 -0.81947184 56 10
nan nan nan 0 8
-0.71926153 0.38413718 -0.52826607 69 7
-0.63101935 0.46648395 -0.57101321 47 6
-0.54313064 0.28833467 -0.49105424 43 5
-0.21734652 0.15987617 -0.22457777 85 4
-0.22733411 0.12147272 -0.23652615 63 3
-0.22772025 0.16909482 -0.29384449 5 2
-0.3489849 0.18264128 -0.47131801 11 1
-0.19410074 0.14447343 -0.29140818 4 0
-1.5654202 0.84997648 0.46598682 58 31
-1.4976883 1.0933675 0.42104879 60 30
-1.5680522 0.85314435 0.33767357 62 29
-1.4948394 1.0905046 0.28396347 62 28
-1.5645148 0.85296732 0.21327044 65 27
-1.5101309 1.101299 0.17531537 62 26
-1.567503 0.85529363 0.12181149 63 25
-1.5009584 1.0950024 0.085014746 60 24
-1.5661194 0.85524327 0.040618889 66 23
-1.5124545 1.103815 0 62 22
-1.5681651 0.8567118 -0.040676914 68 21
-1.5046064 1.0984761 -0.085247666 61 20
-1.5581824 0.85163563 -0.12050975 65 19
-1.5139769 1.1061376 -0.1651957 61 18
-1.5671641 0.85653549 -0.20043755 62 17
-1.5013908 1.0977166 -0.2535601 58 16
-1.5674701 0.85601306 -0.30529833 57 15
-1.4042429 1.0298494 -0.48836285 2 13
-1.5643983 0.85365361 -0.40017584 62 14
-1.3684168 1.0056733 -0.57532293 4 12
-1.5644536 0.8491832 -0.70580614 59 11
nan nan nan 0 9
-1.568669 0.84974182 -0.82159758 57 10
nan nan nan 0 8
-0.71974248 0.38762105 -0.52966726 71 7
-0.62787735 0.46738109 -0.5694986 48 6
-0.54723138 0.29281098 -0.49590015 45 5
-0.21969779 0.16277617 -0.22803281 83 4
-0.22389175 0.12063617 -0.23288728 62 3
-0.22844216 0.17082924 -0.29575258 5 2
-0.35241458 0.18588491 -0.47728404 10 1
-0.19247241 0.14423369 -0.28937036 4 0
-1.5583518 0.8528496 0.46469781 59 31
-1.4979758 1.1012181 0.42217609 59 30
-1.5673685 0.85951686 0.33814716 61 29
-1.4932038 1.0969205 0.2843498 63 28
-1.563854 0.85934275 0.21357337 62 27
-1.5062773 1.1065637 0.17531537 63 26
-1.564658 0.86048692 0.12181149 62 25
-1.5013405 1.1029354 0.085247666 60 24
-1.5610834 0.8592298 0.04056086 66 23
-1.5128114 1.1117901 0 61 22
-1.5651649 0.86218047 -0.040676914 66 21
-1.5009556 1.1034595 -0.085247666 60 20
-1.5531633 0.85559773 -0.12033709 63 19
-1.5101064 1.1114157 -0.1651957 61 18
-1.564315 0.86172771 -0.20043755 62 17
-1.501534 1.1058922 -0.25424817 57 16
-1.5646229 0.86120635 -0.30529833 56 15
-1.4104779 1.0416518 -0.49180201 3 13
-1.5614089 0.85910916 -0.40017584 63 14
-1.370766 1.0144295 -0.57777458 4 12
-1.5655491 0.85685861 -0.70768076 59 11
nan nan nan 0 9
-1.5698178 0.85710192 -0.82372332 56 10
nan nan nan 0 8
-0.72027606 0.39098722 -0.5310685 75 7
-0.62147987 0.46597487 -0.5649547 44 6
-0.53947192 0.29112679 -0.48943892 42 5
-0.22200328 0.16573223 -0.23148786 82 4
-0.22346927 0.12141696 -0.23288728 62 3
-0.22272256 0.16768691 -0.28812027 5 2
-0.34639031 0.18431203 -0.46932933 9 1
-0.19883826 0.15022436 -0.3015973 4 0
-1.5595983 0.86061215 0.46598682 58 31
-1.4921671 1.1049886 0.42161244 60 30
-1.5665084 0.86616755 0.33862075 60 29
-1.4953169 1.1065409 0.28550884 62 28
-1.5608448 0.8647964 0.21357337 62 27
-1.5044042 1.1132976 0.17555325 62 26
-1.5638276 0.86714983 0.121985 62 25
-1.4974816 1.1081694 0.085247666 61 24
-1.5601107 0.86615592 0.040618889 66 23
-1.5109288 1.1185538 0 61 22
-1.5665191 0.87005979 -0.040792968 65 21
-1.4989059 1.1104423 -0.085364126 60 20
-1.5523493 0.86222208 -0.12050975 63 19
-1.5042192 1.1151948 -0.16497216 61 18
-1.563319 0.86865884 -0.20072186 62 17
-1.4996514 1.1126045 -0.25459221 58 16
-1.5657656 0.86932015 -0.30615711 54 15
-1.4085768 1.0482521 -0.49248984 3 13
-1.5584005 0.86455423 -0.40017584 63 14
-1.3651466 1.0180318 -0.57695735 5 12
-1.5603675 0.86147368 -0.70674348 60 11
-1.3347312 1.0017039 -0.86766696 2 9
-1.5646822 0.86176109 -0.82266039 58 10
-1.0261507 0.77244252 -0.75522923 3 8
-0.71156085 0.38967162 -0.52546358 82 7
-0.62768275 0.47427046 -0.57252783 49 6
-0.54008144 0.29400641 -0.49105424 44 5
-0.2170939 0.16324377 -0.22630529 81 4
-0.22756304 0.12465236 -0.23834558 63 3
-0.22724399 0.17241991 -0.29575258 5 2
-0.34437174 0.18487498 -0.46734065 8 1
-0.19600268 0.1491705 -0.29752162 4 0
-1.5606581 0.86866623 0.46727586 58 31
-1.4939579 1.114827 0.4233034 59 30
-1.5654689 0.87309599 0.33909437 61 29
-1.4892728 1.110535 0.28512248 61 28
-1.5598327 0.87171906 0.21387632 62 27
-1.5023071 1.1202941 0.17579113 61 26
-1.5649955 0.87530458 0.12233204 61 25
-1.4974102 1.116641 0.085480578 60 24
-1.5592601 0.87281418 0.040676914 66 23
-1.5068189 1.1240841 0 61 22
-1.5633197 0.87579548 -0.040792968 67 21
-1.4970204 1.1171637 -0.085480578 60 20
-1.5535338 0.87033784 -0.12085505 65 19
-1.5001217 1.1207006 -0.16497216 59 18
-1.5646144 0.87653244 -0.20129047 62 17
-1.4995265 1.1210637 -0.25528032 57 16
-1.5627217 0.87478042 -0.30615711 54 15
-1.402988 1.0517184 -0.49180201 2 13
-1.5594777 0.87263429 -0.40129209 62 14
-1.3653589 1.0256341 -0.57859182 4 12
-1.5634309 0.87028807 -0.70955545 58 11
-1.33281 1.0079235 -0.8688395 3 9
-1.5636443 0.86831331 -0.82372332 57 10
-1.0370673 0.78638732 -0.76557493 3 8
-0.71927559 0.3971259 -0.53246975 81 7
-0.62286586 0.47403917 -0.5694986 48 6
-0.53905195 0.29588985 -0.49105424 40 5
-0.21652274 0.16400057 -0.22630529 83 4
-0.22259472 0.12301295 -0.23288728 62 3
-0.22024351 0.16828255 -0.28621218 5 2
-0.33569476 0.18181553 -0.45540854 8 1
-0.1988969 0.15253814 -0.30363509 4 0
-1.5555081 0.87292939 0.46663132 59 31
-1.4920025 1.121501 0.42386705 59 30
-1.558129 0.8761549 0.33814716 62 29
-1.4893334 1.1186985 0.2858952 61 28
-1.5589439 0.87837368 0.21417925 61 27
-1.4983873 1.1255312 0.17579113 61 26
-1.5619307 0.8807621 0.12233204 61 25
-1.4954982 1.1233634 0.085597046 60 24
-1.556204 0.87825167 0.040676914 66 23
-1.5028859 1.1293371 0 61 22
-1.562431 0.88247335 -0.040850997 67 21
-1.495106 1.1238854 -0.085597046 60 20
-1.5526594 0.87697893 -0.12102769 65 19
-1.502164 1.1304289 -0.16564278 59 18
-1.5593808 0.88077009 -0.20100616 65 17
-1.4995567 1.1292752 -0.25596842 55 16
-1.5618051 0.88143754 -0.30658653 53 15
-1.4031408 1.0595111 -0.49317768 3 13
-1.5564222 0.87807256 -0.40129209 65 14
-1.3617706 1.0303937 -0.57859182 5 12
-1.5603834 0.87574011 -0.70955545 58 11
-1.3240201 1.0085483 -0.86532193 3 9
-1.5645559 0.87597126 -0.825849 57 10
-1.0224309 0.78088939 -0.75652248 3 8
-0.71607268 0.39863336 -0.5310685 77 7
-0.61490917 0.47134972 -0.56344008 44 6
-0.53801584 0.2977697 -0.49105424 43 5
-0.22022626 0.16808638 -0.23148786 77 4
-0.22517949 0.12542173 -0.23652615 62 3
-0.22600436 0.17404158 -0.29575258 5 2
-0.32570764 0.17798308 -0.44148776 8 1
-0.20063439 0.15502901 -0.30771074 4 0
-1.5566595 0.88072687 0.46792036 60 31
-1.4900186 1.1281748 0.4244307 59 30
-1.5614724 0.88521129 0.33956796 61 29
-1.4893552 1.1268758 0.28666788 61 28
-1.5580279 0.88503295 0.2144822 61 27
-1.4946468 1.1304939 0.17579113 62 26
-1.5610163 0.88743848 0.12250557 62 25
-1.4935575 1.1300861 0.085713498 60 24
-1.5553029 0.88491154 0.040734943 65 23
-1.5009264 1.1360874 0 60 22
-1.5616697 0.88888311 -0.040909022 67 21
-1.4971411 1.1336269 -0.085946418 60 20
-1.5517578 0.88362455 -0.12120035 63 19
-1.4964243 1.1338979 -0.16541924 61 18
-1.560617 0.88866025 -0.20157477 62 17
-1.497775 1.13574 -0.25631246 53 16
-1.5565764 0.88566887 -0.30615711 54 15
-1.4032562 1.0673176 -0.49455336 3 13
-1.555622 0.88443047 -0.40185019 62 14
-1.3600428 1.0365756 -0.579409 4 12
-1.55949 0.88204783 -0.71049279 59 11
-1.3259186 1.0169722 -0.8688395 3 9
-1.5614887 0.88142723 -0.825849 58 10
-1.0029002 0.7712006 -0.74359047 3 8
-0.7146768 0.40113044 -0.5310685 75 7
-0.61334276 0.47338626 -0.56344008 48 6
-0.53869617 0.30047375 -0.49266955 47 5
-0.21540143 0.16547059 -0.22630529 81 4
-0.2232573 0.12534651 -0.23470671 67 3
-0.22035958 0.17078027 -0.28812027 5 2
-0.32378224 0.17834303 -0.43949908 8 1
-0.19445623 0.15118089 -0.29752162 4 0
-1.5516304 0.88469064 0.46727586 60 31
-1.4882045 1.1345886 0.42499435 59 30
-1.5585284 0.89038444 0.33956796 61 29
-1.4895362 1.1348068 0.28744057 59 28
-1.5572397 0.89142454 0.21478513 61 27
-1.494647 1.1387254 0.17626688 61 26
-1.5558993 0.89137334 0.12233204 62 25
-1.4917865 1.1365483 0.085829958 59 24
-1.5500346 0.88909453 0.040676914 62 23
-1.5011238 1.144094 0 61 22
-1.5585575 0.89432895 -0.040909022 65 21
-1.4911911 1.1373292 -0.085829958 59 20
-1.5509839 0.8900038 -0.12137299 62 19
-1.4944348 1.1406275 -0.16564278 61 18
-1.5596613 0.89533603 -0.20185909 61 17
-1.4977334 1.143972 -0.25700054 51 16
-1.5577514 0.89354187 -0.3070159 53 15
-1.3957099 1.0692809 -0.49317768 2 13
-1.5525253 0.88985521 -0.40185019 62 14
-1.3601605 1.0441992 -0.58104342 4 12
-1.560276 0.89004868 -0.71236742 58 11
-1.3223606 1.0215942 -0.8688395 3 9
-1.5584024 0.88687247 -0.825849 57 10
-0.99500084 0.77093017 -0.73971087 4 8
-0.70785618 0.40058213 -0.52686483 70 7
-0.61316961 0.47685722 -0.5649547 47 6
-0.53425652 0.30059078 -0.48943892 45 5
-0.2147935 0.16625896 -0.22630529 80 4
-0.21979231 0.12451039 -0.23106785 62 3
-0.2222883 0.17356217 -0.29193643 5 2
-0.33909538 0.18821706 -0.46336326 8 1
-0.20519355 0.16095921 -0.31789982 5 0
-1.5525688 0.89277405 0.4685649 59 31
-1.4859657 1.1415217 0.425558 59 30
-1.5531259 0.89486825 0.33909437 61 29
-1.4853669 1.1402586 0.28744057 61 28
-1.5561128 0.89836389 0.21508808 63 27
-1.4924357 1.1457137 0.17650475 61 26
-1.5612663 0.90204883 0.12302613 62 25
-1.493548 1.1465775 0.086179331 60 24
-1.5512524 0.89699608 0.040792968 62 23
-1.4929584 1.1465381 0 61 22
-1.5574341 0.90128422 -0.040967051 65 21
-1.4891906 1.1440512 -0.085946418 60 20
-1.5477115 0.89568245 -0.12137299 62 19
-1.4941881 1.1491379 -0.16608986 61 18
-1.5565265 0.90077478 -0.20185909 62 17
-1.4935305 1.1494539 -0.25700054 49 16
-1.5567567 0.900204 -0.30744532 53 15
-1.3919687 1.0741463 -0.49317768 3 13
-1.5534763 0.8979727 -0.40296647 63 14
-1.3546402 1.047493 -0.58022624 5 12
-1.5551488 0.89433712 -0.71143007 59 11
-1.3186073 1.0264342 -0.8688395 3 9
-1.5592259 0.8945533 -0.82797474 57 10
nan nan nan 0 8
-0.70825541 0.40407038 -0.52826607 51 7
-0.60993958 0.47776309 -0.56344008 50 6
-0.53153986 0.30152038 -0.48782364 43 5
-0.21421184 0.16700771 -0.22630529 81 4
-0.22235464 0.12694088 -0.23470671 66 3
-0.22165066 0.17437573 -0.29193643 5 2
-0.33976457 0.19012825 -0.46535197 8 1
-0.20350437 0.16076389 -0.315862 5 0
-1.5536257 0.90060496 0.46985394 60 31
-1.4838965 1.1481944 0.42612165 59 30
-1.556366 0.90397418 0.34051517 61 29
-1.4813777 1.1454365 0.28744057 61 28
-1.5551139 0.9050355 0.21539101 63 27
-1.4923612 1.1539655 0.17698051 61 26
-1.5537946 0.90498865 0.12267908 62 25
-1.4895366 1.1517838 0.086179331 59 24
-1.5524338 0.90491688 0.040909022 65 23
-1.4928985 1.1548064 0 60 22
-1.56076 0.91048449 -0.04114113 62 21
-1.4871613 1.1507732 -0.086062878 60 20
-1.5467315 0.90233332 -0.12154565 62 19
-1.4901676 1.1543465 -0.16608986 59 18
-1.5576669 0.90869981 -0.20242772 61 17
-1.4973302 1.1607379 -0.25837672 48 16
-1.5557344 0.90687001 -0.30787471 50 15
-1.3976898 1.0863858 -0.49661684 3 13
-1.5524396 0.90461385 -0.40352461 62 14
-1.3565617 1.0565779 -0.5826779 4 12
-1.5560311 0.90207922 -0.71330476 58 11
-1.321959 1.03649 -0.87352961 3 9
-1.5560938 0.89999056 -0.82797474 57 10
nan nan nan 0 8
-0.70324415 0.40448797 -0.52546358 44 7
-0.61761272 0.48731163 -0.57252783 47 6
-0.53214496 0.30431327 -0.48943892 42 5
-0.21362755 0.16775444 -0.22630529 78 4
-0.22191016 0.12771627 -0.23470671 66 3
-0.22355233 0.17718014 -0.29575258 5 2
-0.33777314 0.19057979 -0.46336326 9 1
-0.20518777 0.16330232 -0.31993765 5 0
-1.5504726 0.90602267 0.46985394 60 31
-1.4837183 1.1563663 0.42724895 59 30
-1.557441 0.91187602 0.34146234 60 29
-1.481264 1.1536405 0.28821328 60 28
-1.5498033 0.90920562 0.21508808 60 27
-1.4885263 1.158908 0.17698051 61 26
-1.5570834 0.9141863 0.12319965 61 25
-1.4914124 1.1615866 0.086528711 61 24
-1.5492657 0.91033041 0.040909022 62 23
-1.4888583 1.1600106 0 60 22
-1.5577321 0.9156552 -0.04114113 62 21
-1.4870712 1.1590323 -0.086295791 60 20
-1.5457239 0.90898824 -0.12171829 62 19
-1.4902548 1.1623491 -0.16653694 60 18
-1.5523427 0.91287541 -0.2021434 61 17
-1.4895723 1.1626451 -0.25768861 45 16
-1.5546844 0.91353977 -0.3083041 51 15
-1.3901079 1.08829 -0.49524119 3 13
-1.5494313 0.90975708 -0.40352461 63 14
-1.3510082 1.059846 -0.58186066 4 12
-1.555034 0.90840042 -0.7142421 58 11
-1.3167835 1.0394975 -0.87235713 3 9
-1.5548992 0.90655369 -0.82903761 58 10
-0.90995413 0.71990824 -0.68022364 5 8
-0.70541716 0.40900508 -0.52826607 39 7
-0.61133337 0.48563036 -0.56798398 42 6
-0.5327906 0.30702105 -0.49105424 42 5
-0.21728921 0.17186633 -0.23148786 80 4
-0.2244723 0.13013583 -0.23834558 69 3
-0.22421606 0.17894053 -0.29766065 5 2
-0.3424322 0.19464967 -0.47131801 9 1
-0.20016561 0.16030888 -0.31178638 4 0
-1.5495427 0.91238189 0.47049844 59 31
-1.4817896 1.162786 0.42781261 59 30
-1.5544086 0.91703576 0.34146234 62 29
-1.4813141 1.161599 0.28898597 60 28
-1.5510556 0.91685975 0.21569397 61 27
-1.4864284 1.1656349 0.17721839 61 26
-1.5540432 0.91934478 0.12319965 60 25
-1.4855888 1.1649826 0.086412251 60 24
-1.5505431 0.91800368 0.041025076 61 23
-1.4928641 1.1711227 0 59 22
-1.5545264 0.92108709 -0.04114113 63 21
-1.485182 1.1655011 -0.086412251 59 20
-1.5469959 0.91664582 -0.12206359 62 19
-1.4861883 1.1675439 -0.16653694 60 18
-1.5557227 0.92180789 -0.20299633 61 17
-1.4893947 1.170903 -0.25837672 45 16
-1.5580094 0.92244583 -0.30959228 50 15
-1.3864914 1.0928937 -0.49524119 3 13
-1.5441473 0.91392171 -0.40296647 63 14
-1.3456341 1.0628535 -0.58104342 4 12
-1.5538523 0.91499609 -0.71517938 57 11
-1.3131469 1.0440876 -0.87235713 3 9
-1.5518843 0.91170502 -0.82903761 58 10
-0.89073098 0.70971155 -0.66729164 5 8
-0.70405698 0.41134205 -0.52826607 35 7
-0.61118346 0.48900899 -0.5694986 47 6
-0.52509791 0.30507666 -0.484593 45 5
-0.21809039 0.17376348 -0.23321539 79 4
-0.21954522 0.12837639 -0.23288728 66 3
-0.23108359 0.18586862 -0.30910915 5 2
-0.34043002 0.19510147 -0.46932933 9 1
-0.19290483 0.15547374 -0.29955944 4 0
-1.5484275 0.91901523 0.47114298 61 31
-1.4815398 1.1709765 0.42893991 59 30
-1.5533097 0.9237079 0.34193593 60 29
-1.4772503 1.1667628 0.28898597 61 28
-1.5478457 0.92226821 0.21569397 61 27
-1.4882041 1.1754508 0.17793202 61 26
-1.5508246 0.92476374 0.12319965 61 25
-1.4873872 1.1748117 0.086761624 60 24
-1.5514635 0.92623711 0.04114113 63 23
-1.4887669 1.1763266 0 61 22
-1.5534494 0.92778659 -0.041199159 62 21
-1.4848146 1.1740391 -0.086645171 59 20
-1.5459297 0.9233163 -0.12223624 62 19
-1.4860055 1.1758192 -0.16698402 60 18
-1.5523336 0.92750371 -0.20299633 61 17
-1.4891773 1.1791736 -0.25906479 44 16
-1.5525016 0.92689037 -0.30916288 51 15
-1.378716 1.0949738 -0.49386552 3 13
-1.5493257 0.92428857 -0.40519896 62 14
-1.3417295 1.0677783 -0.58104342 5 12
-1.5504882 0.92068505 -0.71517938 58 11
-1.3146589 1.0528129 -0.87587464 3 9
-1.550481 0.91853726 -0.83010048 58 10
-0.88146156 0.70759964 -0.66211879 5 8
-0.70790678 0.41705441 -0.53246975 30 7
-0.60784268 0.4899925 -0.56798398 49 6
-0.52232534 0.30604255 -0.48297769 43 5
-0.21605381 0.17341679 -0.23148786 78 4
-0.22353533 0.13173878 -0.23834558 66 3
-0.22918804 0.18564534 -0.30720106 7 2
-0.34103057 0.19709505 -0.47131801 10 1
-0.18231419 0.14784364 -0.28121909 4 0
-1.547123 0.92592192 0.47178748 60 31
-1.4772381 1.1763988 0.42893991 59 30
-1.5499138 0.92939478 0.34193593 62 29
-1.4768258 1.1752498 0.28975865 60 28
-1.5508417 0.93176061 0.21660277 60 27
-1.4877769 1.1840013 0.17840777 60 26
-1.551703 0.93300611 0.12354669 62 25
-1.4869758 1.1833701 0.086994544 60 24
-1.5503643 0.93293285 0.041199159 63 23
-1.4844455 1.1817753 0 61 22
-1.5521811 0.93476045 -0.041257184 61 21
-1.4846108 1.1823311 -0.086878091 58 20
-1.5403968 0.92769247 -0.12206359 62 19
-1.4816859 1.1812578 -0.16698402 60 18
-1.5512159 0.93419522 -0.20328063 61 17
-1.4867795 1.1861703 -0.25940883 44 16
-1.5534806 0.93483794 -0.31002167 54 15
-1.3805103 1.104291 -0.49592903 3 13
-1.5480176 0.93121427 -0.4057571 62 14
-1.3398358 1.0739354 -0.58186066 5 12
-1.5512457 0.9284665 -0.71705401 58 11
-1.3107913 1.0576242 -0.87587464 3 9
-1.5472652 0.92394388 -0.83010048 58 10
nan nan nan 0 8
-0.71001416 0.4216252 -0.53527224 27 7
-0.61074865 0.49588734 -0.57252783 48 6
-0.52784419 0.31171352 -0.48943892 42 5
-0.21126454 0.17072079 -0.22630529 81 4
-0.22307411 0.13251826 -0.23834558 69 3
-0.2309892 0.18855077 -0.31101725 5 2
-0.3390252 0.19753252 -0.46932933 9 1
-0.17402674 0.14196835 -0.26695433 4 0
-1.5480216 0.93380624 0.47307652 60 31
-1.4826136 1.1891788 0.4317582 60 30
-1.5487626 0.93606621 0.34240955 62 29
-1.4765652 1.1834918 0.29053134 60 28
-1.5497043 0.93845093 0.21690573 62 27
-1.4838423 1.1889285 0.17840777 61 26
-1.5484368 0.93841684 0.12354669 60 25
-1.4847827 1.1901176 0.087111004 60 24
-1.5428207 0.93575245 0.041083105 61 23
-1.4842086 1.1900822 0 60 22
-1.5512115 0.94119614 -0.041315213 62 21
-1.4804746 1.1875061 -0.086878091 58 20
-1.5414168 0.93564618 -0.1224089 61 19
-1.4835806 1.1908476 -0.16765465 61 18
-1.5479456 0.93960422 -0.20328063 61 17
-1.4847664 1.1926471 -0.25975287 43 16
-1.5481005 0.93898052 -0.30959228 55 15
-1.3803867 1.1121237 -0.49730471 3 13
-1.5428352 0.93508226 -0.40519896 62 14
-1.341588 1.0830654 -0.58431232 4 12
-1.5501449 0.93479967 -0.71799135 57 11
-1.3021415 1.0577813 -0.87235713 3 9
-1.545971 0.93050325 -0.83116335 58 10
-0.83687186 0.68108046 -0.63108206 7 8
-0.71387827 0.42727301 -0.53947592 32 7
-0.60449338 0.49411854 -0.56798398 50 6
-0.52351886 0.31152648 -0.48620832 49 5
-0.21347801 0.17372909 -0.22976033 79 4
-0.21967036 0.13153134 -0.23470671 63 3
-0.22541016 0.18516594 -0.3033849 7 2
-0.3370555 0.19789957 -0.46734065 8 1
-0.16359249 0.13414058 -0.24861398 4 0
-1.5428506 0.93768299 0.47243202 61 31
-1.478662 1.1940888 0.4317582 59 30
-1.5498466 0.94374448 0.34335673 61 29
-1.4745528 1.1899351 0.29091766 60 28
-1.5487041 0.94487447 0.21720867 60 27
-1.4816179 1.195666 0.17864564 60 26
-1.5474466 0.94484323 0.12372021 60 25
-1.4847111 1.1981758 0.087343924 60 24
-1.5439781 0.94346416 0.041199159 63 23
-1.4802539 1.1949974 0 61 22
-1.5543184 0.9505083 -0.041489292 62 21
-1.4823517 1.1971227 -0.087227464 59 20
-1.5425644 0.94334924 -0.12275419 61 19
-1.4794147 1.1960189 -0.16765465 61 18
-1.546942 0.94602525 -0.20356494 61 17
-1.4844408 1.2009419 -0.26044098 42 16
-1.5470815 0.94539046 -0.31002167 51 15
-1.3804206 1.1197281 -0.49868038 3 13
-1.5437245 0.94299698 -0.40631521 62 14
-1.3361577 1.0860158 -0.58349514 4 12
-1.5468723 0.94020498 -0.71799135 60 11
-1.3086828 1.0707237 -0.87939221 3 9
-1.5428768 0.93562472 -0.83116335 59 10
-0.80971485 0.66359687 -0.61168402 7 8
-0.71778697 0.43282771 -0.54367965 35 7
-0.6027649 0.49622563 -0.56798398 47 6
-0.51750517 0.31043124 -0.48136237 49 5
-0.21287028 0.1744732 -0.22976033 79 4
-0.22364546 0.13490173 -0.24016501 65 3
-0.23463841 0.19428568 -0.31864956 7 2
-0.33505252 0.19831422 -0.46535197 8 1
-0.15650117 0.12908493 -0.23638706 4 0
-1.543691 0.94558042 0.47372106 60 31
-1.4763726 1.2007822 0.43232182 60 30
-1.5486369 0.9504298 0.34383032 61 29
-1.47422 1.1981952 0.29169035 60 28
-1.5453964 0.95027471 0.21720867 62 27
-1.481294 1.2039741 0.1791214 61 26
-1.5505164 0.95415169 0.12424077 60 25
-1.4843918 1.2065059 0.087576836 59 24
-1.5426393 0.95042491 0.041257184 63 23
-1.4818873 1.2048954 0 60 22
-1.5446029 0.95200264 -0.041315213 62 21
-1.477954 1.2025478 -0.087227464 58 20
-1.5392622 0.94872802 -0.12275419 61 19
-1.4790889 1.2043246 -0.16810173 60 18
-1.5434643 0.95168871 -0.20356494 61 17
-1.4840754 1.209249 -0.26112905 42 16
-1.5457046 0.95234346 -0.31045106 51 15
-1.383744 1.1308733 -0.5014317 3 13
-1.5425005 0.9496547 -0.40687335 66 14
-1.3394719 1.096903 -0.58676398 5 12
-1.5473714 0.94828451 -0.71986604 57 11
-1.2998313 1.0710659 -0.87587464 3 9
-1.5394373 0.94127345 -0.83116335 59 10
-0.80069065 0.66109574 -0.60651124 8 8
-0.71796834 0.43652532 -0.54508084 40 7
-0.60399556 0.50098103 -0.57101321 47 6
-0.51800138 0.31330553 -0.48297769 42 5
-0.21499358 0.17758076 -0.23321539 81 4
-0.22610016 0.13746762 -0.24380386 66 3
-0.23149711 0.19301143 -0.3148334 7 2
-0.33563071 0.2003064 -0.46734065 9 1
-0.15382652 0.1277743 -0.23231141 4 0
-1.5443289 0.95376486 0.47501007 59 31
-1.4757258 1.2092773 0.43344915 59 30
-1.5451429 0.95609957 0.34383032 61 29
-1.4717276 1.2051576 0.29207671 60 28
-1.544014 0.95723724 0.21751161 62 27
-1.4807185 1.2125533 0.17959715 61 26
-1.5427669 0.95720434 0.12389373 61 25
-1.4780294 1.210354 0.087460376 59 24
-1.5414374 0.95711952 0.041315213 63 23
-1.4813254 1.2134917 0 61 22
-1.5453523 0.96029001 -0.041431267 62 21
-1.4756771 1.2092847 -0.087343924 58 20
-1.5400147 0.95699024 -0.12309949 61 19
-1.4785113 1.2129008 -0.16854881 60 18
-1.5464669 0.96099484 -0.20441787 62 17
-1.4777212 1.2131069 -0.26078501 40 16
-1.5444649 0.95902956 -0.31088045 51 15
-1.3779341 1.1341668 -0.50074387 3 13
-1.5431538 0.95786655 -0.40798959 67 14
-1.3319933 1.0985606 -0.58512956 5 12
-1.5401047 0.95124996 -0.71799135 33 11
-1.2975937 1.0772355 -0.87704718 3 9
-1.5399984 0.94901007 -0.83328909 58 10
-0.80001992 0.66525853 -0.60780436 8 8
-0.72351581 0.44333249 -0.55068582 38 7
-0.59767628 0.49924612 -0.56646937 45 6
-0.51690459 0.31511176 -0.48297769 44 5
-0.21437241 0.17833012 -0.23321539 80 4
-0.21972987 0.13474126 -0.23652615 66 3
-0.23692316 0.19911139 -0.32437378 7 2
-0.34014818 0.20455693 -0.47529536 8 1
-0.14241014 0.11885527 -0.21193321 3 0
-1.5409901 0.95914978 0.47501007 60 31
-1.4714956 1.2144212 0.43344915 60 30
-1.5438808 0.96278334 0.34430391 61 29
-1.4694155 1.2118613 0.29246306 59 28
-1.5427696 0.96393305 0.21781455 62 27
-1.4786079 1.2190422 0.17983504 61 26
-1.543649 0.96522248 0.12424077 60 25
-1.4814944 1.2218704 0.087926209 60 24
-1.542328 0.96514022 0.041431267 63 23
-1.4770806 1.2186551 0 60 22
-1.5464001 0.96805602 -0.041547321 62 21
-1.4772195 1.2192037 -0.087693296 58 20
-1.536665 0.9623602 -0.12309949 61 19
-1.4763992 1.2193848 -0.16877234 59 18
-1.5431032 0.96638727 -0.20441787 62 17
-1.4794109 1.2227398 -0.26181713 40 16
-1.5431974 0.96571851 -0.31130984 59 15
-1.3721182 1.1374335 -0.50005603 3 13
-1.5379008 0.96168935 -0.40743145 70 14
-1.3317816 1.1062275 -0.58676398 5 12
-1.4955817 0.93069762 -0.69830751 10 11
-1.2990907 1.0857877 -0.88056475 3 9
-1.5366764 0.95437986 -0.83328909 59 10
-0.78798562 0.65964413 -0.6000452 9 8
-0.72725922 0.44910163 -0.5548895 32 7
-0.59601748 0.50122535 -0.56646937 49 6
-0.52074897 0.31979632 -0.48782364 42 5
-0.21515401 0.18021365 -0.23494291 74 4
-0.22075118 0.13635273 -0.23834558 69 3
-0.24115565 0.20411448 -0.33200613 7 2
-0.33946797 0.20568378 -0.47529536 9 1
-0.14201522 0.11932687 -0.21193321 4 0
-1.5398493 0.96553493 0.47565457 61 31
-1.4730749 1.2239703 0.4351401 60 30
-1.5406796 0.96789771 0.34430391 60 29
-1.4691858 1.2198874 0.29323575 61 28
-1.5458704 0.97300094 0.21872337 60 27
-1.4762563 1.225788 0.1800729 60 26
-1.5404396 0.97033608 0.12424077 61 25
-1.475515 1.225179 0.087809756 60 24
-1.5433512 0.97290939 0.041547321 63 23
-1.4787951 1.2283453 0 59 22
-1.5451272 0.97477889 -0.04160535 61 21
-1.4750874 1.2256939 -0.087809756 58 20
-1.5313541 0.96612275 -0.12292685 63 19
-1.4759586 1.2277198 -0.16921942 60 18
-1.5419924 0.97282147 -0.20470218 60 17
-1.477035 1.2294829 -0.2621612 39 16
-1.5399866 0.97083068 -0.31130984 60 15
-1.3775557 1.1496893 -0.50349522 3 13
-1.540725 0.97094101 -0.40910584 69 14
-1.3262955 1.1091197 -0.5859468 5 12
-1.4923239 0.93591249 -0.69830751 10 11
-1.2952927 1.0903157 -0.88056475 4 9
-1.5335031 0.95947033 -0.83328909 58 10
-0.78404576 0.66100782 -0.59875202 9 8
-0.73985809 0.46021429 -0.56609941 31 7
-0.59577775 0.50459319 -0.56798398 45 6
-0.51962948 0.32161209 -0.48782364 42 5
-0.21452364 0.18096361 -0.23494291 81 4
-0.22174013 0.13801117 -0.24016501 69 3
-0.25142017 0.214485 -0.34917885 7 2
-0.34134674 0.20842531 -0.47927272 9 1
-0.1317835 0.11124519 -0.19359285 4 0
-1.5364696 0.97090411 0.47565457 60 31
-1.4725256 1.2322353 0.43626741 60 30
-1.5393673 0.97458005 0.34477749 61 29
-1.4724903 1.2313551 0.29478112 60 28
-1.5403672 0.97706485 0.21842043 60 27
-1.4757831 1.234131 0.18054867 60 26
-1.5370432 0.97570735 0.12424077 61 25
-1.4769709 1.2351346 0.088159129 59 24
-1.5418862 0.97989726 0.04160535 62 23
-1.4764141 1.2351061 0 59 22
-1.5459371 0.98284262 -0.041721404 61 21
-1.474411 1.2343028 -0.088042676 58 20
-1.5342917 0.97546816 -0.1234448 61 19
-1.4754779 1.2360669 -0.1696665 60 18
-1.540514 0.97979677 -0.2049865 62 17
-1.47463 1.2362241 -0.26250523 38 16
-1.5405787 0.97910488 -0.31216863 60 15
-1.3714949 1.1531814 -0.50280738 3 13
-1.5373265 0.97631317 -0.40910584 63 14
-1.3240262 1.1154981 -0.58676398 5 12
-1.4751585 0.93272585 -0.69174623 10 11
-1.2914789 1.0948304 -0.88056475 4 9
-1.5242293 0.96147108 -0.83010048 59 10
-0.77836311 0.66109914 -0.5961656 9 8
-0.7416814 0.46511173 -0.5689019 37 7
-0.59241551 0.50547749 -0.56646937 47 6
-0.51682359 0.32251212 -0.48620832 44 5
-0.20703039 0.17583148 -0.22630529 78 4
-0.21976981 0.13792889 -0.23834558 72 3
-0.25066993 0.21536131 -0.34917885 8 2
-0.34058052 0.209675 -0.47927272 9 1
-0.13028789 0.11077049 -0.19155502 4 0
-1.5329007 0.97652906 0.47565457 60 31
-1.4679993 1.237624 0.43626741 60 30
-1.537856 0.98153347 0.34525111 61 29
-1.4698546 1.2383374 0.29516748 60 28
-1.5409607 0.98537201 0.21902631 60 27
-1.4731513 1.2411374 0.18078655 60 26
-1.5376617 0.98401731 0.12458781 60 25
-1.474342 1.2421509 0.088275589 59 24
-1.5384562 0.98527348 0.04160535 62 23
-1.4756968 1.2437358 0 60 22
-1.5402181 0.98715627 -0.041663375 65 21
-1.472001 1.2410536 -0.088159129 60 20
-1.5349095 0.98377109 -0.1237901 60 19
-1.4728385 1.2430747 -0.16989005 60 18
-1.5370846 0.98516828 -0.2049865 62 17
-1.4757589 1.2464206 -0.26353735 38 16
-1.5371516 0.98447651 -0.31216863 49 15
-1.3729581 1.1626284 -0.50487089 3 13
-1.5316836 0.98063004 -0.4085477 26 14
-1.3201244 1.1201129 -0.58676398 5 12
-1.4562424 0.92792928 -0.68424767 10 11
-1.2874575 1.0995566 -0.88056475 4 9
-1.5189525 0.96557462 -0.82903761 40 10
-0.76793784 0.65683889 -0.58969957 10 8
-0.74356067 0.46989885 -0.57170439 38 7
-0.58914322 0.50624114 -0.5649547 44 6
-0.51893491 0.32633024 -0.48943892 42 5
-0.21050006 0.18011765 -0.23148786 79 4
-0.22366659 0.14139269 -0.24380386 68 3
-0.26321334 0.2280221 -0.37016773 8 2
-0.3333776 0.20692164 -0.46932933 9 1
nan nan nan 0 0
-1.5294826 0.98187393 0.47565457 60 31
-1.46738 1.245898 0.43739471 60 30
-1.5364867 0.98822063 0.3457247 61 29
-1.4674045 1.2450607 0.2955538 59 28
-1.5395994 0.99208635 0.21932925 60 27
-1.4728196 1.2492396 0.1812623 60 26
-1.5426085 0.99477398 0.1252819 60 25
-1.4718994 1.2489077 0.088392049 60 24
-1.5350076 0.99063772 0.04160535 62 23
-1.4732504 1.2504992 0 60 22
-1.5411394 0.99496394 -0.041779429 61 21
-1.4714634 1.2494215 -0.088392049 58 20
-1.531466 0.98912281 -0.1237901 60 19
-1.4687083 1.2479521 -0.16989005 59 18
-1.5336363 0.99052757 -0.2049865 62 17
-1.4716176 1.2513075 -0.26353735 37 16
-1.5295635 0.98717076 -0.31130984 14 15
-1.3652376 1.1642901 -0.50349522 3 13
-1.497677 0.96593481 -0.40017584 3 14
-1.3126181 1.1216397 -0.58512956 5 12
-1.4414437 0.92525917 -0.67862368 10 11
-1.2787876 1.0994943 -0.87704718 4 9
nan nan nan 0 10
-0.76575547 0.65938187 -0.58969957 14 8
-0.74191588 0.47249153 -0.57170439 39 7
-0.59046108 0.51080436 -0.56798398 44 6
-0.511383 0.32399574 -0.48297769 40 5
-0.21125925 0.18200743 -0.23321539 78 4
-0.21736902 0.13851762 -0.23652615 71 3
-0.27091646 0.23639493 -0.38352433 8 2
-0.33527192 0.20961097 -0.47330669 9 1
-0.11548514 0.099118456 -0.16506338 3 0
-1.5302784 0.98955822 0.47694361 60 31
-1.4687891 1.2555113 0.43908569 60 30
-1.5332013 0.99331045 0.3457247 61 29
-1.4651439 1.2515264 0.29594016 61 28
-1.5363011 0.99718636 0.21932925 60 27
-1.4703403 1.2559917 0.18150017 60 26
-1.537208 0.99852818 0.12510838 61 25
-1.4696469 1.255406 0.088508509 59 24
-1.5338113 0.99708182 0.041663375 62 23
-1.4709942 1.2570041 0 59 22
-1.5418506 1.0030577 -0.041895483 61 21
-1.4711049 1.2575437 -0.088624962 59 20
-1.5344547 0.99826765 -0.12430805 60 19
-1.4737931 1.2611766 -0.17100772 59 18
-1.532427 0.99695951 -0.2052708 62 17
-1.4709988 1.2596623 -0.26422545 36 16
-1.5097481 0.98152107 -0.30787471 3 15
-1.3668343 1.1735147 -0.50555873 3 13
-1.482025 0.96320611 -0.39682707 3 14
-1.3178368 1.1337024 -0.5892157 5 12
-1.4226218 0.92023849 -0.67112511 9 11
-1.2782762 1.1068469 -0.87939221 4 9
nan nan nan 0 10
-0.75861013 0.65783393 -0.58581996 19 8
-0.74383724 0.47717404 -0.57450682 37 7
-0.5856837 0.51023954 -0.5649547 44 6
-0.51186204 0.32679787 -0.484593 40 5
-0.21603642 0.18753347 -0.24012548 75 4
-0.21688418 0.13927554 -0.23652615 71 3
-0.27008966 0.23733917 -0.38352433 8 2
-0.3293846 0.20759213 -0.46535197 8 1
nan nan nan 0 0
-1.5288405 0.99620968 0.47758815 62 31
-1.4643977 1.2606307 0.43908569 60 30
-1.5338392 1.0013343 0.34667188 60 29
-1.4626368 1.2582461 0.29632649 59 28
-1.5348896 1.0038986 0.21963219 60 27
-1.4678319 1.2627417 0.18173805 60 26
-1.5358016 1.005251 0.1252819 60 25
-1.4709295 1.2654206 0.088857882 58 24
-1.5343312 1.0054311 0.041779429 62 23
-1.4703835 1.2653971 0 61 22
-1.5362477 1.0070664 -0.041837458 61 21
-1.4683765 1.264559 -0.088741422 58 20
-1.5267856 1.0008887 -0.12396275 62 19
-1.4693819 1.2663133 -0.17100772 61 18
-1.5308415 1.0039289 -0.20555511 62 17
-1.4647194 1.2631699 -0.26388139 34 16
-1.483461 0.97222954 -0.3031514 5 15
-1.360708 1.1769419 -0.50487089 3 13
-1.4704919 0.96304464 -0.39459458 4 14
-1.3083225 1.1338756 -0.58676398 7 12
-1.4153529 0.92292064 -0.66925043 7 11
-1.2744049 1.1113021 -0.87939221 4 9
-1.2163718 0.79184008 -0.6653558 16 10
-0.75780177 0.66202152 -0.5871132 22 8
-0.74208331 0.47989711 -0.57450682 38 7
-0.58828127 0.5163334 -0.5694986 48 6
-0.51548916 0.33174652 -0.48943892 38 5
-0.21264954 0.18591926 -0.23667043 78 4
-0.22362405 0.14464153 -0.24562332 71 3
-0.27286303 0.24152054 -0.38924855 8 2
-0.32605058 0.20719458 -0.46137458 9 1
nan nan nan 0 0
-1.5231582 1.0004832 0.47694361 63 31
-1.4634438 1.2691853 0.44021299 59 30
-1.5301589 1.0069494 0.34667188 60 29
-1.4580152 1.2635984 0.29632649 60 28
-1.5374207 1.013607 0.22054102 60 27
-1.4669514 1.2713772 0.1822138 59 26
-1.5341904 1.012244 0.12545542 60 25
-1.4700522 1.2740788 0.089090794 60 24
-1.5328997 1.0121552 0.041837458 61 23
-1.471397 1.2756972 0 59 22
-1.5346334 1.0140653 -0.041895483 60 21
-1.4639534 1.2696768 -0.088741422 57 20
-1.5293547 1.0105945 -0.1244807 60 19
-1.4684875 1.2749594 -0.1714548 60 18
-1.5273278 1.0092664 -0.20555511 62 17
-1.4656821 1.2734085 -0.26491353 34 16
-1.4656589 0.96792179 -0.30014563 4 15
-1.3584018 1.1832656 -0.50555873 3 13
-1.4567741 0.96172935 -0.39180395 4 14
-1.3114684 1.1446594 -0.59003288 7 12
-1.4043671 0.92277658 -0.66550118 8 11
-1.2670096 1.1130463 -0.87704718 4 9
-1.2003402 0.78741723 -0.65791577 23 10
-0.74747169 0.65757698 -0.58064717 25 8
-0.7421419 0.48360944 -0.57590812 37 7
-0.58350354 0.51573956 -0.56646937 44 6
-0.50629872 0.32839113 -0.48136237 38 5
-0.20930956 0.18424623 -0.23321539 75 4
-0.21732914 0.14174341 -0.23834558 70 3
-0.26718721 0.23818137 -0.38161623 8 2
-0.32404271 0.20752528 -0.4593859 9 1
nan nan nan 0 0
-1.5236888 1.0084547 0.47823265 60 31
-1.460837 1.2758904 0.44077662 59 30
-1.5266347 1.0122845 0.34667188 60 29
-1.4610318 1.2751852 0.29787189 59 28
-1.5318042 1.0175971 0.22023807 60 27
-1.4643775 1.2781286 0.18245168 60 26
-1.5306475 1.0175931 0.12545542 60 25
-1.469355 1.282491 0.089323714 58 24
-1.5335227 1.0202632 0.041953512 61 23
-1.466935 1.2808256 0 59 22
-1.5373311 1.023563 -0.042069562 61 21
-1.4670284 1.2813588 -0.089207254 59 20
-1.5278955 1.0173062 -0.12465335 61 19
-1.464028 1.2800777 -0.1714548 59 18
-1.5258647 1.0159653 -0.20583941 62 17
-1.4705367 1.2866803 -0.26663375 34 16
-1.4520098 0.96622455 -0.29799867 3 15
-1.3542632 1.1880002 -0.50555873 3 13
-1.4473153 0.9627682 -0.39012957 3 14
-1.3056923 1.1476681 -0.5892157 7 12
-1.3992031 0.92639667 -0.66456383 7 11
-1.2631167 1.1174623 -0.87704718 4 9
-1.1843544 0.78289223 -0.65047568 26 10
-0.74517173 0.66018212 -0.58064717 27 8
-0.74044925 0.48619708 -0.57590812 40 7
-0.58318096 0.51910049 -0.56798398 43 6
-0.50514936 0.33015648 -0.48136237 37 5
-0.20866516 0.18497574 -0.23321539 80 4
-0.21827701 0.14342566 -0.24016501 72 3
-0.27232116 0.24455549 -0.39115664 8 2
-0.32331637 0.20865513 -0.4593859 9 1
nan nan nan 0 0
-1.5201592 1.0137672 0.47823265 60 31
-1.4582016 1.2825927 0.4413403 59 30
-1.5251347 1.0189682 0.3471455 60 29
-1.4584249 1.2819103 0.29825822 60 28
-1.5303071 1.0243154 0.22054102 60 27
-1.4676017 1.2895569 0.18340319 60 26
-1.5333079 1.0270857 0.12597598 60 25
-1.4667434 1.2892631 0.089440174 58 24
-1.5320297 1.0269986 0.042011537 59 23
-1.468082 1.2908973 0 59 22
-1.5339284 1.0286555 -0.042069562 61 21
-1.4662931 1.2897751 -0.089440174 58 20
-1.528481 1.0254067 -0.12499864 59 19
-1.4635097 1.2882202 -0.1719019 62 18
-1.5243735 1.0226665 -0.20612372 62 17
-1.4644055 1.2899109 -0.26628971 33 16
-1.4527233 0.97402436 -0.29885745 3 15
-1.3519071 1.1943135 -0.50624651 3 13
-1.4319562 0.9594413 -0.38678083 5 14
-1.3069793 1.1569238 -0.59166729 7 12
-1.3961233 0.93103147 -0.66456383 5 11
-1.2544637 1.1172323 -0.87352961 4 9
-1.1816143 0.78702164 -0.65047568 26 10
-0.74775809 0.66693366 -0.58452678 32 8
-0.7387476 0.48877877 -0.57590812 38 7
-0.57850254 0.51836723 -0.5649547 44 6
-0.51044697 0.33599561 -0.48782364 39 5
-0.2040408 0.18201803 -0.22803281 78 4
-0.21780019 0.14414872 -0.24016501 70 3
-0.27150869 0.2454572 -0.39115664 8 2
-0.31623694 0.20565175 -0.44944251 8 1
nan nan nan 0 0
-1.5187963 1.0201467 0.47887719 60 31
-1.4575837 1.2906548 0.4424676 59 30
-1.5237858 1.0253879 0.34761906 60 29
-1.4578617 1.2900174 0.29903093 59 28
-1.5310209 1.0321532 0.2211469 59 27
-1.4649532 1.2963232 0.18364106 60 26
-1.5298935 1.0321646 0.12597598 60 25
-1.4643283 1.295777 0.089556634 58 24
-1.5286157 1.0320735 0.042011537 61 23
-1.4656632 1.2974176 0 59 22
-1.5282555 1.032607 -0.042011537 63 21
-1.4638759 1.2962881 -0.089556634 56 20
-1.5230039 1.0290761 -0.124826 60 19
-1.4627268 1.2966286 -0.17234898 59 18
-1.518914 1.026328 -0.20583941 62 17
-1.4617445 1.2966602 -0.26663375 33 16
-1.4474422 0.97746098 -0.29842806 4 15
-1.3443513 1.195591 -0.50487089 3 13
-1.4184897 0.95763093 -0.3839902 8 14
-1.2978503 1.1565292 -0.5892157 7 12
-1.3851622 0.93074065 -0.66081452 7 11
-1.260406 1.1304637 -0.88056475 4 9
-1.182761 0.79345 -0.65260142 25 10
-0.74066085 0.66523898 -0.58064717 36 8
-0.73366964 0.48894033 -0.57310557 38 7
-0.57521731 0.51904613 -0.56344008 45 6
-0.50608069 0.33568132 -0.484593 38 5
-0.20340417 0.18272915 -0.22803281 80 4
-0.22017092 0.14677672 -0.24380386 72 3
-0.25879058 0.23543665 -0.37207583 7 2
-0.3180657 0.20839304 -0.45341986 9 1
nan nan nan 0 0
-1.515226 1.0254422 0.47887719 62 31
-1.4585174 1.3006041 0.44415855 61 30
-1.5201972 1.0307007 0.34761906 62 29
-1.4533497 1.2950984 0.29903093 59 28
-1.5274086 1.0374913 0.2211469 59 27
-1.4659876 1.3064023 0.18435471 60 26
-1.5262814 1.0374985 0.12597598 60 25
-1.4616586 1.3025441 0.089673094 58 24
-1.528959 1.0404761 0.042127591 61 23
-1.464854 1.3058573 0 60 22
-1.5308453 1.0421466 -0.042185616 63 21
-1.4591148 1.3016447 -0.089556634 58 20
-1.5214659 1.0357869 -0.12499864 61 19
-1.4637588 1.3067074 -0.17301959 60 18
-1.5192516 1.0346789 -0.20640802 61 17
-1.4590542 1.3034064 -0.26697779 30 16
-1.4499637 0.98690826 -0.29971623 3 15
-1.3453246 1.2053286 -0.5069344 3 13
-1.4070705 0.95710605 -0.38175768 9 14
-1.3006268 1.1676006 -0.59248453 5 12
-1.3817415 0.93581128 -0.66081452 8 11
-1.2531792 1.131892 -0.87821966 4 9
-1.1742144 0.79398757 -0.64941275 26 10
-0.73980057 0.66938865 -0.58194041 35 8
-0.73531729 0.49392426 -0.57590812 37 7
-0.57037634 0.51846552 -0.5604108 46 6
-0.50484693 0.33753392 -0.484593 38 5
-0.20140521 0.1822477 -0.22630529 82 4
-0.21963146 0.14758271 -0.24380386 71 3
-0.2556029 0.23413691 -0.36825967 7 2
-0.32365617 0.21367739 -0.46336326 8 1
nan nan nan 0 0
-1.515452 1.0337055 0.48016623 62 31
-1.4555507 1.3075708 0.44472221 61 30
-1.5204664 1.0390301 0.34856626 60 29
-1.4559377 1.307025 0.3005763 59 28
-1.5297444 1.0472802 0.22205572 60 27
-1.4630395 1.3134313 0.18459257 59 26
-1.5224684 1.0430857 0.12597598 60 25
-1.4643004 1.314574 0.090138927 57 24
-1.5273809 1.0472174 0.042185616 61 23
-1.4619161 1.3128898 0 59 22
-1.5249527 1.046339 -0.042127591 61 21
-1.4601299 1.311743 -0.089906007 58 20
-1.5217761 1.0441732 -0.12534395 59 19
-1.4589596 1.3120636 -0.17301959 60 18
-1.5197304 1.0427809 -0.20697664 61 17
-1.4561059 1.3104039 -0.26732185 27 16
-1.4383775 0.98640358 -0.29799867 3 15
-1.344674 1.2132421 -0.50831008 3 13
-1.4055651 0.96363181 -0.38231581 9 14
-1.2895411 1.1657866 -0.5892157 7 12
-1.380383 0.94193208 -0.66175187 8 11
-1.2424983 1.1305243 -0.87352961 4 9
-1.1751806 0.8006227 -0.65153849 25 10
-0.73745948 0.67196691 -0.58194041 43 8
-0.73530686 0.49764293 -0.57730931 38 7
-0.57002568 0.52180111 -0.56192541 43 6
-0.50049037 0.33717731 -0.48136237 39 5
-0.19944425 0.18171924 -0.22457777 81 4
-0.21911497 0.14834845 -0.24380386 74 3
-0.24649641 0.22733621 -0.3549031 7 2
-0.3267135 0.21729118 -0.46932933 9 1
nan nan nan 0 0
-1.5138272 1.0403546 0.48081076 61 31
-1.4563906 1.3175517 0.44641316 60 30
-1.5208778 1.0471097 0.34951344 61 29
-1.453197 1.3137575 0.30096266 60 28
-1.5260794 1.0526136 0.22205572 59 27
-1.458676 1.3182756 0.18459257 58 26
-1.5229268 1.0512217 0.12632301 60 25
-1.4615535 1.3213542 0.090255387 60 24
-1.5216578 1.0511247 0.042127591 61 23
-1.4628812 1.3230219 0 60 22
-1.5255905 1.0542265 -0.042243645 63 21
-1.4573922 1.3185093 -0.090022467 59 20
-1.5242822 1.0537252 -0.1258619 60 19
-1.4601326 1.3219141 -0.17369021 59 18
-1.520171 1.0508987 -0.20754527 61 17
-1.4554189 1.3185544 -0.26800993 24 16
-1.4389821 0.99421263 -0.29885745 3 15
-1.3386538 1.2163097 -0.50762218 3 13
-1.4023619 0.96828753 -0.38231581 8 14
-1.2941887 1.1782449 -0.59330177 7 12
-1.3734276 0.94388497 -0.65987718 8 11
-1.2403685 1.1361321 -0.87470216 3 9
-1.1723785 0.80471992 -0.65153849 24 10
-0.73050773 0.67005831 -0.57806075 43 8
-0.73013687 0.49788457 -0.57450682 38 7
-0.56683409 0.52233589 -0.5604108 44 6
-0.49936953 0.33883512 -0.48136237 37 5
-0.20016004 0.1836144 -0.22630529 81 4
-0.21576634 0.14717562 -0.24016501 68 3
-0.24104351 0.22371621 -0.34727076 7 2
-0.32978812 0.22087133 -0.47529536 9 1
nan nan nan 0 0
-1.5103688 1.0453689 0.48081076 62 31
-1.45741 1.3273002 0.44810411 61 30
-1.517397 1.0521474 0.34951344 61 29
-1.4524819 1.3218985 0.30173534 60 28
-1.5287002 1.0619075 0.22296454 60 27
-1.4577426 1.3267136 0.18506832 59 26
-1.5173829 1.0548453 0.12614951 60 25
-1.4590086 1.3278766 0.09037184 59 24
-1.522271 1.0590142 0.042243645 61 23
-1.4603325 1.3295507 0 59 22
-1.5219012 1.0595455 -0.042243645 63 21
-1.4567007 1.3267022 -0.090255387 59 20
-1.5207796 1.0587742 -0.1258619 59 19
-1.4555094 1.327003 -0.17369021 58 18
-1.5166779 1.0559341 -0.20754527 61 17
-1.4526349 1.3252977 -0.26835397 21 16
-1.4377009 1.0003828 -0.29928684 4 15
-1.3434707 1.2288643 -0.51106137 3 13
-1.4029784 0.97595417 -0.38343209 8 14
-1.2850555 1.1777345 -0.59085011 7 12
-1.3720319 0.94998974 -0.66081452 8 11
-1.2380159 1.1419542 -0.87587464 3 9
-1.1790222 0.81501967 -0.6568529 21 10
-0.72973239 0.67405981 -0.57935399 37 8
-0.73019224 0.50146979 -0.57590812 36 7
-0.56500733 0.52431136 -0.5604108 48 6
-0.50292486 0.3437838 -0.48620832 35 5
-0.19951789 0.18431196 -0.22630529 84 4
-0.2166757 0.14888218 -0.24198443 68 3
-0.23206736 0.21676432 -0.33391422 5 2
-0.32775235 0.2211841 -0.47330669 10 1
nan nan nan 0 0
-1.5106771 1.0533925 0.4820998 61 31
-1.4509749 1.3307313 0.44754049 62 30
-1.5157294 1.0588408 0.34998706 61 29
-1.4533157 1.3319732 0.30289435 60 28
-1.5229492 1.0658171 0.2226616 60 27
-1.4549356 1.3334776 0.18530621 59 26
-1.5136915 1.0601357 0.12614951 60 25
-1.4580429 1.3363402 0.09060476 59 24
-1.5226623 1.0671849 0.042359699 61 23
-1.4556826 1.3346401 0 59 22
-1.5202415 1.0662839 -0.04230167 63 21
-1.4575764 1.3368491 -0.09060476 58 20
-1.5191182 1.0655057 -0.12603454 59 19
-1.4563652 1.3371338 -0.17436083 58 18
-1.5190889 1.0654926 -0.20839819 60 17
-1.4479998 1.3303603 -0.26835397 18 16
-1.4261253 0.99975175 -0.29756927 3 15
-1.3321097 1.227024 -0.50831008 3 13
-1.4135467 0.99061519 -0.38733897 7 14
-1.2844048 1.1854223 -0.59248453 7 12
-1.3687075 0.95477331 -0.66081452 8 11
-1.2291753 1.1417539 -0.87235713 3 9
-1.1873255 0.82686907 -0.66323006 14 10
-0.72893798 0.67806405 -0.58064717 38 8
-0.73014349 0.50518829 -0.57730931 37 7
-0.56172502 0.52491754 -0.55889618 43 6
-0.50014514 0.34446254 -0.484593 36 5
-0.19887331 0.18500727 -0.22630529 84 4
-0.21615469 0.14963761 -0.24198443 72 3
nan nan nan 0 2
-0.33579692 0.22821701 -0.4872275 11 1
nan nan nan 0 0
-1.5087843 1.0603086 0.48274431 60 31
-1.4532361 1.34266 0.4497951 60 30
