# .PCD v0.7 - Point Cloud Data file format
VERSION 0.7
FIELDS x y z intensity ring
SIZE 4 4 4 4 2
TYPE F F F F U
COUNT 1 1 1 1 1
WIDTH 1245
HEIGHT 1
VIEWPOINT 0 0 0 1 0 0 0
POINTS 1245
DATA ascii
1.1644349 0.023158535 0.07860484 6 25
1.2038763 -0.13239463 0.054851983 8 24
1.146879 0.022377981 0.025822006 7 23
1.2076079 -0.13302524 0 6 22
1.1418892 0.021871215 -0.025705952 8 21
1.1963848 -0.13197973 -0.054502606 6 20
1.1270764 0.021549668 -0.075620733 26 19
1.1929209 -0.13221742 -0.10461649 76 18
1.1225874 0.021447977 -0.12452716 7 17
1.2602866 -0.14024875 -0.1713337 9 16
1.118337 0.021729721 -0.18893288 9 15
1.182445 0.02330556 -0.26287702 10 14
1.1835248 0.020861572 0.22164267 8 29
1.1440017 0.019107688 0.1354146 46 27
1.219172 -0.13819294 0.1139431 7 26
1.1520411 0.018863074 0.077737242 7 25
1.2108493 -0.13745463 0.055201355 6 24
1.1544468 0.018510582 0.025996089 8 23
1.2071363 -0.13723977 0 6 22
1.1469532 0.018174309 -0.025822006 26 21
1.1983975 -0.13644214 -0.054619066 5 20
1.1196637 0.017482111 -0.075102776 46 19
1.1949492 -0.13645965 -0.10484004 76 18
1.1276224 0.017617716 -0.12509578 7 17
1.262274 -0.14471354 -0.17167772 9 16
1.1233311 0.017915269 -0.18979166 8 15
1.1605875 0.01897857 -0.2578539 14 14
1.1860421 0.01697702 0.22211629 8 29
1.302997 -0.15244471 0.19974031 9 28
1.1440587 0.015313937 0.1354146 54 27
1.2112682 -0.14156769 0.11322946 7 26
1.1496035 0.015004796 0.077563718 7 25
1.2054269 -0.14088041 0.054968439 7 24
1.1520027 0.014645116 0.02593806 8 23
1.2041919 -0.14094688 0 6 22
1.1445106 0.014134378 -0.025763981 47 21
1.2053777 -0.14130117 -0.054968439 6 20
1.1247032 0.013841331 -0.075448081 66 19
1.1944656 -0.14062996 -0.10484004 69 18
1.1326416 0.013950246 -0.1256644 8 17
1.2666783 -0.14970863 -0.17236581 9 16
1.1209217 0.014153533 -0.18936226 8 15
1.146027 0.014707793 -0.25450513 16 14
1.1983666 0.01299537 0.22448425 8 29
1.3245223 -0.15968965 0.20321739 8 28
1.1515495 0.011409989 0.13632344 54 27
1.2231179 -0.14730494 0.11441885 7 26
1.1596241 0.011108492 0.078257799 7 25
1.2074068 -0.14539033 0.055084899 7 24
1.1495495 0.010394802 0.025880035 26 23
1.2136185 -0.14636467 0 6 22
1.1420538 0.010111724 -0.025705952 64 21
1.1998944 -0.14510946 -0.054735523 6 20
1.1297324 0.0099701462 -0.075793378 67 19
1.1989101 -0.1454072 -0.10528712 37 18
1.1351687 0.0098256897 -0.1259487 35 17
1.2636905 -0.15382577 -0.17202178 9 16
1.1332796 0.010182604 -0.19150923 39 15
1.1241407 0.010454687 -0.24948199 24 14
1.1959517 0.0085803438 0.22401066 8 29
1.3288294 -0.1651606 0.20399007 8 28
1.1515836 0.007189272 0.13632344 54 27
1.2225698 -0.15178688 0.11441885 7 26
1.1571631 0.0068381601 0.078084283 8 25
1.2142988 -0.15075108 0.055434272 7 24
1.1445802 0.0063436748 0.025763981 50 23
1.2081132 -0.150186 0 6 22
1.1445825 0.0059441398 -0.025763981 65 21
1.2068136 -0.150236 -0.055084899 6 20
1.1247733 0.0057928385 -0.075448081 69 19
1.2181305 -0.15230742 -0.10707543 23 18
1.135196 0.0058631524 -0.1259487 60 17
1.2655746 -0.15876889 -0.17236581 9 16
1.1259198 0.0061699185 -0.19022106 59 15
1.1290451 0.0063727135 -0.25059825 27 14
1.2033384 0.0044480553 0.22543144 8 29
1.3086487 -0.16725995 0.20089932 8 28
1.1540831 0.0031815777 0.13662636 54 27
1.2269959 -0.15647873 0.11489461 10 26
1.1521921 0.0027762307 0.077737242 32 25
1.216242 -0.15530963 0.055550735 7 24
1.1470948 0.0023587747 0.025822006 61 23
1.2075816 -0.1544022 0 7 22
1.1470952 0.0021585689 -0.025822006 63 21
1.1988522 -0.15348271 -0.054735523 7 20
1.1247866 0.0018666124 -0.075448081 69 19
1.2349026 -0.15859696 -0.1086402 9 18
1.1352096 0.0019005432 -0.1259487 70 17
1.2724073 -0.16392674 -0.17339796 9 16
1.1259346 0.0022396871 -0.19022106 65 15
1.1241863 0.0026065137 -0.24948199 35 14
1.2033465 0.00045761652 0.22543144 8 29
1.2909477 -0.16932097 0.19819492 8 28
1.1516058 -0.00064941507 0.13632344 49 27
1.2264423 -0.16076076 0.11489461 53 26
1.1571829 -0.0010384973 0.078084283 48 25
1.2231467 -0.16032892 0.055900108 26 24
1.152095 -0.00144078 0.02593806 62 23
1.2095411 -0.1587356 0 6 22
1.1495951 -0.0018442454 -0.025880035 62 21
1.2082382 -0.1587768 -0.055201355 7 20
1.1297748 -0.0018607134 -0.075793378 67 19
1.2590216 -0.1662084 -0.11087561 9 18
1.1401772 -0.0018613567 -0.12651731 68 17
1.2644646 -0.16737963 -0.17236581 9 16
1.1283987 -0.0014919091 -0.19065045 67 15
1.1290623 -0.0013125406 -0.25059825 45 14
1.2082503 -0.0037479904 0.22637863 8 29
1.2927961 -0.17416012 0.19858125 8 28
1.1565597 -0.0046787942 0.13692932 36 27
1.2308052 -0.16571379 0.11537036 65 26
1.1546782 -0.0050721541 0.077910759 39 25
1.2201052 -0.16425994 0.055783652 61 24
1.1495836 -0.0054557901 0.025880035 62 23
1.2139336 -0.16363357 0 10 22
1.144583 -0.0058422387 -0.025763981 64 21
1.210151 -0.16333185 -0.055317819 7 20
1.1297613 -0.0058043525 -0.075793378 68 19
1.2806351 -0.17365129 -0.11288746 9 18
1.1401637 -0.0058413064 -0.12651731 67 17
1.273685 -0.17314352 -0.17374198 9 16
1.1308494 -0.0054371934 -0.19107984 66 15
1.126614 -0.005247741 -0.25004014 58 14
1.2131391 -0.0079878252 0.22732581 8 29
1.284842 -0.17764433 0.19742221 8 28
1.1614993 -0.0087427655 0.1375352 16 27
1.2302194 -0.17000909 0.11537036 65 26
1.1671232 -0.0091745239 0.078778364 22 25
1.2244707 -0.16921039 0.056016568 63 24
1.152055 -0.0096848905 0.02593806 59 23
1.2133549 -0.16787 0 57 22
1.1495543 -0.0098698232 -0.025880035 65 21
1.219436 -0.16915642 -0.055783652 8 20
1.1297343 -0.0097479196 -0.075793378 68 19
1.2997464 -0.18089971 -0.11467578 9 18
1.1426185 -0.010036649 -0.12680162 61 17
1.2779765 -0.17828111 -0.17443007 9 16
1.1308218 -0.0095819272 -0.19107984 66 15
1.1290257 -0.0091947857 -0.25059825 58 14
1.1918597 -0.011244081 0.30872431 6 31
1.2253751 -0.012534831 0.2296938 8 29
1.1614596 -0.012999815 0.1375352 7 27
1.2295879 -0.17451693 0.11537036 63 26
1.1720694 -0.013499192 0.079125404 8 25
1.2213705 -0.17334184 0.055900108 61 24
1.1520144 -0.013706254 0.02593806 49 23
1.2176805 -0.17302833 0 64 22
1.1520094 -0.014108382 -0.02593806 63 21
1.2138946 -0.17269963 -0.055550735 52 20
1.1321849 -0.013913784 -0.07596603 66 19
1.2842884 -0.18352368 -0.11333454 9 18
1.1376091 -0.013974787 -0.12623301 61 17
1.2846663 -0.18402989 -0.17546222 9 16
1.1307814 -0.013529173 -0.19107984 66 15
1.1289843 -0.01333281 -0.25059825 32 14
1.2014747 -0.015508932 0.31130239 6 31
1.2155056 -0.016697295 0.22779943 8 29
1.1762954 -0.017241087 0.13935284 5 27
1.236389 -0.17968024 0.11608399 62 26
1.1695213 -0.017558185 0.07895188 6 25
1.2306403 -0.17905995 0.056365941 55 24
1.1544586 -0.017760605 0.025996089 27 23
1.2170691 -0.17727777 0 45 22
1.1519563 -0.017928507 -0.02593806 61 21
1.215755 -0.17730068 -0.055667192 65 20
1.137117 -0.017933667 -0.076311335 65 19
1.303378 -0.19069839 -0.11512286 8 18
1.1474876 -0.018080946 -0.12737025 55 17
1.2815995 -0.18792555 -0.17511816 9 16
1.13319 -0.017508924 -0.19150923 65 15
1.1386807 -0.017202476 -0.25283074 22 14
1.1845098 -0.019254049 0.30679077 8 31
1.2301701 -0.020949025 0.23064099 8 29
1.1787132 -0.021181142 0.13965578 5 27
1.2382151 -0.18436578 0.11632187 59 26
1.1794313 -0.021598279 0.079645962 6 25
1.2300398 -0.18313995 0.056365941 10 24
1.1543934 -0.021588828 0.025996089 8 23
1.2164745 -0.18131272 0 8 22
1.1543858 -0.021991787 -0.025996089 57 21
1.2176296 -0.1817043 -0.055783652 66 20
1.139545 -0.021746604 -0.07648398 63 19
1.3027046 -0.19524685 -0.11512286 8 18
1.1424545 -0.021801958 -0.12680162 40 17
1.2858319 -0.193142 -0.17580625 9 16
1.1355882 -0.021307454 -0.19193862 62 15
1.1940958 -0.023558952 0.30936882 8 31
1.217818 -0.025015935 0.228273 8 29
1.1736697 -0.025199343 0.13904989 5 27
1.237564 -0.18868685 0.11632187 57 26
1.1818422 -0.025764314 0.079819486 6 25
1.2367973 -0.18857475 0.056715317 6 24
1.1593043 -0.025920944 0.026112143 7 23
1.2281879 -0.18746592 0 6 22
1.1568006 -0.026072243 -0.026054114 32 21
1.2218912 -0.18693 -0.056016568 60 20
1.1419556 -0.025775149 -0.076656632 59 19
1.2897123 -0.19788399 -0.11400516 8 18
1.1498166 -0.026142564 -0.12765455 22 17
1.2998308 -0.19991241 -0.17787053 8 16
1.1355026 -0.025469448 -0.19193862 53 15
1.226244 -0.026896879 -0.27292326 10 14
1.1915866 -0.027883949 0.30872431 6 31
1.2250806 -0.029642515 0.2296938 8 29
1.1834931 -0.029729556 0.14026166 6 27
1.2319478 -0.19244458 0.11584611 48 26
1.1742599 -0.029920844 0.079298921 6 25
1.2434981 -0.19427599 0.057064697 5 24
1.1592066 -0.029967511 0.026112143 7 23
1.2299618 -0.19235685 0 5 22
1.1541989 -0.030251766 -0.025996089 9 21
1.2187647 -0.19080338 -0.055900108 40 20
1.1418535 -0.029960455 -0.076656632 36 19
1.2865191 -0.20221886 -0.11378161 9 18
1.1447523 -0.030036379 -0.12708594 8 17
1.2990894 -0.2046752 -0.17787053 8 16
1.1427932 -0.0296083 -0.19322681 32 15
1.2285736 -0.031448524 -0.2734814 10 14
1.1890672 -0.031983331 0.30807981 6 31
1.2176079 -0.033729747 0.228273 8 29
1.1809014 -0.033794709 0.13995872 6 27
1.248466 -0.19952291 0.11751126 24 26
1.1766415 -0.034086619 0.079472445 7 25
1.2502081 -0.19981061 0.05741407 5 24
1.1690885 -0.034285881 0.026344251 8 23
1.2366866 -0.19784687 0 6 22
1.1665781 -0.034625053 -0.026286222 9 21
1.2328821 -0.19745213 -0.056598857 22 20
1.1492211 -0.034152385 -0.077174574 30 19
1.28089 -0.20590967 -0.11333454 9 18
1.1570547 -0.034374554 -0.12850748 7 17
1.2959229 -0.20881058 -0.17752647 8 16
1.1426828 -0.033597212 -0.19322681 12 15
1.2211481 -0.035539102 -0.27180701 9 14
1.1986128 -0.036197711 0.31065786 6 31
1.2248504 -0.037980624 0.2296938 8 29
1.1857438 -0.037858635 0.14056461 7 27
1.1740291 -0.037913024 0.079298921 7 25
1.2495387 -0.20395535 0.05741407 6 24
1.1614739 -0.037933547 0.026170168 8 23
1.2360238 -0.20194679 0 6 22
1.1639587 -0.038416177 -0.026228197 31 21
1.2371483 -0.20235431 -0.056831781 9 20
1.1441159 -0.037809081 -0.076829277 49 19
1.2851129 -0.21097118 -0.11378161 8 18
1.1569344 -0.038211294 -0.12850748 7 17
1.2927806 -0.21270074 -0.17718244 8 16
1.1474886 -0.037536722 -0.1940856 9 15
1.2405097 -0.040180333 -0.27627203 9 14
1.1912363 -0.040152546 0.30872431 6 31
1.2099897 -0.041777872 0.22685224 8 29
1.1682431 -0.041418452 0.13844401 7 27
1.3231537 -0.22084238 0.12488544 8 26
1.1863525 -0.042430881 0.080166534 7 25
1.243894 -0.20748547 0.057181153 6 24
1.1713184 -0.042532232 0.026402276 19 23
1.2402415 -0.20709221 0 6 22
1.1638175 -0.042478915 -0.026228197 53 21
1.2487097 -0.20896967 -0.05741407 9 20
1.1439768 -0.041802559 -0.076829277 59 19
1.2671839 -0.21254303 -0.11221685 9 18
1.1543043 -0.042365596 -0.12822317 15 17
1.2944716 -0.21762675 -0.17752647 8 16
1.139959 -0.041489527 -0.19279741 32 15
1.235491 -0.044345286 -0.27515575 9 14
1.2007371 -0.044858947 0.31130239 5 31
1.2073753 -0.046123758 0.22637863 8 29
1.1705632 -0.045791797 0.13874696 9 27
1.3370502 -0.22822692 0.1263127 8 26
1.1812044 -0.046592545 0.079819486 9 25
1.2357423 -0.21077058 0.056831781 7 24
1.1661679 -0.046432238 0.026286222 41 23
1.2419378 -0.21206163 0 6 22
1.1661515 -0.046839308 -0.026286222 61 21
1.2676595 -0.2167277 -0.058345739 8 20
1.1463083 -0.04609004 -0.077001929 62 19
1.2590361 -0.21591073 -0.11154622 9 18
1.1541493 -0.046394613 -0.12822317 44 17
1.279027 -0.21982814 -0.17546222 8 16
1.1496515 -0.045839772 -0.19451497 53 15
1.2401904 -0.049056131 -0.27627203 9 14
1.2005733 -0.049050029 0.31130239 4 31
1.2023013 -0.050143544 0.22543144 10 29
1.1728758 -0.049978003 0.13904989 38 27
1.3117754 -0.2283508 0.12393393 8 26
1.1785429 -0.050613604 0.079645962 35 25
1.249756 -0.21767956 0.05753053 12 24
1.1684959 -0.050605562 0.026344251 55 23
1.2362658 -0.21552813 0 6 22
1.168487 -0.050809499 -0.026344251 62 21
1.2767327 -0.22288594 -0.058811571 8 20
1.1511242 -0.050298259 -0.077347234 63 19
1.2705733 -0.22225086 -0.11266392 9 18
1.1589435 -0.050629351 -0.12879178 61 17
1.278291 -0.22406833 -0.17546222 8 16
1.144563 -0.049649693 -0.19365619 60 15
1.240021 -0.053168479 -0.27627203 9 14
1.2028173 -0.053132571 0.3119469 5 31
1.2070334 -0.054340966 0.22637863 25 29
1.1751828 -0.053975802 0.13935284 46 27
1.3354658 -0.23732254 0.1263127 8 26
1.1808599 -0.054631606 0.079819486 46 25
1.2416531 -0.22049987 0.057181153 52 24
1.1708183 -0.05459135 0.026402276 59 23
1.2380048 -0.2200684 0 12 22
1.1707993 -0.055000037 -0.026402276 61 21
1.2809025 -0.22800212 -0.059044488 8 20
1.1509511 -0.054115247 -0.077347234 64 19
1.27224 -0.2271264 -0.11288746 9 18
1.1612507 -0.054583643 -0.12907609 63 17
1.2848115 -0.22984965 -0.17649435 8 16
1.1443921 -0.053444926 -0.19365619 58 15
1.2422624 -0.057604637 -0.27683017 10 14
1.2146894 -0.057880841 0.31516951 5 31
1.1945761 -0.057984363 0.22401066 36 29
1.1774662 -0.058194965 0.13965578 46 27
1.3321815 -0.24153478 0.12607482 7 26
1.1856444 -0.058990814 0.080166534 48 25
1.2384195 -0.22438321 0.057064697 59 24
1.1706207 -0.058677938 0.026402276 55 23
1.2446065 -0.22573982 0 52 22
1.1681037 -0.058965772 -0.026344251 62 21
1.2678169 -0.23022 -0.058462199 8 20
1.1532462 -0.058253016 -0.077519879 63 19
1.2812352 -0.23336737 -0.11378161 9 18
1.1610529 -0.058636833 -0.12907609 63 17
1.1515785 -0.057793763 -0.19494438 51 15
1.2444879 -0.062057085 -0.27738827 9 14
1.202417 -0.061528455 0.3119469 5 31
1.1943663 -0.062153857 0.22401066 41 29
1.1797341 -0.062430713 0.13995872 38 27
1.3166513 -0.24344443 0.12464756 7 26
1.1829405 -0.063001648 0.079993017 39 25
1.2425383 -0.22962092 0.057297613 57 24
1.1753898 -0.063226201 0.02651833 55 23
1.2462684 -0.23054194 0 57 22
1.1728829 -0.063301861 -0.026460305 59 21
1.2718742 -0.23578402 -0.058695115 8 20
1.1555266 -0.062407468 -0.077692531 62 19
1.2999915 -0.24150942 -0.11556993 8 18
1.1633106 -0.063021034 -0.12936039 62 17
1.1611974 -0.062522836 -0.19666195 32 15
1.2710345 -0.067775667 -0.28352764 9 14
1.214244 -0.066571414 0.31516951 6 31
1.1941305 -0.066531017 0.22401066 46 29
1.189409 -0.067294493 0.14117049 23 27
1.3108609 -0.24733762 0.12417181 8 26
1.1951526 -0.068019956 0.080860615 22 25
1.2465949 -0.23510766 0.05753053 55 24
1.1751618 -0.067328699 0.02651833 54 23
1.2454151 -0.23510821 0 53 22
1.1751382 -0.067738906 -0.02651833 60 21
1.2661371 -0.23928635 -0.058462199 8 20
1.1602706 -0.066918969 -0.078037828 58 19
1.3137715 -0.24907964 -0.11691117 8 18
1.1655635 -0.067219138 -0.12964471 59 17
1.1683494 -0.066983081 -0.19795014 22 15
1.2659109 -0.072165959 -0.2824114 9 14
1.193891 -0.070698902 0.22401066 46 29
1.196599 -0.07187704 0.14207931 8 27
1.194908 -0.072191402 0.080860615 8 25
1.2482182 -0.23993331 0.057646986 50 24
1.1774148 -0.071576849 0.026576359 41 23
1.247041 -0.23993067 0 51 22
1.1724124 -0.071488515 -0.026460305 57 21
1.2505858 -0.24084552 -0.057763446 9 20
1.1625196 -0.071115702 -0.078210473 57 19
1.2982739 -0.25057912 -0.11556993 8 18
1.1702808 -0.071580186 -0.13021334 57 17
1.2972907 -0.078209169 -0.28966704 9 14
1.1985505 -0.074953891 0.22495785 45 29
1.2037848 -0.076300502 0.14298813 5 27
1.1996406 -0.076460585 0.081207655 6 25
1.2523156 -0.24503878 0.057879902 52 24
1.1871492 -0.076099932 0.026808467 20 23
1.2437857 -0.24357997 0 28 22
1.1771444 -0.075891808 -0.026576359 57 21
1.2571295 -0.24644518 -0.058112819 8 20
1.1622773 -0.074970357 -0.078210473 57 19
1.2973913 -0.25510943 -0.11556993 8 18
1.1725159 -0.075615235 -0.13049763 51 17
1.2775515 -0.081533343 -0.285202 9 14
1.1982815 -0.079137154 0.22495785 44 29
1.2059876 -0.080662601 0.14329107 5 27
1.2068325 -0.081134379 0.08172822 6 25
1.2612456 -0.251378 0.058345739 26 24
1.194344 -0.080942251 0.026982548 8 23
1.274789 -0.25433287 0 10 22
1.1793664 -0.080164678 -0.026634384 40 21
1.26601 -0.25302556 -0.058578655 8 20
1.1620085 -0.079027005 -0.078210473 57 19
1.2940521 -0.25914356 -0.11534639 8 18
1.1697525 -0.079748474 -0.13021334 36 17
1.2675325 -0.085356504 -0.2829695 9 14
1.2028817 -0.083859906 0.22590505 42 29
1.2106353 -0.085421525 0.14389695 6 27
1.206527 -0.085557103 0.08172822 6 25
1.1890675 -0.084765583 0.026866494 7 23
1.2811953 -0.26051024 0 8 22
1.1890379 -0.085180633 -0.026866494 17 21
1.2846892 -0.26146036 -0.05951032 8 20
1.1691751 -0.083804779 -0.07872843 43 19
1.2979714 -0.26488867 -0.11579347 8 18
1.1719447 -0.084003575 -0.13049763 17 17
1.2876917 -0.091623396 -0.21899037 9 15
1.2453309 -0.088490851 -0.27794641 10 14
1.2099271 -0.088580899 0.22732581 41 29
1.2004292 -0.088933751 0.14268519 6 27
1.2087084 -0.089948185 0.081901737 7 25
1.3351998 -0.27620155 0.061955951 8 24
1.191257 -0.089096978 0.026924521 7 23
1.2974091 -0.26855657 0 8 22
1.1862561 -0.088941425 -0.026808467 9 21
1.2935469 -0.26798597 -0.059976161 8 20
1.1688755 -0.087885454 -0.07872843 31 19
1.2995231 -0.26970151 -0.11601701 8 18
1.179076 -0.088637054 -0.13135056 8 17
1.2971894 -0.09683235 -0.22070795 9 15
1.2523224 -0.093147829 -0.27962077 9 14
1.2243146 -0.09368673 0.23016739 27 29
1.1951785 -0.092541032 0.14207931 7 27
1.2059168 -0.093767621 0.08172822 7 25
1.3293908 -0.27959183 0.061723035 8 24
1.1834786 -0.092478141 0.02675044 8 23
1.3185213 -0.27752781 0 8 22
1.1934147 -0.093653008 -0.026982548 29 21
1.2950939 -0.27279282 -0.060092617 8 20
1.1710644 -0.091951132 -0.078901075 42 19
1.1837287 -0.092925027 -0.13191918 7 17
1.299317 -0.10132027 -0.22113734 9 15
1.2446998 -0.09696544 -0.27794641 9 14
1.2117436 -0.09700539 0.22779943 14 29
1.1899004 -0.096322149 0.14147343 12 27
1.2130405 -0.098567419 0.082248777 8 25
1.3503772 -0.28896871 0.062771164 8 24
1.1906229 -0.097203493 0.026924521 27 23
1.339538 -0.28687572 0 8 22
1.1955718 -0.098017365 -0.027040575 47 21
1.3136616 -0.28153038 -0.061024286 8 20
1.1707363 -0.096038349 -0.078901075 58 19
1.1883489 -0.097452253 -0.1324878 20 17
1.2842249 -0.10468286 -0.21856098 9 15
1.2750095 -0.10641972 0.2401129 8 29
1.1994498 -0.10129017 0.14268519 38 27
1.207718 -0.10238981 0.081901737 29 25
1.3444818 -0.2926107 0.062538244 8 24
1.1977309 -0.10218889 0.027098602 45 23
1.3238772 -0.28833392 0 8 22
1.1952224 -0.1021901 -0.027040575 54 21
1.3174989 -0.2874158 -0.061257202 8 20
1.1803355 -0.10095397 -0.079591684 57 19
1.1830333 -0.10139316 -0.13191918 44 17
1.29365 -0.11020656 -0.22027856 9 15
1.2877069 -0.10927734 -0.28799266 9 14
1.2623817 -0.11005017 0.23774493 7 29
1.1990705 -0.10568569 0.14268519 44 27
1.2123041 -0.10724515 0.082248777 46 25
1.3336509 -0.29536083 0.062072415 8 24
1.192387 -0.10593695 0.026982548 53 23
1.3325711 -0.29536396 0 8 22
1.19235 -0.10635316 -0.026982548 58 21
1.3286734 -0.29473683 -0.061839495 8 20
1.1774728 -0.10506294 -0.079419032 57 19
1.1851468 -0.10573772 -0.13220349 54 17
1.2908038 -0.11450864 -0.21984917 9 15
1.309148 -0.11588873 -0.29301578 9 14
1.2448739 -0.11293752 0.23442976 7 29
1.2011659 -0.11009204 0.14298813 47 27
1.2094386 -0.11125279 0.082075261 48 25
1.3253053 -0.29835707 0.061723035 7 24
1.1969882 -0.11054806 0.027098602 53 23
1.326656 -0.29890683 0 8 22
1.1969689 -0.11075698 -0.027098602 54 21
1.3300716 -0.29992622 -0.061955951 8 20
1.177099 -0.10917244 -0.079419032 58 19
1.1847705 -0.10987401 -0.13220349 53 17
1.2879431 -0.11879217 -0.21941976 9 15
1.3039023 -0.11979274 -0.29189953 9 14
1.2396038 -0.11661497 0.23348257 7 29
1.2032652 -0.1143043 0.14329107 42 27
1.2115461 -0.11549449 0.082248777 47 25
1.3389102 -0.30611327 0.062421788 7 24
1.1991036 -0.11474986 0.027156627 53 23
1.3256575 -0.30330452 0 8 22
1.1915984 -0.1144667 -0.026982548 54 21
1.3266363 -0.30377391 -0.061839495 8 20
1.1816967 -0.11354207 -0.079764329 57 19
1.1868724 -0.1140347 -0.1324878 49 17
1.2875422 -0.12306249 -0.21941976 9 15
1.2767864 -0.12184876 -0.28576013 9 14
1.2318585 -0.12024058 0.23206179 7 29
1.2053289 -0.11874208 0.14359401 42 27
1.2111355 -0.11972288 0.082248777 44 25
1.2011626 -0.11938617 0.027214656 52 23
1.3343273 -0.3102102 0 8 22
1.1986541 -0.11935322 -0.027156627 52 21
1.3255142 -0.30863422 -0.061839495 8 20
1.1837754 -0.11790834 -0.079936981 54 19
1.1889186 -0.11862555 -0.13277212 32 17
1.2944363 -0.1284966 -0.22070795 8 15
1.2520982 -0.12395223 -0.2801789 8 14
1.2362949 -0.12523982 0.23300898 7 29
1.2073549 -0.12340636 0.14389695 35 27
1.2082071 -0.12391167 0.082075261 31 25
1.2032251 -0.12382912 0.027272681 52 23
1.3307493 -0.31451973 0 8 22
1.2006952 -0.12399741 -0.027214656 51 21
1.3268578 -0.31383801 -0.061955951 8 20
1.1858166 -0.12249747 -0.080109626 57 19
1.1959106 -0.12352534 -0.13362503 20 17
1.2817278 -0.13177837 -0.21856098 9 15
1.2370877 -0.12707569 -0.27683017 8 14
1.2334082 -0.12930347 0.23253538 6 29
1.2143217 -0.1283879 0.14480577 16 27
1.215209 -0.12890263 0.082595818 10 25
1.2027856 -0.12802841 0.027272681 42 23
1.3393633 -0.32151273 0 8 22
1.205249 -0.12849829 -0.02733071 52 21
1.3281817 -0.31905493 -0.062072415 8 20
1.1853819 -0.126636 -0.080109626 58 19
1.2078235 -0.12899292 -0.13504657 9 17
1.2812601 -0.13625163 -0.21856098 9 15
1.2378547 -0.13391119 0.23348257 6 29
1.2163569 -0.13267817 0.14510871 7 27
1.2147748 -0.13293169 0.082595818 7 25
1.2073241 -0.1325518 0.027388735 23 23
1.345574 -0.32773894 0 8 22
1.2097628 -0.13324186 -0.027446764 50 21
1.3295416 -0.32405284 -0.062188867 7 20
1.1899145 -0.13110228 -0.080454931 54 19
1.232083 -0.13566703 -0.13788967 9 17
1.2881472 -0.14129126 -0.21984917 9 15
1.2257525 -0.13801423 0.14632048 6 27
1.2291759 -0.13882107 0.08363694 6 25
1.2143062 -0.13759463 0.027562818 8 23
1.3589776 -0.3360576 0 8 22
1.2043226 -0.13690932 -0.02733071 35 21
1.3284023 -0.32869181 -0.062188867 7 20
1.1894497 -0.13525507 -0.080454931 57 19
1.2488812 -0.14189599 -0.13987982 8 17
1.2851985 -0.14551446 -0.21941976 9 15
1.2178665 -0.14144798 0.14541166 6 27
1.2286838 -0.14311084 0.08363694 6 25
1.2088279 -0.14147331 0.027446764 7 23
1.3408293 -0.3365123 0 8 22
1.2088032 -0.14168428 -0.027446764 10 21
1.3223467 -0.33233324 -0.061955951 8 20
1.1939256 -0.1399769 -0.080800228 40 19
1.2754942 -0.1496032 -0.1430072 8 17
1.2871033 -0.15050535 -0.21984917 9 15
1.2271979 -0.14707229 0.14662342 8 27
1.2231976 -0.14702784 0.083289899 7 25
1.2157725 -0.14657462 0.027620843 7 23
1.327479 -0.3383179 0 8 22
1.2182032 -0.14729406 -0.027678872 13 21
1.1983577 -0.14494081 -0.081145532 39 19
1.2872963 -0.15552074 -0.14442876 8 17
1.3012444 -0.15673669 -0.22242552 8 15
1.2192867 -0.15045816 0.1457146 31 27
1.2251527 -0.15159805 0.083463423 9 25
1.2202152 -0.15142326 0.027736897 21 23
1.3238708 -0.34231988 0 8 22
1.2102653 -0.15042308 -0.027504789 38 21
1.1978444 -0.14912297 -0.081145532 50 19
1.296607 -0.16122063 -0.14556599 8 17
1.3006895 -0.16127791 -0.22242552 8 15
1.2212435 -0.15480776 0.14601754 42 27
1.2172192 -0.1547313 0.082942858 35 25
1.2172265 -0.15515774 0.027678872 41 23
1.3130592 -0.34415704 0 8 22
1.2146925 -0.15527068 -0.027620843 53 21
1.1973433 -0.15309434 -0.081145532 54 19
1.308387 -0.16706949 -0.14698754 8 17
1.3123658 -0.16712299 -0.22457249 8 15
1.2256185 -0.15970126 0.14662342 41 27
1.2290397 -0.16057022 0.083810464 48 25
1.2191284 -0.15993822 0.027736897 48 23
1.2973596 -0.34486115 0 8 22
1.2191004 -0.160151 -0.027736897 52 21
1.1992753 -0.15759286 -0.081318185 48 19
1.3028395 -0.17122577 -0.14641893 8 17
1.3093019 -0.17161641 -0.22414309 8 15
1.2225648 -0.16386755 0.14632048 32 27
1.2333877 -0.1657283 0.084157504 49 25
1.2235178 -0.16485046 0.027852951 50 23
1.3202134 -0.3561644 0 8 22
1.2259667 -0.16539323 -0.027910979 53 21
1.2011617 -0.16231634 -0.08149083 41 19
1.2997718 -0.17544484 -0.14613461 8 17
1.3062536 -0.1758617 -0.22371371 8 15
1.2367694 -0.16991839 0.14813812 18 27
1.23036 -0.16948199 0.08398398 50 25
1.2254409 -0.16924393 0.027910979 49 23
1.2179525 -0.16865796 -0.027736897 55 21
1.205559 -0.16697301 -0.081836127 27 19
1.294261 -0.17908248 -0.14556599 8 17
1.3105438 -0.18085663 -0.22457249 8 15
1.2297609 -0.1737757 0.08398398 51 25
1.2248124 -0.17373426 0.027910979 50 23
1.2247821 -0.17394802 -0.027910979 53 21
1.2197886 -0.17325501 -0.082872026 12 19
1.2886765 -0.18313538 -0.14499737 8 17
1.2732853 -0.18054293 -0.21813159 8 15
1.3043095 -0.18857852 0.15662047 8 27
1.2340534 -0.1789881 0.084331021 44 25
1.2291466 -0.17871809 0.028027033 47 23
1.2266102 -0.17879151 -0.027969005 54 21
1.2339573 -0.17985377 -0.083907925 9 19
1.3003219 -0.18939957 -0.14641893 8 17
1.255582 -0.18253942 -0.21512583 8 15
1.3183759 -0.19528477 0.15843812 8 27
1.2309536 -0.18293293 0.084157504 28 25
1.2285153 -0.18300751 0.028027033 48 23
1.2309238 -0.18380056 -0.028085059 53 21
1.2481264 -0.18634082 -0.084943838 8 19
1.3242254 -0.19755718 -0.14926201 8 17
1.2451904 -0.18548876 -0.21340826 8 15
1.3078694 -0.19841494 0.15722635 7 27
1.2377064 -0.1883397 0.084678069 9 25
1.2253975 -0.18692271 0.027969005 34 23
1.2303076 -0.18788145 -0.028085059 53 21
1.2745956 -0.19478938 -0.086842977 8 19
1.3308957 -0.20329005 -0.15011492 8 17
1.2640185 -0.19276683 -0.21684341 8 15
1.2973926 -0.20124777 0.15601459 7 27
1.2420052 -0.19320011 0.085025109 6 25
1.2346518 -0.19250606 0.028201113 10 23
1.2296442 -0.19217488 -0.028085059 54 21
1.2616184 -0.19711375 -0.085979737 8 19
1.3424879 -0.20959584 -0.15153648 8 17
1.2966822 -0.20577528 0.15601459 7 27
1.2413234 -0.19753435 0.085025109 6 25
1.2314692 -0.19664076 0.028143087 7 23
1.2339035 -0.19724534 -0.028201113 53 21
1.2732401 -0.20346071 -0.086842977 8 19
1.3490707 -0.21567798 -0.15238939 8 17
1.2959193 -0.21052647 0.15601459 7 27
1.2504401 -0.20366733 0.085719191 7 25
1.2307752 -0.20093818 0.028143087 8 23
1.2331722 -0.20176649 -0.028201113 52 21
1.2601756 -0.20613657 -0.085979737 8 19
1.3434057 -0.21959327 -0.15182078 8 17
1.2976252 -0.21545066 0.15631753 7 27
1.2447997 -0.20722142 0.08537215 26 25
1.2325323 -0.20563962 0.028201113 32 23
1.2349625 -0.20626166 -0.028259141 50 21
1.2717516 -0.21256654 -0.086842977 8 19
1.3548839 -0.22630535 -0.15324232 8 17
1.2490249 -0.21217401 0.085719191 40 25
1.2466319 -0.21221368 0.028549276 45 23
1.2342348 -0.21057123 -0.028259141 46 21
1.2636619 -0.21553877 -0.086325034 8 19
1.3467783 -0.22955827 -0.15238939 8 17
1.2531928 -0.21737562 0.086066231 41 25
1.2458457 -0.21678139 0.028549276 49 23
1.2384186 -0.21572646 -0.028375195 31 21
1.2751911 -0.22206454 -0.087188281 8 19
1.353271 -0.23575866 -0.15324232 8 17
1.2597572 -0.22325884 0.086586788 30 25
1.2500046 -0.22199346 0.02866533 50 23
1.2474656 -0.22199664 -0.028607301 15 21
1.2719122 -0.22630464 -0.087015636 8 19
1.3451011 -0.23918964 -0.15238939 8 17
1.2810653 -0.23160653 0.088148482 12 25
1.2516822 -0.2267963 0.028723355 50 23
1.261483 -0.22877999 -0.028955463 9 21
1.2809336 -0.23250625 -0.087706231 8 19
1.3393686 -0.24300548 -0.15182078 8 17
1.2950116 -0.2385367 0.089189604 8 25
1.2484647 -0.23049678 0.02866533 50 23
1.2852615 -0.23768087 -0.029535733 9 21
1.2899687 -0.23854846 -0.088396832 8 19
1.3214532 -0.24431606 -0.14983062 8 17
1.3235948 -0.24852495 0.091271847 8 25
1.2549824 -0.23644517 0.028839409 48 23
1.3040795 -0.24583359 -0.029999951 8 21
1.2866764 -0.24259232 -0.08822418 8 19
1.3303149 -0.25098193 -0.15096785 7 17
1.3324761 -0.25523356 0.091965929 8 25
1.2566048 -0.24129105 0.028897438 47 23
1.3228115 -0.25435138 -0.030464167 8 21
1.2931288 -0.24870606 -0.08874213 8 19
1.3147911 -0.2528367 -0.14926201 7 17
1.3217825 -0.25798997 0.091271847 8 25
1.2582086 -0.24615115 0.028955463 42 23
1.3243691 -0.25944334 -0.030522192 8 21
1.2995979 -0.25464347 -0.089260086 8 19
1.3163388 -0.2578977 -0.14954631 8 17
1.3184268 -0.26212043 0.091098331 7 25
1.2573417 -0.2505416 0.028955463 47 23
1.311196 -0.26164168 -0.030232059 8 21
1.3011477 -0.25966191 -0.089432731 8 19
1.3273319 -0.26845092 0.091792412 7 25
1.2614048 -0.25569344 0.029071517 48 23
1.3127713 -0.26648104 -0.030290084 8 21
1.3002795 -0.26397526 -0.089432731 8 19
1.3288304 -0.27358103 0.091965929 7 25
1.2580106 -0.25981417 0.029013492 45 23
1.3069361 -0.27005929 -0.03017403 8 21
1.3066803 -0.27001315 -0.089950688 8 19
1.3278188 -0.27844957 0.091965929 7 25
1.2619898 -0.26522267 0.029129546 39 23
1.3108308 -0.27586812 -0.030290084 8 21
1.3056818 -0.27480057 -0.089950688 8 19
1.2610564 -0.26962623 0.029129546 32 23
1.3099089 -0.28021348 -0.030290084 8 21
1.3169131 -0.28194499 -0.090813935 8 19
1.2699286 -0.27591068 0.029361654 21 23
1.3040364 -0.28373045 -0.03017403 8 21
1.3110951 -0.28525895 -0.09046863 8 19
1.2982055 -0.28698322 0.030057976 21 23
1.3176858 -0.29149312 -0.030522192 8 21
1.3052191 -0.28876519 -0.090123333 8 19
1.3045144 -0.2931436 0.030232059 8 23
1.341002 -0.30176434 -0.031102462 8 21
1.3090203 -0.29463354 -0.09046863 7 19
1.3522352 -0.30873582 0.031392597 8 23
1.3643689 -0.31173405 -0.031682733 8 21
1.3055516 -0.29864937 -0.090295985 7 19
1.3438967 -0.31153798 0.031218518 8 23
1.3681437 -0.31761661 -0.031798787 8 21
1.3476133 -0.31759959 0.031334572 8 23
1.3694601 -0.32295981 -0.031856813 8 21
1.3221796 -0.31652653 0.0307543 8 23
1.3731877 -0.32889402 -0.031972867 8 21
1.338131 -0.32500836 0.031160491 8 23
1.3623129 -0.33133963 -0.031740759 8 21
1.3393584 -0.33050513 0.031218518 7 23
1.3440977 -0.3321633 -0.031334572 8 21
1.3332871 -0.33420515 -0.031102462 8 21
1.327266 -0.33763349 -0.030986408 8 21
1.3212368 -0.34102383 -0.030870354 8 21
1.307884 -0.34271833 -0.030580221 9 21
1.3164074 -0.34960228 -0.030812329 16 21
1.3055209 -0.35161281 -0.030580221 29 21
1.3042855 -0.35616779 -0.030580221 31 21
1.3295437 -0.36800539 -0.031218518 32 21
1.0265532 0.2736969 0 4 22
1.0178254 0.26758945 0 65 22
1.0235497 0.2654579 0 90 22
1.0341638 0.26433992 0 39 22
1.025423 0.2581268 0 53 22
1.0263178 0.25454584 0 70 22
1.0320158 0.2523185 0 54 22
1.0328902 0.24871454 0 60 22
1.0313183 0.24453583 0 61 22
1.0419509 0.24300542 0 47 22
1.0501063 0.24102975 0 38 22
1.0508997 0.23754615 0 34 22
1.055454 0.2348914 0.04879614 6 24
1.0517225 0.23387638 0 32 22
1.0433413 0.23183957 -0.048213843 4 20
1.0416636 0.22784987 0.048097387 23 24
1.0525727 0.23002006 0 34 22
1.0393021 0.22695847 -0.047980927 46 20
1.0546653 0.22681271 0.048679676 42 24
1.0558145 0.22686468 0 31 22
1.0400881 0.22332923 -0.047980927 58 20
1.0554116 0.22331406 0.048679676 39 24
1.059008 0.22387432 0 31 22
1.0506006 0.22192341 -0.04844676 39 20
1.0537386 0.2191252 0.048563223 36 24
1.0622317 0.22067988 0 31 22
1.0489608 0.21756914 -0.048330303 32 20
1.0569825 0.21575606 0.048679676 28 24
1.0605828 0.21629056 0 32 22
1.0570579 0.21538708 -0.048679676 41 20
1.0626283 0.21303698 0.048912596 25 24
1.0637836 0.21307312 0 32 22
1.050454 0.21024078 -0.048330303 43 20
1.0706825 0.2109454 0.049261972 24 24
1.0669384 0.2100222 0 31 22
1.056048 0.20771004 -0.048563223 42 20
1.0689595 0.2067375 0.049145512 24 24
1.0676649 0.20629662 0 29 22
1.0567666 0.20402247 -0.048563223 41 20
1.0745833 0.20392619 0.049378429 23 24
1.0659213 0.20210777 0 30 22
1.0501434 0.19876972 -0.048213843 61 20
1.0728676 0.19953462 0.049261972 23 24
1.0691137 0.19865136 0 30 22
1.0557433 0.19600444 -0.04844676 53 20
1.0710999 0.1953453 0.049145512 23 24
1.0698007 0.19491823 0 29 22
1.0539633 0.19187582 -0.048330303 50 20
1.0717418 0.19179234 0.049145512 23 24
1.0753649 0.19223954 0 28 22
1.0595123 0.18924783 -0.048563223 46 20
1.0773258 0.1889028 0.049378429 23 24
1.0661758 0.1867791 0 26 22
1.0626596 0.1857883 -0.048679676 48 20
1.0670773 0.18617386 -0.094110139 25 18
1.078011 0.18495293 0.049378429 24 24
1.0791779 0.18495688 0 29 22
1.0608393 0.18166132 -0.048563223 58 20
1.0677525 0.18226157 -0.094110139 38 18
1.082373 0.18200687 0.10157349 15 26
1.0811137 0.18159758 0.049494889 22 24
1.0748843 0.18037122 0 25 22
1.0639307 0.1783651 -0.048679676 84 20
1.0609809 0.17750229 -0.093439519 51 18
1.0854582 0.17862673 0.10181136 19 26
1.079245 0.17761092 0.049378429 22 24
1.0754764 0.17680579 0 25 22
1.0620513 0.17443629 -0.048563223 88 20
1.0738845 0.17578393 -0.094557218 35 18
1.0860751 0.17483668 0.10181136 19 26
1.0773921 0.17345062 0.049261972 22 24
1.0711489 0.17226671 0 24 22
1.0602169 0.17015181 -0.04844676 85 20
1.0744916 0.17203431 -0.094557218 35 18
1.0965153 0.17257258 0.10276287 17 26
1.0829561 0.17026643 0.049494889 26 24
1.076714 0.16910538 0 27 22
1.0657402 0.16721405 -0.048679676 90 20
1.0750855 0.16828257 -0.094557218 35 18
1.097111 0.16874397 0.10276287 17 26
1.0884528 0.16742374 0.049727805 25 24
1.077269 0.16553393 0 25 22
1.0663174 0.1634929 -0.048679676 90 20
1.0830528 0.16564323 -0.09522783 37 18
1.0952604 0.16435732 0.102525 16 26
1.0841184 0.16270187 0.049494889 22 24
1.0778685 0.16158444 0 24 22
1.0668818 0.15976977 -0.048679676 90 20
1.0787257 0.16094764 -0.094780758 35 18
1.0957993 0.16072439 0.102525 16 26
1.0920945 0.15998775 0.049844261 21 24
1.0809004 0.158178 0 29 22
1.0674329 0.15604469 -0.048679676 71 20
1.0817182 0.15772386 -0.095004298 34 18
1.1037465 0.15794131 0.10323863 15 26
1.0901463 0.15601651 0.049727805 22 24
1.0838944 0.15494153 0 38 22
1.0605258 0.15146013 -0.048330303 15 20
1.0847279 0.15429267 -0.09522783 30 18
1.1042911 0.15408754 0.10323863 15 26
1.0931582 0.15255046 0.049844261 22 24
1.081952 0.15081693 0 40 22
1.066022 0.14824992 -0.048563223 9 20
1.0852598 0.15050532 -0.09522783 30 18
1.1097819 0.15069909 0.10371439 14 26
1.0937101 0.14854279 0.049844261 20 24
1.0725856 0.14552608 0 76 22
1.0714837 0.14518848 -0.04879614 8 20
1.0759311 0.14521453 -0.094333678 53 18
1.1028721 0.14605263 0.10300075 16 26
1.0917456 0.14440164 0.049727805 19 24
1.0755661 0.14210358 0 90 22
1.0695076 0.14112577 -0.048679676 8 20
1.0788761 0.14196566 -0.094557218 46 18
1.108313 0.14282842 0.10347651 15 26
1.0971733 0.14140905 0.049960721 19 24
1.0809917 0.13916449 0 90 22
1.0699697 0.1375784 -0.048679676 8 20
1.0793651 0.13819882 -0.094557218 48 18
1.1186845 0.14017713 0.10442802 9 26
1.0927031 0.13696708 0.049727805 18 24
1.0839522 0.13569583 0 94 22
1.0828601 0.13517755 -0.049261972 7 20
1.0773693 0.13412769 -0.094333678 81 18
1.083936 0.13455364 -0.1469066 26 16
1.1167198 0.13578048 0.10419014 13 26
1.1055958 0.13444395 0.050310094 17 24
1.089407 0.13231492 0 92 22
1.0808457 0.13110115 -0.049145512 8 20
1.0803264 0.13047157 -0.094557218 89 18
1.0868807 0.13087095 -0.14725064 34 16
1.1221312 0.13245539 0.1046659 13 26
1.0961359 0.12943231 0.049844261 17 24
1.0446198 0.2625818 0.024197252 5 23
1.0873789 0.12822358 0 95 22
1.0422885 0.26160321 -0.024139225 6 21
1.0812967 0.12732749 -0.049145512 8 20
1.0807753 0.12669973 -0.094557218 90 18
1.0873309 0.12707624 -0.14725064 27 16
1.1200912 0.12845482 0.10442802 14 26
1.0990627 0.12588452 0.049960721 17 24
1.0406805 0.25772116 0.024081198 19 23
1.0853355 0.12414805 0 91 22
1.0455751 0.25875133 -0.024197252 6 21
1.076771 0.12299554 -0.048912596 9 20
1.078715 0.12283836 -0.094333678 90 18
1.0975902 0.12456702 -0.1486268 28 16
1.1205326 0.1245442 0.10442802 14 26
1.0994741 0.1222392 0.049960721 20 24
1.0512362 0.25666186 0.024313306 29 23
1.0907118 0.12108999 0 90 22
1.0391912 0.25330767 -0.024023172 36 21
1.0821383 0.11996444 -0.049145512 9 20
1.0865637 0.11987635 -0.095004298 90 18
1.1004802 0.12100068 -0.14897086 25 16
1.1177115 0.1203011 0.17037807 7 28
1.1209606 0.12063204 0.10442802 15 26
1.0924437 0.11761357 0.049611345 18 24
1.0448834 0.251039 0.024139225 29 23
1.093614 0.11754414 0 91 22
1.0376403 0.24908973 -0.023965145 44 21
1.0825708 0.1159974 -0.049145512 9 20
1.0869755 0.11608281 -0.095004298 90 18
1.100896 0.11715855 -0.14897086 30 16
1.1328886 0.11770646 0.17269614 19 28
1.1238712 0.11677507 0.1046659 14 26
1.0928674 0.11360878 0.049611345 18 24
1.048184 0.24797106 0.024197252 26 23
1.0965246 0.11378814 0 90 22
1.0336841 0.24412479 -0.023849091 50 21
1.0854536 0.11247019 -0.049261972 8 20
1.089871 0.11234839 -0.09522783 91 18
1.0939267 0.11237852 -0.14793873 25 16
1.1308346 0.11350935 0.17230982 18 28
1.1242522 0.11304754 0.1046659 15 26
1.1056838 0.11101606 0.050193641 26 24
1.0539091 0.24545555 0.024313306 25 23
1.096915 0.10995987 0 90 22
1.039354 0.24183963 -0.023965145 52 21
1.0908102 0.10916794 -0.049494889 10 20
1.0852813 0.1082494 -0.094780758 90 18
1.0893642 0.10827047 -0.14725064 24 16
1.1312047 0.10975874 0.17230982 17 28
1.12464 0.10912248 0.1046659 14 26
1.0985875 0.10663992 0.049844261 35 24
1.0571519 0.24252364 0.024371332 24 23
1.0947849 0.10608561 0 91 22
1.0426267 0.2387736 -0.024023172 65 21
1.0837078 0.10484374 -0.049145512 77 20
1.0930896 0.1051608 -0.095451377 90 18
1.0922009 0.10469854 -0.14759469 24 16
1.1463389 0.10716031 0.17462789 14 28
1.1274923 0.10542294 0.10490377 14 26
1.1039269 0.10325976 0.050077178 39 24
1.0579921 0.23883203 0.024371332 23 23
1.0976382 0.10249091 0 90 22
1.0434539 0.23513271 -0.024023172 57 21
1.0865542 0.10128703 -0.049261972 73 20
1.0884902 0.10089494 -0.095004298 90 18
1.0876274 0.10044001 -0.1469066 23 16
1.1344215 0.10187739 0.17269614 12 28
1.1427457 0.10259636 0.10633103 10 26
1.0968348 0.098557413 0.049727805 79 24
1.0588603 0.23495267 0.024371332 22 23
1.1029873 0.098903827 0 90 22
1.0418699 0.23076063 -0.023965145 52 21
1.0844303 0.097086273 -0.049145512 16 20
1.093814 0.097336188 -0.095451377 90 18
1.0929221 0.096880294 -0.14759469 27 16
1.1495376 0.099162139 0.17501421 13 28
1.1381372 0.098188587 0.10585528 10 26
1.0996605 0.094937973 0.049844261 90 24
1.059674 0.23125513 0.024371332 21 23
1.1008347 0.094843447 0 90 22
1.0426689 0.22712244 -0.023965145 47 21
1.0922281 0.093927212 -0.049494889 9 20
1.1015912 0.094138637 -0.096121989 31 18
1.090786 0.092859641 -0.14725064 36 16
1.1375672 0.094154172 0.1730825 13 28
1.1384566 0.094413847 0.10585528 10 26
1.0999854 0.091098867 0.049844261 91 24
1.0653598 0.22861451 0.024487386 22 23
1.1036509 0.091201171 0 34 22
1.0458589 0.22419299 -0.024023172 41 21
1.0950385 0.090314336 -0.049611345 8 20
1.0969331 0.090087458 -0.09567491 9 18
1.0935563 0.089438826 -0.14759469 41 16
1.1477234 0.091144465 0.17462789 13 28
1.1487041 0.09120822 0.10680678 10 26
1.1027712 0.087643571 0.049960721 90 24
1.0636678 0.22455864 0.02442936 21 23
1.0989621 0.087155499 0 8 22
1.0588574 0.22314551 -0.024313306 31 21
1.1003118 0.087066606 -0.049844261 8 20
1.0997238 0.086448058 -0.095898457 8 18
1.0889238 0.085244566 -0.1469066 79 16
1.1406448 0.08659105 0.17346883 7 28
1.1490155 0.087197945 0.10680678 14 26
1.1030704 0.083793655 0.049960721 90 24
1.0595915 0.21963298 0.024313306 20 23
1.1092325 0.084054738 0 8 22
1.0547373 0.21842328 -0.024197252 26 21
1.1006235 0.083033174 -0.049844261 7 20
1.1049856 0.082971774 -0.096345536 7 18
1.0842754 0.081083737 -0.14621851 89 16
1.1483462 0.082929268 0.17462789 10 28
1.1418798 0.082462609 0.10609316 10 26
1.1058612 0.079925209 0.050077178 90 24
1.0652474 0.21694149 0.02442936 20 23
1.1070392 0.079813808 0 8 22
1.0579787 0.2150594 -0.024255278 25 21
1.1058891 0.07953918 -0.050077178 7 20
1.1052823 0.078921244 -0.096345536 7 18
1.0870354 0.077279694 -0.14656255 91 16
1.1486287 0.07892029 0.17462789 8 28
1.14463 0.078841776 0.10633103 10 26
1.0759361 0.2156174 0.073919788 8 25
1.1061336 0.076064549 0.050077178 90 24
1.0659983 0.21322177 0.02442936 20 23
1.1123 0.076281264 0 8 22
1.061136 0.21204515 -0.024313306 25 21
1.1036682 0.075512916 -0.049960721 8 20
1.0394419 0.20746407 -0.070959181 18 19
1.1055379 0.075255558 -0.096345536 8 18
1.0897567 0.073836923 -0.1469066 91 16
1.1587441 0.075736389 0.17617325 13 28
1.1448982 0.074845783 0.10633103 10 26
1.0717534 0.21107346 0.073572747 10 25
1.1088719 0.072554164 0.050193641 90 24
1.0716021 0.21066083 0.024545414 20 23
1.1075568 0.07227663 0 8 22
1.0618697 0.20833981 -0.024313306 24 21
1.1014202 0.071695365 -0.049844261 8 20
1.0548017 0.20693024 -0.07199508 29 19
1.1132492 0.071862489 -0.097016148 8 18
1.0900078 0.070032507 -0.1469066 90 16
1.1713291 0.072430044 0.17810498 13 28
1.1426684 0.070699997 0.10609316 10 26
1.0822738 0.2092465 0.074266829 17 25
1.114104 0.068981856 0.050426558 90 24
1.069914 0.20625317 0.024487386 20 23
1.1127936 0.068708375 0 8 22
1.0674968 0.20558827 -0.02442936 23 21
1.1091542 0.068102293 -0.050193641 8 20
1.0555176 0.20324703 -0.07199508 31 19
1.1060363 0.067535684 -0.096345536 8 18
1.0902457 0.066227242 -0.1469066 90 16
1.1666545 0.067858934 0.17733228 14 28
1.1304961 0.065812498 0.10490377 13 26
1.0879321 0.20621815 0.074613869 17 25
1.111856 0.06475772 0.050310094 90 24
1.0730821 0.20298727 0.024545414 20 23
1.1130379 0.064629316 0 8 22
1.068243 0.2016743 -0.02442936 28 21
1.1068918 0.064090803 -0.050077178 8 20
1.0587051 0.19984518 -0.072167724 31 19
1.1162211 0.064032167 -0.097239695 8 18
1.0929533 0.06236691 -0.14725064 90 16
1.174284 0.06417653 0.17849132 10 28
1.1307189 0.06186593 0.10490377 16 26
1.0837435 0.2014966 0.074266829 15 25
1.1170628 0.06113936 0.050543014 90 24
1.0713277 0.19877879 0.024487386 19 23
1.1132567 0.060743697 0 45 22
1.0738536 0.19886543 -0.024545414 28 21
1.1071088 0.060226642 -0.050077178 8 20
1.0544935 0.19522911 -0.071822427 34 19
1.1114646 0.059877414 -0.096792616 8 18
1.0956374 0.058678847 -0.14759469 90 16
1.1745008 0.060077116 0.17849132 9 28
1.1383849 0.058285918 0.1056174 29 26
1.0917979 0.19907078 0.074787393 15 25
1.1147753 0.057116851 0.050426558 90 24
1.0744731 0.19549085 0.024545414 17 23
1.1184559 0.057102453 0 88 22
1.069625 0.19421171 -0.02442936 25 21
1.1073123 0.056361746 -0.050077178 8 20
1.0649803 0.19335137 -0.072513029 32 19
1.119128 0.056358315 -0.097463235 31 18
1.0958356 0.054854002 -0.14759469 90 16
1.177161 0.056295343 0.17887768 16 28
1.1311139 0.054167997 0.10490377 35 26
1.087544 0.19455987 0.074440353 15 25
1.1224426 0.053763587 0.050775934 90 24
1.0751154 0.19192669 0.024545414 19 23
1.1136444 0.05316465 0 90 22
1.065344 0.1897759 -0.024313306 25 21
1.1174718 0.053144332 -0.050543014 20 20
1.0631613 0.18937577 -0.072340377 32 19
1.1143337 0.052422665 -0.097016148 82 18
1.0984852 0.05133038 -0.14793873 90 16
1.1773503 0.052185941 0.17887768 17 28
1.131296 0.050219342 0.10490377 54 26
1.0931276 0.1916346 0.074787393 14 25
1.1226236 0.049845204 0.050775934 90 24
1.0807338 0.18885636 0.024661468 20 23
1.1188188 0.049488101 0 90 22
1.0709221 0.18692656 -0.02442936 29 21
1.112669 0.048839085 -0.050310094 79 20
1.0638158 0.18566351 -0.072340377 36 19
1.1169978 0.048636001 -0.097239695 89 18
1.1011318 0.047597606 -0.14828277 90 16
1.1775337 0.047870386 0.17887768 12 28
1.1264989 0.045879789 0.10442802 85 26
1.0889084 0.18677266 0.074440353 14 25
1.1203033 0.04563351 0.050659474 88 24
1.0789238 0.18465559 0.024603439 19 23
1.1189926 0.045387097 0 90 22
1.0740628 0.18342644 -0.024487386 31 21
1.1178235 0.045146573 -0.050543014 41 20
1.0595741 0.18091242 -0.07199508 36 19
1.109704 0.044258825 -0.096569069 90 18
1.1012988 0.043561436 -0.14828277 90 16
1.1776936 0.043759733 0.17887768 10 28
1.1316191 0.042320244 0.10490377 89 26
1.0944709 0.18380749 0.074787393 15 25
1.1279428 0.041986715 0.05100885 88 24
1.0770978 0.18046981 0.024545414 18 23
1.1191442 0.041480802 0 90 22
1.0746652 0.17986372 -0.024487386 34 21
1.1254616 0.041505832 -0.05089239 8 20
1.0626582 0.17762952 -0.072167724 30 19
1.1073562 0.040492643 -0.096345536 77 18
1.1014372 0.039909158 -0.14828277 90 16
1.1852382 0.040090743 0.18003669 12 28
1.1342474 0.038449369 0.10514165 90 26
1.0975343 0.18058741 0.07496091 12 25
1.1280758 0.038246091 0.05100885 88 24
1.0850866 0.17812809 0.024719493 18 23
1.1192756 0.037769362 0 44 22
1.0703554 0.17529234 -0.024371332 37 21
1.1255931 0.037773442 -0.05089239 8 20
1.0657016 0.17451327 -0.072340377 28 19
1.1149571 0.036859028 -0.097016148 10 18
1.1015698 0.036064178 -0.14828277 88 16
1.1779642 0.035742473 0.17887768 10 28
1.1368624 0.034560662 0.10537952 89 26
1.1006194 0.17715694 0.075134434 12 25
1.1282024 0.034308143 0.05100885 85 24
1.0931329 0.17535381 0.024893576 15 23
1.1293967 0.034144841 0 9 22
1.0660268 0.17075327 -0.024255278 50 21
1.1182349 0.033438493 -0.050543014 8 20
1.0736896 0.17199232 -0.072858326 30 19
1.1150789 0.032966878 -0.097016148 7 18
1.1091149 0.032421 -0.1493149 66 16
1.1929026 0.03179203 0.18119575 10 28
1.1369814 0.030393623 0.10537952 90 26
1.09141 0.1715509 0.074440353 12 25
1.1408032 0.03048227 0.051591143 35 24
1.0937382 0.17153701 0.024893576 14 23
1.127015 0.029943645 0 8 22
1.0691139 0.16723679 -0.024313306 64 21
1.1283311 0.029778983 -0.05100885 7 20
1.0669231 0.16688286 -0.072340377 32 19
1.130128 0.029236885 -0.098357394 6 18
1.0774003 0.16853987 -0.12083115 8 17
1.1117018 0.028414011 -0.14965895 10 16
1.1793489 0.026943393 0.2649169 8 30
1.1979451 0.027733009 0.18196844 10 28
1.1420519 0.026729932 0.10585528 89 26
1.0969306 0.16850838 0.074787393 10 25
1.1409028 0.02649994 0.051591143 9 24
1.1017392 0.16887033 0.025067655 14 23
1.1296122 0.026062241 0 7 22
1.0671929 0.16330689 -0.024255278 71 21
1.1334217 0.02594479 -0.05124177 7 20
1.0650346 0.16277517 -0.072167724 38 19
1.1277292 0.025437806 -0.098133847 7 18
1.0730734 0.16401634 -0.12026253 18 17
1.1068386 0.02462706 -0.14897086 9 16
1.1672555 0.02281772 0.26209864 8 30
1.205439 0.023893524 0.18312746 9 28
1.1421384 0.022743262 0.10585528 88 26
1.0950178 0.16449393 0.074613869 10 25
1.1409843 0.022716422 0.051591143 8 24
1.0998224 0.16484003 0.02500963 14 23
1.1271927 0.022271663 0 8 22
1.0702275 0.15995574 -0.024313306 74 21
1.1310046 0.022142064 -0.051125307 7 20
1.0581713 0.15811978 -0.071649782 49 19
1.1327904 0.021586316 -0.098580927 7 18
1.0858896 0.16232048 -0.12168407 27 17
1.1118695 0.020846298 -0.14965895 9 16
1.1624572 0.018674236 0.26097134 8 30
1.1956363 0.019542495 0.18158208 9 28
1.1446992 0.018792368 0.10609316 88 26
1.0980523 0.16103797 0.074787393 10 25
1.1385597 0.018697329 0.051474687 8 24
1.0954467 0.1602654 0.024893576 14 23
1.1322631 0.018408448 0 8 22
1.0732516 0.15658537 -0.024371332 73 21
1.1360691 0.018264594 -0.051358223 8 20
1.066118 0.15552199 -0.072167724 60 19
1.1228999 0.017496422 -0.097686768 8 18
1.0889066 0.15889315 -0.12196838 27 17
1.1168875 0.017030712 -0.15034704 9 16
1.1673863 0.014668248 0.26209864 8 30
1.1981671 0.015395984 0.18196844 10 28
1.1447579 0.014796509 0.10609316 90 26
1.1035436 0.15792149 0.075134434 10 25
1.1436123 0.014777819 0.051707603 34 24
1.0935531 0.15589109 0.024835547 10 23
1.1373202 0.014510103 0 8 22
1.0762652 0.15319584 -0.02442936 72 21
1.1336313 0.01407442 -0.05124177 8 20
1.0666543 0.15179959 -0.072167724 64 19
1.1279337 0.013627074 -0.098133847 8 18
1.0894816 0.15490106 -0.12196838 26 17
1.1317967 0.013277154 -0.1524113 9 16
1.1723033 0.010423471 0.26322594 8 30
1.1809262 0.010877639 0.17926401 10 28
1.0987488 0.15350081 0.13117343 10 27
1.1448044 0.010600662 0.10609316 89 26
1.104115 0.15387575 0.075134434 10 25
1.136167 0.010531252 0.051358223 80 24
1.0965654 0.1524225 0.024893576 10 23
1.1323658 0.01030574 0 8 22
1.0768194 0.14925011 -0.02442936 71 21
1.1386678 0.01015209 -0.051474687 7 20
1.0696733 0.14823706 -0.072340377 66 19
1.1279762 0.0094928984 -0.098133847 8 18
1.0850967 0.15040404 -0.12139977 29 17
1.1268854 0.0090985699 -0.15172321 9 16
1.1772039 0.0063483096 0.26435325 8 30
1.176017 0.0067364043 0.17849132 13 28
1.1189429 0.15238629 0.13359696 9 27
1.1448332 0.0068042963 0.10609316 90 26
1.107116 0.15036179 0.07530795 10 25
1.1411914 0.006584404 0.051591143 88 24
1.0946147 0.14825292 0.024835547 12 23
1.1373949 0.006371309 0 12 22
1.0797846 0.14601891 -0.024487386 64 21
1.1337019 0.0061599012 -0.05124177 8 20
1.0701841 0.14450231 -0.072340377 66 19
1.1230215 0.0057366975 -0.097686768 8 18
1.0856152 0.14661543 -0.12139977 32 17
1.134338 0.0053823777 -0.15275535 26 16
1.1796541 0.0024449511 0.2649169 8 30
1.1735631 0.0028352607 0.17810498 15 28
1.1145235 0.14801076 0.13299108 9 27
1.152316 0.0028119502 0.10680678 88 26
1.1150235 0.14768822 0.075828515 10 25
1.1462016 0.0028026556 0.051824059 86 24
1.0951005 0.14462224 0.024835547 10 23
1.1374097 0.0025995364 0 82 22
1.0852419 0.14291257 -0.024603439 30 21
1.1387106 0.0024012479 -0.051474687 7 20
1.0731293 0.1412838 -0.072513029 68 19
1.1329945 0.0018131088 -0.098580927 9 18
1.0934806 0.14400394 -0.12225268 30 17
1.1194928 0.0014331386 -0.15069108 80 16
1.1820911 -0.0016809024 0.26548058 8 30
1.1735659 -0.0012612559 0.17810498 14 28
1.117494 0.14444295 0.13329403 9 27
1.1523188 -0.0012104006 0.10680678 85 26
1.1130595 0.14347096 0.075654998 10 25
1.1462044 -0.0011983516 0.051824059 86 24
1.1005551 0.14144689 0.024951601 15 23
1.1324118 -0.0013550725 0 87 22
1.083256 0.13880029 -0.024545414 9 21
1.1437067 -0.0015901714 -0.051707603 9 20
1.073616 0.137537 -0.072513029 43 19
1.1305041 -0.0021322309 -0.098357394 58 18
1.0964397 0.1405073 -0.122537 24 17
1.1244433 -0.0024953734 -0.15137917 86 16
1.1772069 -0.0057740025 0.26435325 8 30
1.1686143 -0.0053258557 0.17733228 15 28
