# .PCD v0.7 - Point Cloud Data file format
VERSION 0.7
FIELDS x y z intensity ring
SIZE 4 4 4 4 2
TYPE F F F F U
COUNT 1 1 1 1 1
WIDTH 1312
HEIGHT 1
VIEWPOINT 0 0 0 1 0 0 0
POINTS 1312
DATA ascii
0.24126443 0.055054255 -0.22560956 6 3
0.22155416 0.017680362 -0.22133741 16 2
nan nan nan 0 1
nan nan nan 0 0
3.382251 0.75221443 0.91521615 59 31
3.1873863 0.26989925 0.73218524 60 30
3.374994 0.74752915 0.66019207 55 29
1.1495376 0.099162139 0.17501421 13 28
3.3903744 0.74786854 0.41957322 53 27
1.1381372 0.098188587 0.10585528 10 26
3.4025245 0.74931836 0.23997903 41 25
1.0996605 0.094937973 0.049844261 90 24
1.059674 0.23125513 0.024371332 21 23
1.1008347 0.094843447 0 90 22
1.0426689 0.22712244 -0.023965145 47 21
1.0922281 0.093927212 -0.049494889 9 20
3.1205912 0.68473744 -0.21874765 13 19
1.1015912 0.094138637 -0.096121989 31 18
3.2413199 0.71131933 -0.37585592 18 17
1.090786 0.092859641 -0.14725064 36 16
3.339112 0.73405945 -0.58998585 43 15
1.5845188 0.13170078 -0.44502923 64 13
3.423156 0.75320691 -0.79477042 50 14
1.6054027 0.13174488 -0.54508579 38 12
2.9005539 0.64464408 -1.1875916 10 11
1.6768668 0.13201518 -0.87470216 55 9
2.5251992 0.56361228 -1.198916 10 10
1.7029778 0.13109851 -1.011283 67 8
1.7823911 0.40504172 -1.2134706 17 7
1.6216184 0.1199334 -1.2116991 22 6
nan nan nan 0 5
0.25998187 0.020380229 -0.21594018 50 4
0.23811898 0.053418808 -0.22197071 7 3
0.22161452 0.016906887 -0.22133741 18 2
nan nan nan 0 1
nan nan nan 0 0
3.3730595 0.73781425 0.91199356 58 31
3.1810257 0.25818554 0.73049426 60 30
3.372787 0.73469532 0.65924489 55 29
1.1375672 0.094154172 0.1730825 13 28
3.3832648 0.73391813 0.41836146 53 27
1.1384566 0.094413847 0.10585528 10 26
3.3978076 0.73584789 0.23945846 30 25
1.0999854 0.091098867 0.049844261 91 24
1.0653598 0.22861451 0.024487386 22 23
1.1036509 0.091201171 0 34 22
1.0458589 0.22419299 -0.024023172 41 21
1.0950385 0.090314336 -0.049611345 8 20
3.1595252 0.68175894 -0.22133738 9 19
1.0969331 0.090087458 -0.09567491 9 18
3.2462103 0.70052648 -0.37614024 10 17
1.0935563 0.089438826 -0.14759469 41 16
3.004693 0.64929944 -0.52987087 9 15
1.5801764 0.12579435 -0.44365355 71 13
3.4232535 0.74133372 -0.79421228 55 14
1.5964301 0.12541348 -0.54181689 48 12
2.9026756 0.63502192 -1.1875916 10 11
1.6861033 0.12710522 -0.87939221 41 9
2.5271513 0.55479425 -1.198916 10 10
1.6948671 0.12483416 -1.0061102 65 8
1.7797542 0.39790791 -1.210668 17 7
1.6200229 0.11441824 -1.2101845 21 6
nan nan nan 0 5
0.26726142 0.019984458 -0.22285026 47 4
0.24664171 0.054583557 -0.23106785 6 3
0.22489417 0.016365742 -0.22515357 15 2
nan nan nan 0 1
nan nan nan 0 0
3.3707654 0.72560459 0.91070455 58 31
3.1794357 0.24744818 0.72993064 60 30
3.370405 0.72247422 0.65829772 54 29
1.1477234 0.091144465 0.17462789 13 28
3.3784006 0.7211355 0.41745263 53 27
1.1487041 0.09120822 0.10680678 10 26
3.405107 0.72561932 0.2398055 19 25
1.1027712 0.087643571 0.049960721 90 24
1.0636678 0.22455864 0.02442936 21 23
1.0989621 0.087155499 0 8 22
1.0588574 0.22314551 -0.024313306 31 21
1.1003118 0.087066606 -0.049844261 8 20
nan nan nan 0 19
1.0997238 0.086448058 -0.095898457 8 18
3.2849545 0.697523 -0.38040489 8 17
1.0889238 0.085244566 -0.1469066 79 16
3.0020125 0.6383037 -0.52901202 9 15
1.5781881 0.12037423 -0.44296575 68 13
3.4162879 0.72734314 -0.79197979 57 14
1.5921247 0.11977112 -0.54018241 61 12
2.9048748 0.62488586 -1.1875916 10 11
1.6975492 0.1219947 -0.8852548 34 9
2.5289772 0.54641092 -1.198916 10 10
1.6952926 0.1189172 -1.0061102 63 8
1.7830853 0.39245197 -1.2120693 17 7
1.6204126 0.1087626 -1.2101845 21 6
1.4268632 0.3190802 -1.2082518 3 5
0.26191831 0.018720455 -0.2176677 41 4
0.24516001 0.053337183 -0.22924842 7 3
0.218499 0.015215436 -0.21752125 13 2
nan nan nan 0 1
nan nan nan 0 0
3.3591011 0.71082324 0.9068374 52 31
3.1802802 0.23634838 0.72993064 64 30
3.368103 0.7096892 0.65735054 54 29
1.1406448 0.08659105 0.17346883 7 28
3.3687553 0.7067818 0.41593793 53 27
1.1490155 0.087197945 0.10680678 14 26
3.4027376 0.71270287 0.23945846 9 25
1.1030704 0.083793655 0.049960721 90 24
1.0595915 0.21963298 0.024313306 20 23
1.1092325 0.084054738 0 8 22
1.0547373 0.21842328 -0.024197252 26 21
1.1006235 0.083033174 -0.049844261 7 20
nan nan nan 0 19
1.1049856 0.082971774 -0.096345536 7 18
3.292351 0.6864959 -0.38097349 9 17
1.0842754 0.081083737 -0.14621851 89 16
2.999511 0.62628579 -0.5281533 10 15
1.5810161 0.11475965 -0.44365355 66 13
3.4116514 0.71391118 -0.79030544 55 14
1.5901961 0.11376967 -0.53936523 70 12
2.9048784 0.61375368 -1.1866542 10 11
1.7001678 0.1162159 -0.88642734 30 9
2.5309627 0.53713804 -1.198916 10 10
1.6957171 0.11270285 -1.0061102 65 8
1.7845118 0.385914 -1.2120693 16 7
1.6227854 0.10294558 -1.2116991 21 6
1.4298859 0.31426165 -1.2098671 3 5
0.2583769 0.017552929 -0.21421266 48 4
0.24702598 0.052817244 -0.23106785 8 3
0.21693775 0.014366973 -0.21561317 16 2
nan nan nan 0 1
nan nan nan 0 0
3.3545902 0.69702744 0.90490389 55 31
3.1786954 0.22452055 0.72936696 63 30
3.3658748 0.69634163 0.6564033 51 29
1.1483462 0.082929268 0.17462789 10 28
3.3640327 0.69292283 0.41502911 54 27
1.1418798 0.082462609 0.10609316 10 26
3.4688323 0.71333146 0.24397001 4 25
1.1058612 0.079925209 0.050077178 90 24
1.0652474 0.21694149 0.02442936 20 23
1.1070392 0.079813808 0 8 22
1.0579787 0.2150594 -0.024255278 25 21
1.1058891 0.07953918 -0.050077178 7 20
3.5011706 0.71745729 -0.24499044 4 19
1.1052823 0.078921244 -0.096345536 7 18
3.3068917 0.67750061 -0.38239503 9 17
1.0870354 0.077279694 -0.14656255 91 16
3.2260134 0.66202426 -0.5680868 54 15
1.5814071 0.10924017 -0.44365355 64 13
3.3498037 0.6881156 -0.77523601 55 14
1.5905837 0.10821816 -0.53936523 70 12
2.909272 0.60408318 -1.1875916 10 11
1.7027857 0.1101231 -0.88759989 31 9
2.5306075 0.52783579 -1.1978531 10 10
1.6961001 0.106783 -1.0061102 64 8
1.7838235 0.37924889 -1.210668 17 7
1.623135 0.097280383 -1.2116991 21 6
1.4347025 0.31008211 -1.2130978 3 5
0.26204556 0.01684574 -0.2176677 42 4
0.24386196 0.051208362 -0.22742899 7 3
0.22021565 0.013731264 -0.21942933 16 2
nan nan nan 0 1
nan nan nan 0 0
3.3499036 0.68385875 0.90297025 52 31
3.1770296 0.21326204 0.72880328 63 30
3.3562589 0.68213493 0.65403533 51 29
1.1486287 0.07892029 0.17462789 8 28
3.3591354 0.67969429 0.41412029 55 27
1.14463 0.078841776 0.10633103 10 26
1.0759361 0.2156174 0.073919788 8 25
1.1061336 0.076064549 0.050077178 90 24
1.0659983 0.21322177 0.02442936 20 23
1.1123 0.076281264 0 8 22
1.061136 0.21204515 -0.024313306 25 21
1.1036682 0.075512916 -0.049960721 8 20
1.0394419 0.20746407 -0.070959181 18 19
1.1055379 0.075255558 -0.096345536 8 18
3.2946289 0.66300255 -0.38068917 8 17
1.0897567 0.073836923 -0.1469066 91 16
3.2379601 0.65271324 -0.56980437 55 15
1.5721843 0.10310397 -0.44090223 70 13
3.3974457 0.68620276 -0.78584039 52 14
1.5909518 0.10266532 -0.53936523 69 12
2.9089887 0.59396672 -1.1866542 10 11
1.7031416 0.10447584 -0.88759989 34 9
2.5324345 0.51899904 -1.1978531 10 10
1.692173 0.10090938 -1.0035238 65 8
1.7851365 0.37301987 -1.210668 17 7
1.6214626 0.091788039 -1.2101845 20 6
1.4431852 0.30692527 -1.219559 3 5
0.25668558 0.015702393 -0.21248513 52 4
0.23565702 0.048561458 -0.21833181 8 3
0.21541917 0.012777722 -0.21370509 18 2
nan nan nan 0 1
nan nan nan 0 0
3.3474174 0.67179233 0.9016813 52 31
3.1679959 0.20211203 0.72654867 63 30
3.3440619 0.66810548 0.6511938 50 29
1.1587441 0.075736389 0.17617325 13 28
3.3540702 0.66709375 0.41321146 57 27
1.1448982 0.074845783 0.10633103 10 26
1.0717534 0.21107346 0.073572747 10 25
1.1088719 0.072554164 0.050193641 90 24
1.0716021 0.21066083 0.024545414 20 23
1.1075568 0.07227663 0 8 22
1.0618697 0.20833981 -0.024313306 24 21
1.1014202 0.071695365 -0.049844261 8 20
1.0548017 0.20693024 -0.07199508 29 19
1.1132492 0.071862489 -0.097016148 8 18
3.2943733 0.65158987 -0.38040489 9 17
1.0900078 0.070032507 -0.1469066 90 16
3.2328603 0.64053077 -0.56851619 55 15
1.5725178 0.097889863 -0.44090223 68 13
3.1751602 0.6296109 -0.73337662 4 14
1.5889249 0.097248025 -0.53854799 63 12
2.9065006 0.58289337 -1.1847795 10 11
1.7101096 0.098903358 -0.89111745 35 9
2.5341418 0.51059842 -1.1978531 10 10
1.7010603 0.095469274 -1.0086967 64 8
1.7883911 0.36751795 -1.2120693 16 7
1.6237594 0.086229876 -1.2116991 20 6
1.4423808 0.30149165 -1.2179438 3 5
0.25854394 0.014891424 -0.21421266 49 4
0.23917702 0.048462048 -0.22197071 8 3
0.22030401 0.012231997 -0.21942933 19 2
nan nan nan 0 1
nan nan nan 0 0
3.3497417 0.66010356 0.9016813 58 31
3.1638196 0.1907627 0.72542143 63 30
3.3439648 0.65595418 0.65072018 53 29
1.1713291 0.072430044 0.17810498 13 28
3.3515077 0.65442711 0.41260558 54 27
1.1426684 0.070699997 0.10609316 10 26
1.0822738 0.2092465 0.074266829 17 25
1.114104 0.068981856 0.050426558 90 24
1.069914 0.20625317 0.024487386 20 23
1.1127936 0.068708375 0 8 22
1.0674968 0.20558827 -0.02442936 23 21
1.1091542 0.068102293 -0.050193641 8 20
1.0555176 0.20324703 -0.07199508 31 19
1.1060363 0.067535684 -0.096345536 8 18
3.2943013 0.63903618 -0.38012058 9 17
1.0902457 0.066227242 -0.1469066 90 16
3.2303517 0.62773424 -0.56765741 57 15
1.5752656 0.092262737 -0.44159007 68 13
3.1534226 0.61384887 -0.72779536 3 14
1.5916297 0.091555975 -0.53936523 59 12
2.9108911 0.57268608 -1.1857169 10 11
1.7126491 0.09305007 -0.89228994 38 9
2.5359964 0.50130689 -1.1978531 10 10
1.7249032 0.090432845 -1.0229218 34 8
1.7876972 0.36054829 -1.210668 16 7
1.6220778 0.080182843 -1.2101845 16 6
nan nan nan 0 5
0.25679135 0.013865204 -0.21248513 49 4
0.23767576 0.047229499 -0.22015125 9 3
0.22034535 0.011462919 -0.21942933 19 2
nan nan nan 0 1
nan nan nan 0 0
3.3450248 0.64644146 0.89974773 55 31
3.1596334 0.17889349 0.72429407 63 30
3.3439362 0.64322811 0.65024656 54 29
1.1666545 0.067858934 0.17733228 14 28
3.339262 0.63932842 0.41078794 57 27
1.1304961 0.065812498 0.10490377 13 26
1.0879321 0.20621815 0.074613869 17 25
1.111856 0.06475772 0.050310094 90 24
1.0730821 0.20298727 0.024545414 20 23
1.1130379 0.064629316 0 8 22
1.068243 0.2016743 -0.02442936 28 21
1.1068918 0.064090803 -0.050077178 8 20
1.0587051 0.19984518 -0.072167724 31 19
1.1162211 0.064032167 -0.097239695 8 18
3.2916324 0.6266005 -0.37955195 9 17
1.0929533 0.06236691 -0.14725064 90 16
3.1720507 0.60487479 -0.55692255 57 15
1.5779779 0.086892188 -0.44227788 70 13
nan nan nan 0 14
1.5919397 0.085999593 -0.53936523 55 12
2.9083221 0.56163877 -1.1838422 10 11
1.7107735 0.086663648 -0.89111745 39 9
2.5355098 0.49201822 -1.1967901 10 10
1.7722253 0.086644962 -1.0513723 20 8
1.7950358 0.35552189 -1.2148718 17 7
1.6143999 0.074167669 -1.204126 10 6
nan nan nan 0 5
0.26586655 0.013329787 -0.22112274 48 4
0.23951769 0.046749305 -0.22197071 12 3
0.22361447 0.010769673 -0.22324549 19 2
nan nan nan 0 1
nan nan nan 0 0
3.3306508 0.63159865 0.89523607 50 31
3.1529419 0.16748083 0.72260314 51 30
3.3365142 0.62972355 0.64835221 52 29
1.174284 0.06417653 0.17849132 10 28
3.3341577 0.62628865 0.40987912 57 27
1.1307189 0.06186593 0.10490377 16 26
1.0837435 0.2014966 0.074266829 15 25
1.1170628 0.06113936 0.050543014 90 24
1.0713277 0.19877879 0.024487386 19 23
1.1132567 0.060743697 0 45 22
1.0738536 0.19886543 -0.024545414 28 21
1.1071088 0.060226642 -0.050077178 8 20
1.0544935 0.19522911 -0.071822427 34 19
1.1114646 0.059877414 -0.096792616 8 18
3.2937994 0.61510676 -0.37955195 9 17
1.0956374 0.058678847 -0.14759469 90 16
3.2007685 0.59880066 -0.56164593 55 15
1.5758713 0.081263162 -0.44159007 67 13
2.8128648 0.52641582 -0.64742529 5 14
1.5875103 0.080210507 -0.53773081 41 12
2.9079881 0.55104995 -1.1829048 9 11
1.7176825 0.080994196 -0.89463496 40 9
2.5372119 0.48316464 -1.1967901 10 10
nan nan nan 0 8
1.7901706 0.34805912 -1.210668 16 7
1.6325346 0.06926278 -1.2177576 9 6
nan nan nan 0 5
0.25868782 0.012138043 -0.21421266 47 4
0.23631997 0.045225196 -0.21833181 14 3
0.21880725 0.009834297 -0.21752125 20 2
nan nan nan 0 1
nan nan nan 0 0
3.330461 0.61952525 0.89459157 52 31
3.1462092 0.15611705 0.72091216 23 30
3.3290384 0.61627865 0.64645779 57 29
1.1745008 0.060077116 0.17849132 9 28
3.3314428 0.6137436 0.40927321 58 27
1.1383849 0.058285918 0.1056174 29 26
1.0917979 0.19907078 0.074787393 15 25
1.1147753 0.057116851 0.050426558 90 24
1.0744731 0.19549085 0.024545414 17 23
1.1184559 0.057102453 0 88 22
1.069625 0.19421171 -0.02442936 25 21
1.1073123 0.056361746 -0.050077178 8 20
1.0649803 0.19335137 -0.072513029 32 19
1.119128 0.056358315 -0.097463235 31 18
3.2983696 0.60405475 -0.37983626 8 17
1.0958356 0.054854002 -0.14759469 90 16
3.0211835 0.55415314 -0.52944148 8 15
1.5761454 0.07576184 -0.44159007 70 13
2.8122892 0.51615191 -0.64686722 4 14
1.5972215 0.075098924 -0.54099965 40 12
2.8142083 0.52302325 -1.1435372 5 11
1.7201607 0.075091101 -0.89580756 34 9
2.5411067 0.47472295 -1.1978531 10 10
nan nan nan 0 8
1.7934079 0.3421993 -1.2120693 16 7
1.6287912 0.063415207 -1.2147284 7 6
nan nan nan 0 5
0.26053473 0.011294579 -0.21594018 49 4
0.2381573 0.044738017 -0.22015125 17 3
0.22368422 0.0092083002 -0.22324549 19 2
nan nan nan 0 1
nan nan nan 0 0
3.3182416 0.60586381 0.89072448 50 31
3.1442764 0.14557207 0.72034854 5 30
3.3262341 0.60435462 0.64551067 57 29
1.177161 0.056295343 0.17887768 16 28
3.3212516 0.60047638 0.40775853 49 27
1.1311139 0.054167997 0.10490377 35 26
1.087544 0.19455987 0.074440353 15 25
1.1224426 0.053763587 0.050775934 90 24
1.0751154 0.19192669 0.024545414 19 23
1.1136444 0.05316465 0 90 22
1.065344 0.1897759 -0.024313306 25 21
1.1174718 0.053144332 -0.050543014 20 20
1.0631613 0.18937577 -0.072340377 32 19
1.1143337 0.052422665 -0.097016148 82 18
3.3174646 0.59620142 -0.3818264 9 17
1.0984852 0.05133038 -0.14793873 90 16
2.9648395 0.5336135 -0.51913601 8 15
1.5739865 0.070430733 -0.44090223 67 13
nan nan nan 0 14
1.6045433 0.070101216 -0.54345131 38 12
2.8478417 0.51953983 -1.1566598 5 11
1.7402573 0.070159666 -0.90636027 30 9
2.5426669 0.46629375 -1.1978531 10 10
2.0146246 0.077377081 -1.197504 15 8
1.7924982 0.33586589 -1.210668 16 7
1.6289926 0.058013588 -1.2147284 3 6
nan nan nan 0 5
0.2641834 0.010537773 -0.21939522 52 4
0.23662235 0.04361558 -0.21833181 20 3
0.21886915 0.0083447071 -0.21752125 22 2
nan nan nan 0 1
nan nan nan 0 0
3.3132043 0.59299529 0.88879091 50 31
1.7966199 0.077855848 0.40808475 3 30
3.3186579 0.59101158 0.64361626 55 29
1.1773503 0.052185941 0.17887768 17 28
3.3233275 0.58887935 0.40775853 27 27
1.131296 0.050219342 0.10490377 54 26
1.0931276 0.1916346 0.074787393 14 25
1.1226236 0.049845204 0.050775934 90 24
1.0807338 0.18885636 0.024661468 20 23
1.1188188 0.049488101 0 90 22
1.0709221 0.18692656 -0.02442936 29 21
1.112669 0.048839085 -0.050310094 79 20
1.0638158 0.18566351 -0.072340377 36 19
1.1169978 0.048636001 -0.097239695 89 18
3.3269653 0.58533484 -0.38267937 9 17
1.1011318 0.047597606 -0.14828277 90 16
nan nan nan 0 15
1.5718324 0.064566106 -0.44021437 69 13
3.3148198 0.58553821 -0.76295727 36 14
1.6095114 0.064402029 -0.54508579 36 12
2.8155096 0.50295419 -1.1425998 3 11
1.7471113 0.064319246 -0.90987778 46 9
2.537679 0.4557645 -1.1946645 10 10
2.023448 0.07027933 -1.2026768 15 8
1.7937173 0.32929373 -1.210668 16 7
nan nan nan 0 6
nan nan nan 0 5
0.26060724 0.0094754426 -0.21594018 46 4
0.24183027 0.043726835 -0.22379012 24 3
0.22374171 0.0076855281 -0.22324549 23 2
nan nan nan 0 1
nan nan nan 0 0
3.3058395 0.57917339 0.88621283 50 31
1.7822902 0.0707094 0.40470284 4 30
3.3135476 0.57757413 0.64219546 57 29
1.1775337 0.047870386 0.17887768 12 28
3.3254635 0.57669485 0.40775853 7 27
1.1264989 0.045879789 0.10442802 85 26
1.0889084 0.18677266 0.074440353 14 25
1.1203033 0.04563351 0.050659474 88 24
1.0789238 0.18465559 0.024603439 19 23
1.1189926 0.045387097 0 90 22
1.0740628 0.18342644 -0.024487386 31 21
1.1178235 0.045146573 -0.050543014 41 20
1.0595741 0.18091242 -0.07199508 36 19
1.109704 0.044258825 -0.096569069 90 18
3.3240933 0.57287073 -0.38211071 8 17
1.1012988 0.043561436 -0.14828277 90 16
2.7962923 0.48250061 -0.48864913 9 15
1.5768523 0.059252631 -0.44159007 58 13
3.3481565 0.57880425 -0.77021289 57 14
1.6168098 0.059031989 -0.54753745 32 12
2.8537691 0.49954963 -1.1575971 5 11
1.7429215 0.057775076 -0.90753275 57 9
2.5503953 0.44887602 -1.1999788 10 10
2.0322351 0.063472621 -1.2078496 15 8
1.7928189 0.32266068 -1.2092669 16 7
nan nan nan 0 6
0.28244758 0.049422562 -0.21322091 3 5
0.26425207 0.0086470628 -0.21939522 47 4
0.24535012 0.043523207 -0.22742899 25 3
0.22376838 0.0068654218 -0.22324549 23 2
nan nan nan 0 1
nan nan nan 0 0
3.3030803 0.56680971 0.88492376 51 31
1.7703555 0.064062595 0.40188456 5 30
3.305866 0.56434476 0.64030105 58 29
1.1776936 0.043759733 0.17887768 10 28
1.6371007 0.2767528 0.19842632 5 27
1.1316191 0.042320244 0.10490377 89 26
1.0944709 0.18380749 0.074787393 15 25
1.1279428 0.041986715 0.05100885 88 24
1.0770978 0.18046981 0.024545414 18 23
1.1191442 0.041480802 0 90 22
1.0746652 0.17986372 -0.024487386 34 21
1.1254616 0.041505832 -0.05089239 8 20
1.0626582 0.17762952 -0.072167724 30 19
1.1073562 0.040492643 -0.096345536 77 18
3.3358684 0.56292427 -0.38324797 7 17
1.1014372 0.039909158 -0.14828277 90 16
nan nan nan 0 15
1.581854 0.053904891 -0.44296575 47 13
3.3476551 0.56728923 -0.76965481 59 14
1.6288136 0.053761039 -0.55162352 29 12
2.8576937 0.49047753 -1.1585344 3 11
1.7431035 0.051995024 -0.90753275 53 9
2.5474873 0.43919733 -1.1978531 10 10
2.0324345 0.056733139 -1.2078496 15 8
1.7980109 0.31712604 -1.2120693 17 7
nan nan nan 0 6
0.27134666 0.046434719 -0.20352906 4 5
0.25885892 0.0076666479 -0.21421266 50 4
0.24549311 0.042709358 -0.22742899 25 3
0.22863533 0.0061943838 -0.22896972 19 2
nan nan nan 0 1
nan nan nan 0 0
3.3001785 0.55504835 0.88363481 53 31
1.7583859 0.05780689 0.39906633 14 30
3.3028777 0.55256534 0.63935393 58 29
1.1852382 0.040090743 0.18003669 12 28
1.6208763 0.2684584 0.19630574 8 27
1.1342474 0.038449369 0.10514165 90 26
1.0975343 0.18058741 0.07496091 12 25
1.1280758 0.038246091 0.05100885 88 24
1.0850866 0.17812809 0.024719493 18 23
1.1192756 0.037769362 0 44 22
1.0703554 0.17529234 -0.024371332 37 21
1.1255931 0.037773442 -0.05089239 8 20
1.0657016 0.17451327 -0.072340377 28 19
1.1149571 0.036859028 -0.097016148 10 18
3.3671191 0.55674243 -0.38665965 9 17
1.1015698 0.036064178 -0.14828277 88 16
nan nan nan 0 15
1.5916339 0.048940834 -0.44571707 46 13
3.3424037 0.55439872 -0.7679804 60 14
1.6431532 0.048760161 -0.55652684 26 12
2.8753853 0.48320207 -1.1650957 3 11
nan nan nan 0 9
2.5511606 0.43112642 -1.198916 10 10
2.0347588 0.049687926 -1.2091427 14 8
1.797013 0.31080592 -1.210668 17 7
nan nan nan 0 6
0.27714229 0.046493065 -0.20837499 4 5
0.26430479 0.00684817 -0.21939522 48 4
0.2439542 0.041543245 -0.22560956 27 3
0.22380993 0.0053421315 -0.22324549 20 2
nan nan nan 0 1
nan nan nan 0 0
3.2949462 0.54234284 0.88170117 53 31
1.7439691 0.051258035 0.39568439 8 30
3.2950978 0.5394392 0.63745952 58 29
1.1779642 0.035742473 0.17887768 10 28
1.6120073 0.26119643 0.19509397 10 27
1.1368624 0.034560662 0.10537952 89 26
1.1006194 0.17715694 0.075134434 12 25
1.1282024 0.034308143 0.05100885 85 24
1.0931329 0.17535381 0.024893576 15 23
1.1293967 0.034144841 0 9 22
1.0660268 0.17075327 -0.024255278 50 21
1.1182349 0.033438493 -0.050543014 8 20
1.0736896 0.17199232 -0.072858326 30 19
1.1150789 0.032966878 -0.097016148 7 18
nan nan nan 0 17
1.1091149 0.032421 -0.1493149 66 16
nan nan nan 0 15
1.6110245 0.043600146 -0.45121974 42 13
3.3371029 0.54155177 -0.76630604 61 14
1.6456827 0.042795513 -0.55734408 30 12
2.883997 0.47379324 -1.1679077 4 11
2.2776327 0.051294617 -1.1912833 13 9
2.5482593 0.42103079 -1.1967901 10 10
2.0349274 0.042229831 -1.2091427 15 8
1.8001809 0.30456591 -1.2120693 17 7
nan nan nan 0 6
0.27355161 0.044820208 -0.20514438 4 5
0.26071414 0.005835874 -0.21594018 50 4
0.24916765 0.041557036 -0.23106785 25 3
0.22221196 0.0045484528 -0.22133741 22 2
nan nan nan 0 1
nan nan nan 0 0
3.2897584 0.52910656 0.87976766 52 31
nan nan nan 0 30
3.2897816 0.52618992 0.63603872 59 29
1.1929026 0.03179203 0.18119575 10 28
1.5933498 0.25215334 0.19267043 10 27
1.1369814 0.030393623 0.10537952 90 26
1.09141 0.1715509 0.074440353 12 25
1.1408032 0.03048227 0.051591143 35 24
1.0937382 0.17153701 0.024893576 14 23
1.127015 0.029943645 0 8 22
1.0691139 0.16723679 -0.024313306 64 21
1.1283311 0.029778983 -0.05100885 7 20
1.0669231 0.16688286 -0.072340377 32 19
1.130128 0.029236885 -0.098357394 6 18
1.0774003 0.16853987 -0.12083115 8 17
1.1117018 0.028414011 -0.14965895 10 16
nan nan nan 0 15
1.6183754 0.038136166 -0.45328325 59 13
3.3342524 0.52855045 -0.76518977 61 14
1.659995 0.037350103 -0.5622474 36 12
2.9039371 0.4666813 -1.1754062 6 11
2.2778056 0.042946331 -1.1912833 13 9
2.5519469 0.41249648 -1.1978531 10 10
2.0307839 0.035057645 -1.2065564 15 8
1.7991911 0.29793891 -1.210668 17 7
nan nan nan 0 6
0.28122935 0.045152344 -0.21160561 4 5
0.26434702 0.004956685 -0.21939522 50 4
0.24086793 0.039202809 -0.22197071 27 3
0.22545773 0.0037469426 -0.22515357 23 2
nan nan nan 0 1
nan nan nan 0 0
3.2820418 0.51611185 0.87718958 52 31
1.1793489 0.026943393 0.2649169 8 30
3.2843235 0.51356012 0.63461792 60 29
1.1979451 0.027733009 0.18196844 10 28
1.5819613 0.24467462 0.19115575 10 27
1.1420519 0.026729932 0.10585528 89 26
1.0969306 0.16850838 0.074787393 10 25
1.1409028 0.02649994 0.051591143 9 24
1.1017392 0.16887033 0.025067655 14 23
1.1296122 0.026062241 0 7 22
1.0671929 0.16330689 -0.024255278 71 21
1.1334217 0.02594479 -0.05124177 7 20
1.0650346 0.16277517 -0.072167724 38 19
1.1277292 0.025437806 -0.098133847 7 18
1.0730734 0.16401634 -0.12026253 18 17
1.1068386 0.02462706 -0.14897086 9 16
nan nan nan 0 15
1.6401267 0.0328907 -0.45947376 40 13
3.3311713 0.51674014 -0.76407349 60 14
1.6624774 0.031597055 -0.56306463 36 12
2.9100466 0.45777327 -1.1772809 7 11
2.2757277 0.035360634 -1.1901108 13 9
2.553371 0.40358603 -1.1978531 10 10
2.0351677 0.028377648 -1.2091427 15 8
1.8022633 0.291991 -1.2120693 17 7
0.56787437 0.0080011822 -0.40591919 5 6
0.27573216 0.043272763 -0.20675968 4 5
0.26074782 0.0040611275 -0.21594018 49 4
0.24775511 0.039568815 -0.22924842 30 3
0.22869954 0.0030015328 -0.22896972 24 2
nan nan nan 0 1
nan nan nan 0 0
3.2789612 0.50448716 0.87590057 53 31
1.1672555 0.02281772 0.26209864 8 30
3.2787302 0.50154716 0.63319713 61 29
1.205439 0.023893524 0.18312746 9 28
1.558233 0.23567794 0.18812634 9 27
1.1421384 0.022743262 0.10585528 88 26
1.0950178 0.16449393 0.074613869 10 25
1.1409843 0.022716422 0.051591143 8 24
1.0998224 0.16484003 0.02500963 14 23
1.1271927 0.022271663 0 8 22
1.0702275 0.15995574 -0.024313306 74 21
1.1310046 0.022142064 -0.051125307 7 20
1.0581713 0.15811978 -0.071649782 49 19
1.1327904 0.021586316 -0.098580927 7 18
1.0858896 0.16232048 -0.12168407 27 17
1.1118695 0.020846298 -0.14965895 9 16
1.6175103 0.24356434 -0.2791054 22 15
1.6258073 0.027230177 -0.45534676 53 13
3.3281364 0.50437516 -0.76295727 60 14
1.6649356 0.02611772 -0.56388181 35 12
2.9253695 0.44973752 -1.1829048 9 11
2.2603824 0.027246706 -1.1819031 13 9
2.5546954 0.39511651 -1.1978531 10 10
2.0331151 0.021253625 -1.2078496 15 8
1.8032218 0.28601286 -1.2120693 18 7
0.57983232 0.00609178 -0.41500697 6 6
0.28529596 0.043855064 -0.21483622 4 5
0.26437461 0.003157231 -0.21939522 51 4
0.24451046 0.038133062 -0.22560956 34 3
0.22063211 0.0022257583 -0.21942933 24 2
nan nan nan 0 1
nan nan nan 0 0
3.2711482 0.49159521 0.87332243 53 31
1.1624572 0.018674236 0.26097134 8 30
3.2756052 0.48937005 0.63224995 60 29
1.1956363 0.019542495 0.18158208 9 28
nan nan nan 0 27
1.1446992 0.018792368 0.10609316 88 26
1.0980523 0.16103797 0.074787393 10 25
1.1385597 0.018697329 0.051474687 8 24
1.0954467 0.1602654 0.024893576 14 23
1.1322631 0.018408448 0 8 22
1.0732516 0.15658537 -0.024371332 73 21
1.1360691 0.018264594 -0.051358223 8 20
1.066118 0.15552199 -0.072167724 60 19
1.1228999 0.017496422 -0.097686768 8 18
1.0889066 0.15889315 -0.12196838 27 17
1.1168875 0.017030712 -0.15034704 9 16
1.6037341 0.23574527 -0.27652904 37 15
1.6379093 0.02169751 -0.45878595 66 13
3.3202353 0.49132067 -0.76072478 60 14
1.6886418 0.020561511 -0.57205403 62 12
2.9337962 0.44056183 -1.1857169 10 11
nan nan nan 0 9
2.5515852 0.38551593 -1.1957273 10 10
2.0267584 0.014119631 -1.20397 15 8
1.8021636 0.27939638 -1.210668 16 7
0.58780581 0.0040885783 -0.42106545 6 6
0.28167939 0.042254053 -0.21160561 4 5
0.26619115 0.0022312182 -0.22112274 54 4
0.24971694 0.038117647 -0.23106785 30 3
0.2222538 0.0014454456 -0.22133741 26 2
nan nan nan 0 1
nan nan nan 0 0
3.2656753 0.47911644 0.87138891 54 31
1.1673863 0.014668248 0.26209864 8 30
3.2748652 0.47757706 0.63177639 61 29
1.1981671 0.015395984 0.18196844 10 28
nan nan nan 0 27
1.1447579 0.014796509 0.10609316 90 26
1.1035436 0.15792149 0.075134434 10 25
1.1436123 0.014777819 0.051707603 34 24
1.0935531 0.15589109 0.024835547 10 23
1.1373202 0.014510103 0 8 22
1.0762652 0.15319584 -0.02442936 72 21
1.1336313 0.01407442 -0.05124177 8 20
1.0666543 0.15179959 -0.072167724 64 19
1.1279337 0.013627074 -0.098133847 8 18
1.0894816 0.15490106 -0.12196838 26 17
1.1317967 0.013277154 -0.1524113 9 16
1.5997125 0.22915974 -0.27567026 42 15
1.6379778 0.015694126 -0.45878595 50 13
3.3050485 0.47727713 -0.75681788 62 14
1.6934309 0.014406005 -0.57368851 79 12
2.9353912 0.42980596 -1.1857169 10 11
nan nan nan 0 9
2.5529811 0.37616131 -1.1957273 10 10
2.0203779 0.0066776532 -1.2000904 13 8
1.8052223 0.27310207 -1.2120693 17 7
0.60173947 0.0019195555 -0.4316678 9 6
0.27994734 0.040925838 -0.20999029 5 5
0.25896919 0.0012946733 -0.21421266 49 4
0.24816233 0.036928896 -0.22924842 30 3
0.22064225 0.00068541395 -0.21942933 20 2
nan nan nan 0 1
nan nan nan 0 0
3.260237 0.46611285 0.86945534 53 31
1.1723033 0.010423471 0.26322594 8 30
3.2693033 0.46452945 0.63035554 57 29
1.1809262 0.010877639 0.17926401 10 28
1.0987488 0.15350081 0.13117343 10 27
1.1448044 0.010600662 0.10609316 89 26
1.104115 0.15387575 0.075134434 10 25
1.136167 0.010531252 0.051358223 80 24
1.0965654 0.1524225 0.024893576 10 23
1.1323658 0.01030574 0 8 22
1.0768194 0.14925011 -0.02442936 71 21
1.1386678 0.01015209 -0.051474687 7 20
1.0696733 0.14823706 -0.072340377 66 19
1.1279762 0.0094928984 -0.098133847 8 18
1.0850967 0.15040404 -0.12139977 29 17
1.1268854 0.0090985699 -0.15172321 9 16
1.6005026 0.22357431 -0.27567026 51 15
1.6211981 0.009897138 -0.45397109 30 13
nan nan nan 0 14
1.693471 0.0084947404 -0.57368851 49 12
2.9322858 0.41889742 -1.1838422 10 11
nan nan nan 0 9
2.5542784 0.36724743 -1.1957273 10 10
nan nan nan 0 8
1.8061645 0.26679897 -1.2120693 17 7
0.60373145 -0.0001899444 -0.43318242 10 6
0.28951886 0.041393127 -0.21806686 5 5
0.26258624 0.0003585238 -0.2176677 47 4
0.24490258 0.035527769 -0.22560956 29 3
0.22064328 -0.00012328499 -0.21942933 21 2
nan nan nan 0 1
nan nan nan 0 0
3.2594516 0.45439434 0.86881083 54 31
1.1772039 0.0063483096 0.26435325 8 30
3.2684736 0.45277596 0.62988198 60 29
1.176017 0.0067364043 0.17849132 13 28
1.1189429 0.15238629 0.13359696 9 27
1.1448332 0.0068042963 0.10609316 90 26
1.107116 0.15036179 0.07530795 10 25
1.1411914 0.006584404 0.051591143 88 24
1.0946147 0.14825292 0.024835547 12 23
1.1373949 0.006371309 0 12 22
1.0797846 0.14601891 -0.024487386 64 21
1.1337019 0.0061599012 -0.05124177 8 20
1.0701841 0.14450231 -0.072340377 66 19
1.1230215 0.0057366975 -0.097686768 8 18
1.0856152 0.14661543 -0.12139977 32 17
1.134338 0.0053823777 -0.15275535 26 16
1.5963935 0.21731423 -0.27481145 58 15
1.6043983 0.004217485 -0.44915622 31 13
3.0548289 0.41920048 -0.69821471 1 14
1.6840397 0.0025817219 -0.57041961 38 12
2.9359539 0.40949342 -1.1847795 10 11
1.7637483 -0.0028417949 -0.91808546 40 9
2.557785 0.35864556 -1.1967901 10 10
1.8021461 -0.0060462765 -1.0681839 32 8
1.8050359 0.26019415 -1.210668 17 7
0.58980531 -0.0020826424 -0.42258006 9 6
0.2877675 0.040150125 -0.21645153 5 5
0.25897202 -0.00046809088 -0.21421266 50 4
0.24332461 0.034453735 -0.22379012 32 3
0.21902658 -0.0008279006 -0.21752125 24 2
nan nan nan 0 1
nan nan nan 0 0
3.2537613 0.44260091 0.86687726 54 31
1.1796541 0.0024449511 0.2649169 8 30
3.26266 0.440943 0.62846118 59 29
1.1735631 0.0028352607 0.17810498 15 28
1.1145235 0.14801076 0.13299108 9 27
1.152316 0.0028119502 0.10680678 88 26
1.1150235 0.14768822 0.075828515 10 25
1.1462016 0.0028026556 0.051824059 86 24
1.0951005 0.14462224 0.024835547 10 23
1.1374097 0.0025995364 0 82 22
1.0852419 0.14291257 -0.024603439 30 21
1.1387106 0.0024012479 -0.051474687 7 20
1.0731293 0.1412838 -0.072513029 68 19
1.1329945 0.0018131088 -0.098580927 9 18
1.0934806 0.14400394 -0.12225268 30 17
1.1194928 0.0014331386 -0.15069108 80 16
1.5897827 0.21103565 -0.27352327 55 15
1.5899823 -0.0010727111 -0.44502923 40 13
nan nan nan 0 14
1.6698631 -0.0029582349 -0.56551629 36 12
2.9373653 0.39924255 -1.1847795 10 11
1.7526879 -0.0089271162 -0.91222286 65 9
2.5589602 0.3501617 -1.1967901 10 10
1.7956954 -0.01228425 -1.0643042 37 8
1.8038394 0.25391534 -1.2092669 17 7
0.59973854 -0.0042542508 -0.43015319 10 6
0.28979391 0.039421491 -0.21806686 5 5
0.2625826 -0.0014288388 -0.2176677 49 4
0.24513873 0.033859957 -0.22560956 32 3
0.22225231 -0.0016578429 -0.22133741 23 2
nan nan nan 0 1
nan nan nan 0 0
3.2504973 0.43060234 0.86558819 53 31
1.1820911 -0.0016809024 0.26548058 8 30
3.2544453 0.42826307 0.62656683 59 29
1.1735659 -0.0012612559 0.17810498 14 28
1.117494 0.14444295 0.13329403 9 27
1.1523188 -0.0012104006 0.10680678 85 26
1.1130595 0.14347096 0.075654998 10 25
1.1462044 -0.0011983516 0.051824059 86 24
1.1005551 0.14144689 0.024951601 15 23
1.1324118 -0.0013550725 0 87 22
1.083256 0.13880029 -0.024545414 9 21
1.1437067 -0.0015901714 -0.051707603 9 20
1.073616 0.137537 -0.072513029 43 19
1.1305041 -0.0021322309 -0.098357394 58 18
1.0964397 0.1405073 -0.122537 24 17
1.1244433 -0.0024953734 -0.15137917 86 16
1.5905095 0.20548499 -0.27352327 47 15
1.5875654 -0.0066093551 -0.44434142 41 13
1.6683223 0.21593782 -0.37729269 25 14
1.6603922 -0.0087244473 -0.5622474 36 12
2.9364438 0.3886807 -1.1838422 10 11
1.7548541 -0.015067051 -0.9133954 71 9
2.5624099 0.34152836 -1.1978531 10 10
1.7849445 -0.01842723 -1.0578382 35 8
1.8047147 0.2476172 -1.2092669 18 7
0.59574258 -0.0062886919 -0.42712393 9 6
0.2842629 0.037601147 -0.21322091 5 5
0.26438278 -0.0023801059 -0.21939522 50 4
0.24016669 0.032254435 -0.22015125 35 3
0.22386003 -0.002471976 -0.22324549 23 2
nan nan nan 0 1
nan nan nan 0 0
3.24719 0.418632 0.86429924 54 31
1.1772069 -0.0057740025 0.26435325 8 30
3.2486165 0.41595954 0.62514603 59 29
1.1686143 -0.0053258557 0.17733228 15 28
1.1253757 0.14148596 0.13420284 9 27
1.149819 -0.0052166656 0.10656891 87 26
1.1110796 0.13926917 0.075481474 10 25
1.1511875 -0.0052315965 0.052056976 84 24
1.0961072 0.13678221 0.024835547 23 23
1.1399001 -0.0053576613 0 87 22
1.0911721 0.13596182 -0.024719493 8 21
1.1337042 -0.0057123182 -0.05124177 63 20
1.0765637 0.13410243 -0.072685681 27 19
1.1279999 -0.0060601607 -0.098133847 88 18
1.0920192 0.13586338 -0.12196838 24 17
1.1244277 -0.0064203981 -0.15137917 86 16
1.5814793 0.19841257 -0.2718057 43 15
1.5755134 -0.012316864 -0.44090223 25 13
1.661814 0.2091891 -0.37561834 37 14
1.6508989 -0.014712714 -0.5589785 37 12
2.9378488 0.37791547 -1.1838422 10 11
1.7569984 -0.021222215 -0.91456789 64 9
2.5636442 0.33213437 -1.1978531 10 10
1.7805865 -0.024903536 -1.0552518 35 8
1.8117653 0.24183205 -1.2134706 18 7
0.5996927 -0.0085457442 -0.43015319 10 6
0.28817862 0.037084192 -0.21645153 6 5
0.2571457 -0.0031838457 -0.21248513 48 4
0.24367762 0.031861279 -0.22379012 32 3
0.22223534 -0.0032094037 -0.22133741 24 2
nan nan nan 0 1
nan nan nan 0 0
3.2415133 0.40582192 0.86236566 54 31
1.1771778 -0.010088643 0.26435325 6 30
3.2476835 0.40374526 0.62467241 61 29
1.1562377 -0.0094839921 0.17540057 24 28
1.1308122 0.13797203 0.13480872 9 27
1.1522807 -0.0094561195 0.10680678 86 26
1.1091075 0.13488939 0.07530795 10 25
1.1511606 -0.0094508752 0.052056976 84 24
1.0990585 0.13326159 0.024893576 27 23
1.1423727 -0.0095613105 0 87 22
1.0941437 0.13226701 -0.024777522 8 21
1.1411688 -0.0097481031 -0.051591143 42 20
1.0745726 0.12985092 -0.072513029 39 19
1.1354396 -0.010276582 -0.098804474 86 18
1.0900215 0.13174713 -0.12168407 21 17
1.1293488 -0.01059777 -0.15206726 88 16
1.5723851 0.19168356 -0.27008814 38 15
nan nan nan 0 13
1.6432215 0.20070408 -0.3711533 30 14
1.6461126 -0.020410186 -0.55734408 37 12
2.9437487 0.3682375 -1.1857169 10 11
1.7569089 -0.027661793 -0.91456789 52 9
2.5513198 0.32147253 -1.1914759 10 10
1.7804888 -0.03111879 -1.0552518 38 8
1.8064405 0.23469672 -1.2092669 18 7
0.59568226 -0.010551538 -0.42712393 10 6
0.29208803 0.03659001 -0.21968216 6 5
0.2589395 -0.0041290522 -0.21421266 52 4
0.24039136 0.030535024 -0.22015125 31 3
0.22868022 -0.0042234859 -0.22896972 21 2
nan nan nan 0 1
nan nan nan 0 0
3.2405124 0.39421093 0.86172116 54 31
1.1795708 -0.014231706 0.2649169 5 30
3.2417626 0.39151776 0.62325168 61 29
1.1636066 -0.013620827 0.1765596 30 28
1.1312869 0.1340239 0.13480872 9 27
1.1547314 -0.013310611 0.10704467 86 26
1.1095715 0.13101706 0.07530795 10 25
1.1486237 -0.013435123 0.051940519 85 24
1.0920724 0.12853135 0.024719493 37 23
1.1448321 -0.013583347 0 85 22
1.0995395 0.12923245 -0.024893576 23 21
1.1411279 -0.013731466 -0.051591143 8 20
1.0799721 0.12669151 -0.072858326 61 19
1.1378889 -0.014077414 -0.099028006 63 18
1.0904747 0.12794144 -0.12168407 20 17
1.1293074 -0.014342767 -0.15206726 86 16
1.5632633 0.18502046 -0.26837057 37 15
1.1356039 -0.016176606 -0.31502843 9 13
1.6269419 0.19321637 -0.36724645 31 14
1.6436691 -0.026115246 -0.55652684 40 12
2.9403532 0.35790956 -1.1838422 10 11
1.7546002 -0.033442676 -0.9133954 42 9
nan nan nan 0 10
1.7825148 -0.037070353 -1.0565451 39 8
1.8031411 0.22786418 -1.2064643 15 7
0.60359728 -0.012728153 -0.43318242 9 6
0.29031608 0.035371494 -0.21806686 6 5
0.25711808 -0.0049340939 -0.21248513 53 4
0.23709376 0.029273499 -0.21651238 34 3
0.22543623 -0.0048713014 -0.22515357 21 2
nan nan nan 0 1
nan nan nan 0 0
3.2322075 0.38232049 0.85914308 53 31
1.1819526 -0.018185308 0.26548058 5 30
3.2381675 0.38018933 0.62230444 59 29
1.1586159 -0.017395785 0.1757869 61 28
1.1292604 0.12998261 0.13450579 10 27
1.1571661 -0.017383423 0.10728253 86 26
1.1248624 0.12907493 0.07634908 9 25
1.1510696 -0.017286299 0.052056976 82 24
1.0924926 0.12490921 0.024719493 53 23
1.1572789 -0.017593464 0 24 22
1.0900537 0.12423929 -0.024661468 46 21
1.1560575 -0.017774392 -0.052289892 6 20
1.0803864 0.1231095 -0.072858326 68 19
1.1477913 -0.018226603 -0.099922165 9 18
1.0958273 0.12489814 -0.12225268 25 17
1.1292504 -0.018284701 -0.15206726 86 16
1.5540832 0.17869465 -0.266653 44 15
1.14035 -0.020036275 -0.3164041 12 13
1.6106632 0.18555771 -0.36333954 40 14
1.6412112 -0.031517047 -0.5557096 63 12
2.9415843 0.34764364 -1.1838422 10 11
1.7610947 -0.039725538 -0.91691291 42 9
nan nan nan 0 10
1.7780968 -0.043182492 -1.0539587 40 8
1.799778 0.22137168 -1.2036619 14 7
0.60752541 -0.014949561 -0.43621168 9 6
0.29422283 0.034844104 -0.22129747 6 5
0.25709927 -0.0058315727 -0.21248513 50 4
0.23889408 0.028671874 -0.21833181 35 3
0.23026033 -0.0058408338 -0.2308778 22 2
nan nan nan 0 1
nan nan nan 0 0
3.2263236 0.370204 0.85720944 55 31
1.1794467 -0.022260398 0.2649169 7 30
3.2248425 0.36720622 0.61946291 61 29
1.1585481 -0.021440003 0.1757869 80 28
1.1321728 0.12632044 0.13480872 10 27
1.1595865 -0.021473398 0.10752042 84 26
1.1277843 0.12542866 0.076522596 9 25
1.1510023 -0.021304175 0.052056976 48 24
1.0979102 0.12146485 0.024835547 63 23
1.1497121 -0.021478565 0 7 22
1.087997 0.12015362 -0.024603439 68 21
1.1559845 -0.022011435 -0.052289892 6 20
1.083288 0.1196168 -0.073030978 68 19
1.1477207 -0.022233032 -0.099922165 7 18
1.0987459 0.12115863 -0.122537 30 17
1.1415578 -0.022494337 -0.15378746 38 16
1.5522802 0.17272121 -0.26622358 53 15
1.1402688 -0.024215732 -0.3164041 14 13
1.6040368 0.17911181 -0.36166519 44 14
1.6363609 -0.037417557 -0.55407518 64 12
2.9313269 0.33553195 -1.1791556 10 11
1.7631525 -0.045933157 -0.91808546 40 9
nan nan nan 0 10
1.7757879 -0.049636528 -1.0526655 44 8
1.734803 0.20682576 -1.1588223 19 7
0.60547864 -0.017111598 -0.43469703 10 6
0.2848815 0.032584626 -0.21322091 6 5
0.25707617 -0.0067738504 -0.21248513 54 4
0.23559679 0.027356222 -0.21469297 35 3
0.22216886 -0.006311981 -0.22133741 25 2
nan nan nan 0 1
nan nan nan 0 0
3.222858 0.35783964 0.85592049 55 31
1.1866618 -0.02676166 0.26660788 7 30
3.2212873 0.35484278 0.61851567 61 29
1.1609311 -0.025745638 0.17617325 82 28
1.1276948 0.12162706 0.13420284 9 27
1.1694518 -0.025963094 0.10847192 31 26
1.1307155 0.12156624 0.07669612 9 25
1.1609027 -0.025763238 0.052522808 9 24
1.100812 0.11790334 0.024893576 66 23
1.1521248 -0.025752967 0 7 22
1.0933992 0.1167067 -0.024719493 71 21
1.1559006 -0.02604644 -0.052289892 6 20
1.0812396 0.11537532 -0.072858326 68 19
1.1550992 -0.026625905 -0.10059278 7 18
1.0892856 0.1162461 -0.12139977 40 17
1.1414677 -0.026678203 -0.15378746 8 16
1.5406325 0.1659632 -0.26407665 53 15
1.1305668 -0.027939169 -0.31365275 16 13
1.6071049 0.17349681 -0.3622233 47 14
1.6385819 -0.043194845 -0.55489242 65 12
2.9186604 0.32375246 -1.1735315 10 11
1.7607653 -0.052326541 -0.91691291 38 9
nan nan nan 0 10
1.7756039 -0.055834882 -1.0526655 48 8
1.6861633 0.19498023 -1.1251926 29 7
0.60740286 -0.019296505 -0.43621168 10 6
0.29257041 0.032508254 -0.21968216 6 5
0.25705096 -0.0076711718 -0.21248513 54 4
0.24249539 0.02738966 -0.22197071 35 3
0.22698526 -0.0073435185 -0.22706164 25 2
nan nan nan 0 1
nan nan nan 0 0
3.2216859 0.34632754 0.85527593 55 31
1.1865612 -0.030903721 0.26660788 8 30
3.2200654 0.34333408 0.61804205 62 29
1.1633031 -0.029865989 0.1765596 85 28
1.1379831 0.1187413 0.1354146 9 27
1.1743348 -0.029977359 0.10894768 8 26
1.131133 0.11761857 0.07669612 9 25
1.1558131 -0.029677676 0.052289892 8 24
1.1012168 0.11406008 0.024893576 66 23
1.1570259 -0.029913213 0 7 22
1.0962657 0.11334277 -0.024777522 70 21
1.1582991 -0.030150859 -0.052406352 6 20
1.0841161 0.11186196 -0.073030978 67 19
1.1649605 -0.03073778 -0.10148694 6 18
1.0872146 0.11218259 -0.12111545 55 17
1.153749 -0.030817639 -0.15550768 7 16
1.5289565 0.15928866 -0.26192966 37 15
1.144877 -0.032320783 -0.31777975 12 13
1.5979782 0.16713744 -0.35999081 43 14
1.6360598 -0.048840504 -0.55407518 65 12
nan nan nan 0 11
1.7561687 -0.058013361 -0.91456789 38 9
1.6882716 0.18195924 -0.78120852 23 10
1.7711327 -0.061568122 -1.0500791 53 8
1.676548 0.18792316 -1.1181865 38 7
0.59739846 -0.020920191 -0.42863855 9 6
0.28888664 0.031091318 -0.21645153 6 5
0.26244032 -0.0087600173 -0.2176677 55 4
0.23918122 0.026168656 -0.21833181 35 3
0.22695968 -0.0080961883 -0.22706164 24 2
nan nan nan 0 1
nan nan nan 0 0
3.2132075 0.33463392 0.85269785 54 31
1.1913211 -0.034990489 0.26773518 8 30
3.2163031 0.33214602 0.61709493 62 29
1.1607289 -0.033647187 0.17617325 87 28
1.1334336 0.11445764 0.13480872 9 27
1.1667606 -0.033845764 0.10823404 8 26
1.1240741 0.11310176 0.076175556 10 25
1.1681888 -0.033895999 0.052872188 8 24
1.1040754 0.11066243 0.024951601 65 23
1.1519228 -0.033594575 0 7 22
1.0966547 0.1095154 -0.024777522 71 21
1.1681769 -0.034303773 -0.052872188 6 20
1.0894434 0.10877296 -0.073376283 66 19
1.1548911 -0.034487735 -0.10059278 7 18
1.0900517 0.10882895 -0.12139977 64 17
1.1462095 -0.034606263 -0.15447555 7 16
nan nan nan 0 15
1.1495678 -0.036278203 -0.31915542 10 13
1.5961277 0.16130964 -0.3594327 52 14
1.6335275 -0.054183971 -0.553258 66 12
1.6622783 0.17182489 -0.66175187 5 11
1.7537493 -0.064059585 -0.9133954 39 9
1.6731144 0.17469029 -0.77376842 35 10
1.768769 -0.067665413 -1.0487858 58 8
1.6709882 0.1816809 -1.1139828 49 7
0.60129607 -0.023175418 -0.4316678 9 6
0.29657638 0.030949378 -0.22291279 6 5
0.25518769 -0.0093355449 -0.21075761 48 4
0.24437879 0.025940843 -0.22379012 36 3
0.22209057 -0.0086381389 -0.22133741 22 2
nan nan nan 0 1
nan nan nan 0 0
3.2071466 0.32268462 0.85076433 54 31
1.1911917 -0.039148763 0.26773518 9 30
3.205231 0.31968948 0.6147269 62 29
1.1680099 -0.037953403 0.17733228 84 28
1.1437036 0.11148468 0.13602048 9 27
1.1691226 -0.038003866 0.10847192 35 26
1.1269438 0.10942372 0.07634908 9 25
1.1605759 -0.03771599 0.052522808 8 24
1.1069421 0.10705388 0.02500963 63 23
1.1542971 -0.037701711 0 8 22
1.094543 0.1054415 -0.024719493 72 21
1.1630586 -0.038207829 -0.052639272 7 20
1.0873345 0.10472474 -0.073203623 71 19
1.1572521 -0.038606614 -0.10081632 7 18
1.0830094 0.10429227 -0.12054683 69 17
1.1584549 -0.039047804 -0.15619577 7 16
nan nan nan 0 15
1.1470324 -0.040201813 -0.31846762 13 13
1.5991061 0.15597747 -0.35999081 62 14
1.6356894 -0.059975591 -0.55407518 64 12
1.6720912 0.16695663 -0.66550118 16 11
1.7535149 -0.070180908 -0.9133954 38 9
1.6737139 0.16884896 -0.77376842 42 10
1.7685223 -0.073839158 -1.0487858 49 8
1.6716123 0.17584696 -1.1139828 58 7
0.59723788 -0.025090273 -0.42863855 9 6
0.3004756 0.030334031 -0.2261434 6 5
0.25515354 -0.010226259 -0.21075761 51 4
0.2461711 0.025284115 -0.22560956 35 3
0.2204462 -0.0093242833 -0.21942933 24 2
nan nan nan 0 1
nan nan nan 0 0
3.2059035 0.31069276 0.85011977 55 31
1.1983417 -0.04379493 0.26942611 8 30
3.2039375 0.30770299 0.61425328 55 29
1.1678629 -0.042234119 0.17733228 82 28
1.1515154 0.108003 0.13692932 9 27
1.1689754 -0.042288661 0.10847192 79 26
1.1223722 0.10481793 0.076002039 9 25
1.1679164 -0.042254448 0.052872188 19 24
1.1073271 0.10299601 0.02500963 62 23
1.1641438 -0.042314302 0 7 22
1.0949222 0.10142909 -0.024719493 72 21
1.1679016 -0.042662125 -0.052872188 7 20
1.0827452 0.10026762 -0.072858326 68 19
1.1546148 -0.042751011 -0.10059278 8 18
1.0932751 0.10126057 -0.12168407 69 17
1.1484067 -0.04290463 -0.15481961 8 16
1.1137422 0.10357635 -0.18893288 23 15
1.1516804 -0.044601057 -0.31984329 16 13
1.5972413 0.14988396 -0.3594327 63 14
1.6354586 -0.065970287 -0.55407518 59 12
1.6565454 0.15924948 -0.65893984 27 11
1.7510401 -0.076508008 -0.91222286 39 9
1.6720698 0.16249098 -0.77270561 48 10
1.7596908 -0.079920463 -1.0436131 41 8
1.670186 0.16950656 -1.1125816 64 7
0.60508776 -0.02767605 -0.43469703 9 6
0.29679024 0.028826348 -0.22291279 6 5
0.26052773 -0.0114555 -0.21594018 51 4
0.23944627 0.023620775 -0.21833181 37 3
0.22363558 -0.010322104 -0.22324549 22 2
nan nan nan 0 1
nan nan nan 0 0
3.1949444 0.2983678 0.84689718 55 31
1.1981815 -0.047977652 0.26942611 9 30
3.1903276 0.29514918 0.61141175 41 29
1.1726444 -0.046515614 0.17810498 83 28
1.1568274 0.10443953 0.1375352 9 27
1.1713151 -0.046267793 0.1087098 86 26
1.1227311 0.10089947 0.076002039 9 25
1.1652666 -0.046227273 0.052755725 74 24
1.1002132 0.098445311 0.024835547 39 23
1.1664869 -0.046481915 0 8 22
1.1002303 0.09825328 -0.024835547 70 21
1.1602602 -0.046424869 -0.052522808 7 20
1.0905397 0.097168244 -0.073376283 67 19
1.1544666 -0.046579618 -0.10059278 7 18
1.0936219 0.097443715 -0.12168407 68 17
1.1408364 -0.046396386 -0.15378746 8 16
1.0993816 0.09833847 -0.1863565 21 15
1.1419129 -0.048196513 -0.31709194 10 13
1.5928762 0.14413969 -0.35831645 50 14
1.6399387 -0.071892232 -0.5557096 62 12
1.6455274 0.15266678 -0.65425324 27 11
1.7485714 -0.082207538 -0.91105038 38 9
1.6681215 0.15622434 -0.77057987 53 10
1.7487319 -0.085219733 -1.037147 42 8
1.6687074 0.16347021 -1.1111803 71 7
0.59506208 -0.02915331 -0.42712393 9 6
0.29688424 0.027841998 -0.22291279 6 5
0.25688004 -0.012111329 -0.21248513 53 4
0.24463704 0.023380337 -0.22379012 36 3
0.22521231 -0.011163951 -0.22515357 25 2
nan nan nan 0 1
nan nan nan 0 0
3.1886995 0.28711584 0.84496367 57 31
1.1955827 -0.051840648 0.26886249 9 30
3.1961784 0.28500783 0.61235893 37 29
1.1724836 -0.050403986 0.17810498 83 28
1.1596391 0.10082296 0.13783813 9 27
1.1736326 -0.050467759 0.10894768 80 26
1.1255436 0.097396195 0.076175556 9 25
1.1651069 -0.050091181 0.052755725 81 24
1.1080024 0.095456347 0.02500963 15 23
1.1738188 -0.050687477 0 19 22
1.1030563 0.094631307 -0.024893576 69 21
1.1675842 -0.050610729 -0.052872188 7 20
1.090856 0.093551353 -0.073376283 64 19
1.154297 -0.050609175 -0.10059278 7 18
1.0939391 0.093816601 -0.12168407 59 17
1.1505618 -0.050834589 -0.15516363 9 16
1.1046084 0.095125854 -0.18721531 20 15
1.1489493 -0.052325137 -0.31915542 10 13
1.5860873 0.13793384 -0.35664207 44 14
1.644411 -0.077559255 -0.55734408 63 12
1.6368178 0.1460833 -0.65050393 28 11
1.7504789 -0.0884251 -0.91222286 37 9
1.6731371 0.1511059 -0.77270561 60 10
1.7441509 -0.091094255 -1.0345607 38 8
1.6671793 0.15773723 -1.109779 77 7
0.59892815 -0.0314558 -0.43015319 9 6
0.29128388 0.02623499 -0.21806686 6 5
0.25683621 -0.013007933 -0.21248513 54 4
0.24301194 0.022347631 -0.22197071 36 3
0.22194831 -0.011738166 -0.22133741 27 2
nan nan nan 0 1
nan nan nan 0 0
3.1896822 0.27598348 0.84496367 57 31
1.2026926 -0.056369353 0.27055341 8 30
3.1898172 0.27321526 0.61093813 24 29
1.1797017 -0.054854501 0.17926401 80 28
1.1624565 0.096985973 0.13814108 9 27
1.175935 -0.054684464 0.10918555 81 26
1.1283617 0.093678452 0.07634908 12 25
1.1699136 -0.054399226 0.052988645 80 24
1.1108192 0.091799416 0.025067655 8 23
1.1586523 -0.05405705 0 76 22
1.1033798 0.090780333 -0.024893576 66 21
1.1599172 -0.054321375 -0.052522808 7 20
1.0911758 0.089742981 -0.073376283 67 19
1.1590873 -0.054883122 -0.10103986 9 18
1.0967349 0.090206608 -0.12196838 36 17
1.145431 -0.054605111 -0.15447555 58 16
1.1073877 0.091477685 -0.18764469 19 15
1.1583611 -0.056825157 -0.32190678 10 13
1.5841311 0.13219005 -0.35608393 57 14
1.641771 -0.083176017 -0.55652684 61 12
1.6350091 0.14016725 -0.64956659 36 11
1.7479548 -0.094412766 -0.91105038 36 9
1.6736543 0.14526464 -0.77270561 60 10
1.7459583 -0.097303972 -1.0358539 39 8
1.6697814 0.15210798 -1.1111803 77 7
0.59484398 -0.033306882 -0.42712393 9 6
0.29517213 0.025585147 -0.22129747 6 5
0.26219931 -0.014254232 -0.2176677 51 4
0.24650012 0.021844566 -0.22560956 36 3
0.2251289 -0.012735945 -0.22515357 27 2
nan nan nan 0 1
nan nan nan 0 0
3.1834049 0.26424262 0.8430301 58 31
1.2097855 -0.060948327 0.27224439 8 30
3.1956441 0.26248473 0.61188537 10 29
1.1745696 -0.058716144 0.17849132 76 28
1.1553682 0.092318945 0.13723224 9 27
1.175737 -0.058788911 0.10918555 82 26
1.1311677 0.089942217 0.076522596 19 25
1.1697166 -0.058482658 0.052988645 76 24
1.1161306 0.088131808 0.025183709 7 23
1.1634499 -0.058361106 0 81 22
1.1111635 0.087533511 -0.025067655 36 21
1.1721798 -0.059225816 -0.053105105 27 20
1.0964543 0.086336166 -0.07372158 65 19
1.1588886 -0.058928758 -0.10103986 59 18
1.0970582 0.086186275 -0.12196838 10 17
1.1477062 -0.058734395 -0.15481961 86 16
1.1224443 0.088613696 -0.19022106 17 15
1.1485454 -0.060545444 -0.31915542 9 13
1.5870117 0.12685758 -0.35664207 77 14
1.646173 -0.089455798 -0.55816132 62 12
1.628583 0.13359432 -0.64675462 47 11
1.7476146 -0.1005137 -0.91105038 36 9
1.6719207 0.13893847 -0.77164268 58 10
1.74559 -0.10370257 -1.0358539 38 8
1.67239 0.1461706 -1.1125816 71 7
0.6026575 -0.035994731 -0.43318242 9 6
0.29336405 0.024326535 -0.21968216 6 5
0.26214528 -0.015215145 -0.2176677 50 4
0.24657854 0.020940948 -0.22560956 37 3
0.22669411 -0.01363889 -0.22706164 27 2
nan nan nan 0 1
nan nan nan 0 0
3.1771288 0.25199443 0.84109652 58 31
1.2119858 -0.065517969 0.27280805 9 30
3.1941376 0.25057647 0.61141175 6 29
1.1891435 -0.063842855 0.18080939 72 28
1.1606468 0.088471368 0.13783813 9 27
1.1779985 -0.063235864 0.10942344 81 26
1.1290032 0.085601732 0.07634908 26 25
1.1694944 -0.062769488 0.052988645 79 24
1.108956 0.083654806 0.02500963 7 23
1.1707165 -0.06304232 0 83 22
1.1064932 0.083075084 -0.024951601 10 21
1.1619924 -0.062759519 -0.052639272 68 20
1.0942765 0.082124673 -0.073548928 48 19
1.1561788 -0.0630356 -0.10081632 83 18
1.1023051 0.082739137 -0.122537 8 17
1.1548998 -0.063361704 -0.15585172 86 16
1.1153804 0.084123105 -0.18893288 17 15
1.1579248 -0.065112688 -0.32190678 9 13
1.5874661 0.12104005 -0.35664207 80 14
1.6458508 -0.095201477 -0.55816132 60 12
1.6174881 0.12698336 -0.64206803 53 11
1.7450309 -0.10678048 -0.90987778 38 9
1.6723953 0.13310154 -0.77164268 57 10
1.7580281 -0.11061913 -1.0436131 38 8
1.6728901 0.14033197 -1.1125816 65 7
0.60252821 -0.038098179 -0.43318242 9 6
0.28964615 0.022962455 -0.21645153 6 5
0.26749799 -0.016518665 -0.22285026 53 4
