# .PCD v0.7 - Point Cloud Data file format
VERSION 0.7
FIELDS x y z intensity ring
SIZE 4 4 4 4 2
TYPE F F F F U
COUNT 1 1 1 1 1
WIDTH 1295
HEIGHT 1
VIEWPOINT 0 0 0 1 0 0 0
POINTS 1295
DATA ascii
-1.4584174 0.051350068 0.1738881 74 27
-1.3869582 0.23159975 0.13107024 85 26
-1.458032 0.051840618 0.099080279 77 25
-1.384218 0.23139232 0.063819289 83 24
-1.4660665 0.052619044 0.033249464 72 23
-1.3881092 0.23229815 0 87 22
-1.4610616 0.052703083 -0.03313341 77 21
-1.384137 0.23187549 -0.063819289 84 20
-1.4605225 0.052945863 -0.098755836 73 19
-1.3850225 0.23251626 -0.12294674 86 18
-1.4621092 0.053006809 -0.16347744 77 17
-1.3823566 0.2325545 -0.18991205 86 16
-1.455019 0.052271452 -0.2477597 75 15
-1.3613931 0.23115063 -0.3851876 41 13
-1.4546865 0.051769949 -0.32538706 75 14
nan nan nan 0 12
-1.5150141 0.050457343 -0.59895104 6 11
-1.4178559 0.24681281 -0.74572456 4 9
-1.4845616 0.048240799 -0.68129885 5 10
-1.4293406 0.25134781 -0.85609895 4 8
-1.4690696 0.041507501 -0.97105664 4 7
-1.4361432 0.25710598 -1.0844707 3 6
-1.4673946 0.035715144 -1.2130978 4 5
-1.4491607 0.26584432 -1.375107 4 4
-1.4404876 0.028738555 -1.4919342 3 3
-1.4931517 0.28086096 -1.7535266 4 2
-1.4632803 0.022167822 -1.8753285 3 1
nan nan nan 0 0
-1.4638714 0.053883936 0.38155493 72 31
-1.3860716 0.23689486 0.31733662 95 30
-1.455151 0.054825056 0.27421179 72 29
-1.3808621 0.23551832 0.21364871 87 28
-1.4557592 0.056094706 0.17358518 73 27
-1.3861413 0.2364397 0.13107024 82 26
-1.4603443 0.056768022 0.099253796 77 25
-1.3883653 0.23682883 0.064052209 84 24
-1.465884 0.05748041 0.033249464 72 23
-1.3799403 0.23562604 0 87 22
-1.4608687 0.057802819 -0.03313341 77 21
-1.3784388 0.23561491 -0.063586377 85 20
-1.4553545 0.057599969 -0.098410539 75 19
-1.3842024 0.23734947 -0.12294674 86 18
-1.4569614 0.057666954 -0.16290882 76 17
-1.3790966 0.23695521 -0.189568 87 16
-1.4548378 0.05709618 -0.2477597 75 15
-1.3629866 0.23607792 -0.3858754 40 13
-1.4496267 0.056665447 -0.32427078 75 14
nan nan nan 0 12
-1.4962991 0.055095114 -0.59145242 6 11
-1.4061192 0.24981126 -0.73986197 4 9
-1.495701 0.053548507 -0.6866132 6 10
-1.4284545 0.25633562 -0.85609895 3 8
-1.4792715 0.046685994 -0.97806287 5 7
-1.4391489 0.26283899 -1.0875 3 6
-1.4787056 0.041132782 -1.2227896 4 5
-1.4464482 0.27056572 -1.3733795 3 4
-1.45752 0.034131672 -1.5101285 4 3
-1.4969196 0.28699267 -1.7592509 4 2
-1.4737974 0.027449466 -1.8892494 3 1
nan nan nan 0 0
-1.4612607 0.058900323 0.3809104 74 31
-1.3852363 0.2417317 0.31733662 95 30
-1.4574037 0.060000949 0.27468535 71 29
-1.3775991 0.23990937 0.21326236 86 28
-1.4555545 0.061175913 0.17358518 72 27
-1.3804055 0.24041508 0.13059449 83 26
-1.4576453 0.061763845 0.099080279 77 25
-1.3850704 0.24124131 0.063935749 83 24
-1.4656636 0.062852755 0.033249464 72 23
-1.376647 0.24000822 0 87 22
-1.4556637 0.062695138 -0.033017356 79 21
-1.3775661 0.24066558 -0.063586377 86 20
-1.4526527 0.062576622 -0.098237887 75 19
-1.3858175 0.24261303 -0.12317027 85 18
-1.4592218 0.063109733 -0.16319312 77 17
-1.378261 0.2417677 -0.189568 88 16
-1.4496973 0.062225219 -0.24690092 76 15
-1.3573802 0.24022648 -0.38449973 40 13
-1.44942 0.06172524 -0.32427078 76 14
nan nan nan 0 12
-1.5030347 0.060848285 -0.59426439 5 11
-1.4095826 0.25551289 -0.74220705 4 9
-1.4977558 0.059115447 -0.68767607 6 10
-1.4232976 0.26079109 -0.85351253 3 8
-1.4873674 0.052383501 -0.98366779 5 7
-1.4342667 0.2673761 -1.0844707 3 6
-1.4785448 0.04655223 -1.2227896 4 5
-1.4418977 0.27518132 -1.3699244 4 4
-1.465955 0.039687455 -1.5192256 4 3
-1.4895697 0.29096553 -1.7516184 4 2
-1.4933776 0.033246286 -1.9151024 3 1
nan nan nan 0 0
-1.4586217 0.064153731 0.38026589 74 31
-1.3843409 0.24680723 0.31733662 95 30
-1.452269 0.065130614 0.27373818 71 29
-1.3767104 0.24495691 0.21326236 83 28
-1.4528413 0.066401266 0.17328222 73 27
-1.3868634 0.24679245 0.13130812 82 26
-1.4549177 0.066995442 0.098906755 75 25
-1.381719 0.24587487 0.063819289 83 24
-1.4604414 0.067745224 0.03313341 73 23
-1.3782189 0.24549456 0 85 22
-1.4529274 0.067917489 -0.032959327 79 21
-1.3791753 0.24591492 -0.063702829 84 20
-1.454905 0.068012707 -0.098410539 75 19
-1.3800181 0.24680622 -0.12272319 84 18
-1.4540302 0.067979373 -0.16262451 77 17
-1.3773656 0.24681766 -0.189568 87 16
-1.4470108 0.06717521 -0.24647152 75 15
-1.3447106 0.24280821 -0.38106057 39 13
-1.444315 0.066820368 -0.32315454 73 14
-0.22298265 0.038558807 -0.066194825 6 12
-1.5028131 0.06609448 -0.59426439 4 11
-1.406466 0.26027215 -0.74103451 4 9
-1.4952794 0.064250059 -0.6866132 5 10
-1.4118662 0.2637752 -0.84704649 4 8
-1.5016582 0.058108654 -0.99347645 5 7
-1.4313712 0.27200624 -1.0829561 3 6
-1.4879086 0.052027684 -1.2308662 5 5
-1.4391553 0.27986461 -1.3681968 3 4
-1.4778048 0.045145743 -1.5319617 4 3
-1.4869097 0.29610473 -1.7497104 4 2
-1.5038543 0.038708791 -1.9290231 3 1
nan nan nan 0 0
-1.4608018 0.069355294 0.3809104 74 31
-1.3858668 0.25207767 0.31790027 95 30
-1.4495809 0.070085235 0.27326459 72 29
-1.3782765 0.25020605 0.21364871 83 28
-1.4501219 0.071354456 0.1729793 73 27
-1.3786936 0.25004619 0.13059449 83 26
-1.4571662 0.07219287 0.099080279 75 25
-1.3759396 0.24979657 0.063586377 83 24
-1.460196 0.072842702 0.03313341 73 23
-1.3773533 0.25030395 0 86 22
-1.4526941 0.072735198 -0.032959327 79 21
-1.3733958 0.24982603 -0.063469917 85 20
-1.4521676 0.072969899 -0.098237887 74 19
-1.3767432 0.25093085 -0.12249966 87 18
-1.451303 0.072934017 -0.16234021 77 17
-1.3716691 0.2504864 -0.18887991 87 16
-1.4467674 0.072225809 -0.24647152 76 15
-1.3462178 0.24793987 -0.38174841 38 13
-1.4440854 0.071609527 -0.32315454 73 14
nan nan nan 0 12
-1.5049009 0.071183175 -0.59520173 4 11
-1.4055952 0.26493472 -0.74103451 4 9
-1.4882644 0.069165953 -0.68342459 5 10
-1.415186 0.26926261 -0.84963292 4 8
-1.5035151 0.06343352 -0.9948777 5 7
-1.4246053 0.27560776 -1.0784122 3 6
-1.4953554 0.057238497 -1.2373275 5 5
-1.4364473 0.28428137 -1.3664694 3 4
-1.4862151 0.050318338 -1.5410589 4 3
-1.4827545 0.30038646 -1.7458942 4 2
-1.5218906 0.044184119 -1.9528873 3 1
nan nan nan 0 0
-1.4557387 0.073962271 0.37962136 73 31
-1.3874173 0.2571196 0.31846395 96 30
-1.4493405 0.074891835 0.27326459 71 29
-1.370155 0.25341594 0.21248968 84 28
-1.4498774 0.076162845 0.1729793 71 27
-1.3802587 0.25531375 0.13083237 83 26
-1.4469558 0.076514684 0.098386198 79 25
-1.3751036 0.25435799 0.063586377 82 24
-1.4649385 0.077941738 0.033249464 72 23
-1.3740582 0.25441101 0 87 22
-1.4474394 0.077546611 -0.032843273 80 21
-1.3725599 0.254379 -0.063469917 85 20
-1.449427 0.077655829 -0.098065235 74 19
-1.3783062 0.25619391 -0.12272319 85 18
-1.4510533 0.077746309 -0.16234021 77 17
-1.3707864 0.2552729 -0.18887991 87 16
-1.44652 0.077023074 -0.24647152 76 15
-1.3430266 0.25195566 -0.38106057 36 13
-1.441393 0.076524898 -0.3225964 73 14
nan nan nan 0 12
-1.495384 0.075981349 -0.59145242 4 11
-1.4068296 0.27025974 -0.74220705 4 9
-1.4948076 0.074426532 -0.6866132 4 10
-1.4058386 0.27255765 -0.84446013 4 8
-1.5053649 0.06850931 -0.99627888 4 7
-1.425585 0.28096688 -1.0799268 3 6
-1.5046792 0.062837459 -1.245404 4 5
-1.4336753 0.28893352 -1.3647418 3 4
-1.4843171 0.055445455 -1.5392394 5 3
-1.4801153 0.30523115 -1.7439861 4 2
-1.5080986 0.049082227 -1.9349891 4 1
nan nan nan 0 0
-1.4554716 0.079043292 0.37962136 72 31
-1.3817261 0.26104909 0.31733662 95 30
-1.4466188 0.079819471 0.272791 71 29
-1.369262 0.25819713 0.21248968 86 28
-1.4471247 0.081088759 0.17267634 71 27
-1.3769143 0.25966513 0.13059449 84 26
-1.4491702 0.081701204 0.098559715 76 25
-1.3766606 0.25962308 0.063702829 83 24
-1.4596664 0.082780182 0.03313341 73 23
-1.3731619 0.25920582 0 85 22
-1.4496554 0.082736857 -0.032901302 79 21
-1.3692106 0.25870106 -0.063353457 84 20
-1.449147 0.082714796 -0.098065235 74 19
-1.3774036 0.26100355 -0.12272319 86 18
-1.448293 0.082673594 -0.16205589 77 17
-1.367455 0.2595906 -0.18853587 87 16
-1.441324 0.081801228 -0.24561273 77 15
-1.3350589 0.25527617 -0.37899706 31 13
-1.441117 0.081555828 -0.3225964 73 14
nan nan nan 0 12
-1.5043674 0.08168754 -0.59520173 4 11
-1.3907144 0.27217472 -0.73399937 4 9
-1.4900188 0.079411022 -0.68448746 4 10
-1.4132717 0.27913582 -0.84963292 4 8
-1.5030485 0.073666081 -0.9948777 4 7
-1.4284945 0.28673103 -1.0829561 3 6
-1.5044507 0.068089388 -1.245404 4 5
-1.4291189 0.29320326 -1.3612868 3 4
-1.4995338 0.061224096 -1.5556144 5 3
-1.4758806 0.30972642 -1.74017 4 2
-1.5291158 0.055064186 -1.9628308 4 1
nan nan nan 0 0
-1.4527751 0.0839881 0.37897682 73 31
-1.3808064 0.26587057 0.31733662 95 30
-1.4463313 0.08486864 0.272791 71 29
-1.3659275 0.26250517 0.21210332 85 28
-1.4493102 0.086282961 0.1729793 73 27
-1.3735563 0.2639963 0.13035661 84 26
-1.4463863 0.086614393 0.098386198 75 25
-1.3708426 0.26347649 0.063469917 84 24
-1.4518681 0.087690108 0.032959327 74 23
-1.3697945 0.26352131 0 87 22
-1.4468628 0.087649666 -0.032843273 79 21
-1.3682531 0.26371774 -0.063353457 86 20
-1.4463599 0.087626159 -0.09789259 74 19
-1.3764842 0.26580998 -0.12272319 85 18
-1.4479803 0.087981306 -0.16205589 76 17
-1.3689709 0.26483649 -0.18887991 88 16
-1.4434732 0.087227747 -0.24604213 75 15
-1.3435477 0.26202357 -0.38174841 19 13
-1.438391 0.086443804 -0.32203829 73 14
nan nan nan 0 12
-1.4924879 0.086549871 -0.59051508 4 11
-1.3940852 0.27789813 -0.7363444 4 9
-1.4919772 0.08499641 -0.68555033 4 10
-1.4059491 0.28303644 -0.84575337 3 8
-1.5089715 0.07948985 -0.99908137 4 7
-1.4176946 0.28995496 -1.0753829 3 6
-1.5137209 0.074050769 -1.2534806 4 5
-1.4298029 0.29881224 -1.3630143 3 4
-1.5044383 0.066937834 -1.5610726 5 3
-1.4779484 0.31555679 -1.7439861 4 2
-1.5470704 0.061350331 -1.9866949 4 1
nan nan nan 0 0
-1.4500463 0.089168124 0.37833232 75 31
-1.3774335 0.27045664 0.31677297 95 30
-1.4411101 0.089871988 0.27184379 71 29
-1.36011 0.26655194 0.21133064 85 28
-1.4440305 0.091289639 0.17237341 72 27
-1.3677434 0.26782507 0.12988086 85 26
-1.44357 0.09176109 0.098212674 76 25
-1.3674179 0.26801494 0.063353457 84 24
-1.4590367 0.093223125 0.03313341 73 23
-1.3712718 0.26902527 0 87 22
-1.4440535 0.092544004 -0.032785248 81 21
-1.3673244 0.26849225 -0.063353457 85 20
-1.4435397 0.092771001 -0.097719938 74 19
-1.370663 0.2696442 -0.12227612 86 18
-1.4427065 0.092724979 -0.16148727 79 17
-1.3680381 0.26961347 -0.18887991 88 16
-1.4382437 0.091960028 -0.24518335 75 15
-1.3496947 0.26812842 -0.38381192 9 13
-1.4380803 0.091464192 -0.32203829 72 14
-0.22227573 0.04244452 -0.066194825 6 12
-1.4875658 0.091222949 -0.58864045 4 11
-1.3844543 0.28099132 -0.73165429 4 9
-1.4894125 0.090071246 -0.68448746 4 10
-1.4070981 0.2881299 -0.84704649 4 8
-1.5024829 0.084419683 -0.9948777 3 7
-1.412832 0.29383773 -1.0723537 3 6
-1.5058444 0.07868655 -1.2470193 4 5
-1.4235032 0.30241558 -1.3578318 3 4
-1.5093462 0.072161481 -1.5665308 5 3
-1.4736824 0.32002237 -1.74017 4 2
-1.5408038 0.066232845 -1.9787402 4 1
nan nan nan 0 0
-1.4473319 0.093824074 0.37768778 73 31
-1.3789167 0.2755039 0.31733662 95 30
-1.4383546 0.094493687 0.2713702 72 29
-1.3640616 0.27203465 0.21210332 87 28
-1.4437197 0.096077718 0.17237341 72 27
-1.3668001 0.27259776 0.12988086 84 26
-1.4432578 0.096547633 0.098212674 75 25
-1.3689697 0.27304029 0.063469917 83 24
-1.4487436 0.09740708 0.032901302 72 23
-1.3679214 0.27307779 0 84 22
-1.43624 0.097091116 -0.032611165 79 21
-1.3688743 0.27351812 -0.063469917 84 20
-1.4407357 0.097393461 -0.097547293 74 19
-1.3697135 0.27442709 -0.12227612 85 18
-1.4423912 0.097508647 -0.16148727 79 17
-1.3622346 0.27340493 -0.18819182 86 16
-1.4379309 0.096728906 -0.24518335 76 15
nan nan nan 0 13
-1.432889 0.09616556 -0.32092205 73 14
nan nan nan 0 12
-1.4895513 0.096560895 -0.58957779 4 11
-1.3856266 0.28627264 -0.73282689 4 9
-1.4936228 0.09529005 -0.6866132 4 10
-1.4018961 0.29215968 -0.84446013 4 8
-1.5042616 0.089520812 -0.99627888 4 7
-1.4137428 0.29918289 -1.0738683 3 6
-1.5131818 0.084352538 -1.2534806 4 5
-1.4277359 0.3085376 -1.3630143 3 4
-1.5090852 0.077429645 -1.5665308 5 3
-1.4741329 0.32551581 -1.7420782 4 2
-1.5420767 0.071677983 -1.9807289 4 1
nan nan nan 0 0
-1.4421753 0.098554619 0.37639874 74 31
-1.3755608 0.27982619 0.31677297 95 30
-1.4380159 0.099513911 0.2713702 71 29
-1.3631039 0.27679446 0.21210332 85 28
-1.4408997 0.10094744 0.17207046 72 27
-1.3682783 0.27786627 0.13011873 83 26
-1.4404238 0.10141402 0.098039158 76 25
-1.365562 0.27731639 0.063353457 84 24
-1.4483947 0.10246356 0.032901302 73 23
-1.3645107 0.27734923 0 86 22
-1.4333988 0.10193089 -0.032553136 79 21
-1.365465 0.27779299 -0.063353457 86 20
-1.4403869 0.10242197 -0.097547293 74 19
-1.3687472 0.27920657 -0.12227612 86 18
-1.4395642 0.10237099 -0.16120297 79 17
-1.3612719 0.27815831 -0.18819182 88 16
-1.4375845 0.10174763 -0.24518335 75 15
nan nan nan 0 13
-1.4301133 0.10099924 -0.32036391 74 14
nan nan nan 0 12
-1.4915177 0.10191382 -0.59051508 3 11
-1.3910987 0.29248142 -0.7363444 4 9
-1.4819911 0.099763207 -0.68129885 4 10
-1.4008677 0.2970514 -0.84446013 4 8
-1.5060065 0.094897516 -0.99768019 3 7
-1.4224082 0.30622602 -1.0814414 3 6
-1.5109732 0.08952485 -1.2518653 4 5
-1.4231216 0.3127372 -1.3595593 3 4
-1.5156543 0.083058186 -1.5738086 5 3
-1.4698367 0.32994595 -1.7382619 4 2
-1.5403037 0.076987982 -1.9787402 4 1
nan nan nan 0 0
-1.4418224 0.10358815 0.37639874 72 31
-1.3650386 0.28263545 0.31451836 96 30
-1.4352111 0.10435911 0.27089661 71 29
-1.3597113 0.28104708 0.21171698 85 28
-1.4430139 0.10615436 0.17237341 71 27
-1.3624274 0.28162545 0.12964298 85 26
-1.4375736 0.10626181 0.097865634 75 25
-1.3670304 0.28259075 0.063469917 84 24
-1.443024 0.1074089 0.032785248 72 23
-1.3659816 0.28262097 0 89 22
-1.4355271 0.10711553 -0.032611165 79 21
-1.3619932 0.28228515 -0.063236997 85 20
-1.437533 0.10726789 -0.097374633 75 19
-1.3628898 0.28296262 -0.12182904 87 18
-1.4416564 0.1078276 -0.16148727 74 17
-1.3578691 0.28240031 -0.18784778 87 16
-1.4322892 0.10665864 -0.24432456 77 15
nan nan nan 0 13
-1.4321828 0.10616659 -0.32092205 73 14
nan nan nan 0 12
-1.4865102 0.10705487 -0.58864045 3 11
-1.3814359 0.29547364 -0.73165429 4 9
-1.4861304 0.10550685 -0.68342459 4 10
-1.3955884 0.30127376 -0.84187371 4 8
-1.5097806 0.1006846 -1.0004827 3 7
-1.4212763 0.31143731 -1.0814414 3 6
-1.5106349 0.095062241 -1.2518653 4 5
-1.4237285 0.31834868 -1.3612868 3 4
-1.5119162 0.088419564 -1.5701698 5 3
-1.4733984 0.3361614 -1.7439861 4 2
-1.5445502 0.082866855 -1.9847062 5 1
nan nan nan 0 0
-1.4390242 0.10869426 0.37575424 72 31
-1.3639935 0.28763667 0.31451836 96 30
-1.4323711 0.10943595 0.27042302 72 29
-1.3562558 0.28551608 0.21133064 85 28
-1.4376662 0.11106871 0.17176753 69 27
-1.3638706 0.28689563 0.12988086 84 26
-1.4346876 0.11134134 0.09769211 77 25
-1.3659853 0.2875993 0.063469917 85 24
-1.437656 0.11206532 0.03266919 73 23
-1.3624911 0.28710625 0 88 22
-1.4351445 0.11212579 -0.032611165 79 21
-1.356114 0.28599921 -0.063004084 86 20
-1.4346435 0.11234549 -0.097201981 75 19
-1.3618939 0.2877183 -0.12182904 88 18
-1.4338418 0.1122902 -0.16063435 77 17
-1.3544533 0.2866219 -0.18750374 85 16
-1.4319082 0.11165762 -0.24432456 76 15
nan nan nan 0 13
-1.4293734 0.11098077 -0.32036391 72 14
nan nan nan 0 12
-1.4884585 0.11215387 -0.58957779 3 11
-1.3825527 0.30076692 -0.73282689 4 9
-1.4789823 0.11020132 -0.68023598 4 10
-1.400849 0.30728599 -0.84575337 3 8
-1.5011578 0.10538939 -0.9948777 3 7
-1.4105322 0.31397089 -1.0738683 3 6
-1.5103114 0.10007116 -1.2518653 4 5
-1.4279494 0.3242785 -1.3664694 3 4
-1.5116147 0.093432777 -1.5701698 4 3
-1.4690704 0.34056702 -1.74017 3 2
-1.5518303 0.08840324 -1.9946496 4 1
nan nan nan 0 0
-1.441064 0.11365137 0.37639874 71 31
-1.3701742 0.29370114 0.31620932 96 30
-1.4295532 0.11399437 0.26994941 69 29
-1.3553016 0.29001203 0.21133064 86 28
-1.4323421 0.1154453 0.17116165 71 27
-1.3628608 0.29165471 0.12988086 83 26
-1.4367967 0.1162953 0.097865634 75 25
-1.3577008 0.29054812 0.063120544 84 24
-1.439768 0.11703041 0.032727219 72 23
-1.3590878 0.29109544 0 85 22
-1.4322529 0.11693554 -0.032553136 79 21
-1.3551582 0.29049471 -0.063004084 86 20
-1.434263 0.11710234 -0.097201981 75 19
-1.3584477 0.2919434 -0.1216055 88 18
-1.4334615 0.11704438 -0.16063435 76 17
-1.3558646 0.29187307 -0.18784778 86 16
-1.4290749 0.11621001 -0.24389516 77 15
nan nan nan 0 13
-1.4241188 0.11558376 -0.31924766 74 14
nan nan nan 0 12
-1.4857471 0.11717066 -0.58864045 3 11
-1.3814944 0.30559111 -0.73282689 4 9
-1.4853777 0.1156201 -0.68342459 4 10
-1.387243 0.30935836 -0.83799416 4 8
-1.502865 0.11051486 -0.99627888 3 7
-1.4171842 0.32066199 -1.0799268 3 6
-1.5137603 0.10560076 -1.2550958 4 5
-1.4232888 0.32844183 -1.3630143 3 4
-1.5181239 0.099141754 -1.5774475 4 3
-1.4725873 0.34681267 -1.7458942 3 2
-1.5515122 0.093819603 -1.9946496 5 1
nan nan nan 0 0
-1.4334357 0.1180985 0.3744652 70 31
-1.3643829 0.29743695 0.31508201 95 30
-1.4266999 0.11878433 0.26947585 72 29
-1.3542809 0.29474109 0.21133064 86 28
-1.4368769 0.12085195 0.17176753 70 27
-1.3569726 0.29534391 0.12940511 84 26
-1.4338965 0.12110429 0.09769211 76 25
-1.3591176 0.29582056 0.063236997 86 24
-1.4343693 0.12164149 0.032611165 76 23
-1.3556216 0.29530174 0 88 22
-1.4343268 0.12214218 -0.032611165 77 21
-1.3541359 0.2952233 -0.063004084 84 20
-1.4288747 0.12169335 -0.096856683 76 19
-1.3574203 0.29668349 -0.1216055 87 18
-1.4330442 0.12204739 -0.16063435 75 17
-1.3524194 0.29607069 -0.18750374 86 16
-1.4286605 0.12119769 -0.24389516 76 15
nan nan nan 0 13
-1.4188495 0.12015141 -0.31813142 75 14
nan nan nan 0 12
-1.4807087 0.12198362 -0.58676577 3 11
-1.3761127 0.30943549 -0.7304818 4 9
-1.4781979 0.1202658 -0.68023598 4 10
-1.3903264 0.31515196 -0.84058058 3 8
-1.4942118 0.11513922 -0.99067396 3 7
-1.4121811 0.32470876 -1.0768975 3 6
-1.5095758 0.1106126 -1.2518653 4 5
-1.4238921 0.33382377 -1.3647418 3 4
-1.5160577 0.10432616 -1.575628 4 3
-1.471368 0.35195085 -1.7458942 3 2
-1.5572238 0.09960898 -2.0026045 4 1
nan nan nan 0 0
-1.4354217 0.12330394 0.3751097 71 31
-1.3657135 0.30272865 0.31564566 96 30
-1.4262767 0.12376372 0.26947585 70 29
-1.3556547 0.30000421 0.21171698 85 28
-1.4339737 0.12565443 0.17146458 71 27
-1.3583624 0.30062047 0.12964298 83 26
-1.4284956 0.12568012 0.097345069 76 25
-1.3580767 0.30056298 0.063236997 83 24
-1.4364036 0.12711398 0.03266919 72 23
-1.3545825 0.30003193 0 89 22
-1.4338917 0.12714817 -0.032611165 77 21
-1.3530447 0.30018446 -0.063004084 85 20
-1.4284412 0.1266803 -0.096856683 73 19
-1.3563765 0.30141991 -0.1216055 88 18
-1.4301128 0.12708333 -0.16035004 75 17
-1.3513776 0.30078971 -0.18750374 87 16
-1.420846 0.12579438 -0.242607 77 15
nan nan nan 0 13
-1.4232773 0.12552309 -0.31924766 73 14
nan nan nan 0 12
-1.4756329 0.12702039 -0.58489114 3 11
-1.3771758 0.31473267 -0.73165429 4 9
-1.4845123 0.12624618 -0.68342459 4 10
-1.391246 0.32072985 -0.84187371 4 8
-1.4917159 0.12045222 -0.98927277 3 7
-1.4071097 0.32897004 -1.0738683 3 6
-1.5129659 0.11643021 -1.2550958 4 5
-1.4191447 0.33819598 -1.3612868 3 4
-1.5088239 0.10940009 -1.5683503 4 3
-1.4748371 0.35823733 -1.7516184 3 2
-1.5553364 0.10521673 -2.0006156 4 1
nan nan nan 0 0
-1.4325539 0.12835285 0.3744652 72 31
-1.3598444 0.30665296 0.31451836 95 30
-1.418478 0.12833966 0.26805505 71 29
-1.3521372 0.30442455 0.21133064 84 28
-1.4335035 0.13090937 0.17146458 70 27
-1.3499707 0.30394557 0.12892935 86 26
-1.4305093 0.13113841 0.097518593 76 25
-1.3496597 0.30388129 0.062887624 85 24
-1.4309727 0.13167764 0.032553136 73 23
-1.3510358 0.3044413 0 89 22
-1.4309267 0.13217713 -0.032553136 77 21
-1.3495535 0.3043524 -0.062887624 86 20
-1.4279673 0.13191496 -0.096856683 73 19
-1.3552626 0.3063893 -0.1216055 89 18
-1.4271868 0.1318503 -0.16006573 76 17
-1.3478519 0.30519006 -0.1871597 87 16
-1.4228508 0.13097478 -0.24303637 74 15
-0.25004369 0.055089384 -0.063280813 5 13
-1.4203805 0.13052008 -0.31868955 74 14
nan nan nan 0 12
-1.4636368 0.13115653 -0.58020455 3 11
-1.3781627 0.32028159 -0.73282689 4 9
-1.4750453 0.13064475 -0.67917311 4 10
-1.3984472 0.32755011 -0.84704649 3 8
-1.4850961 0.12514852 -0.98506904 3 7
-1.4059528 0.33387977 -1.0738683 3 6
-1.5125504 0.12171073 -1.2550958 4 5
-1.4197115 0.34357598 -1.3630143 3 4
-1.5118526 0.11491915 -1.5719891 4 3
-1.4688116 0.36247063 -1.7458942 3 2
-1.5579823 0.11085395 -2.0045931 4 1
nan nan nan 0 0
-1.4296917 0.13313285 0.37382066 73 31
-1.3540194 0.31030205 0.31339106 96 30
-1.4253544 0.13396668 0.26947585 70 29
-1.3510662 0.30914253 0.21133064 88 28
-1.4280959 0.13545224 0.1708587 70 27
-1.3538055 0.30953768 0.12940511 84 26
-1.4275596 0.13589892 0.097345069 75 25
-1.351024 0.30915156 0.063004084 82 24
-1.4305043 0.13667186 0.032553136 73 23
-1.3475288 0.30859348 0 88 22
-1.4304806 0.13692153 -0.032553136 77 21
-1.348483 0.30906138 -0.062887624 87 20
-1.4225321 0.13643101 -0.096511386 74 19
-1.3542391 0.31088182 -0.1216055 87 18
-1.4267179 0.13683133 -0.16006573 76 17
-1.3492448 0.3102167 -0.18750374 90 16
-1.4174811 0.13548054 -0.24217759 77 15
-0.25219053 0.056507852 -0.063968658 6 13
-1.4199399 0.1352295 -0.31868955 74 14
nan nan nan 0 12
-1.4585778 0.1355885 -0.57832992 3 11
-1.3749449 0.32433945 -0.73165429 4 9
-1.4790875 0.13619986 -0.68129885 4 10
-1.3952727 0.33168742 -0.84575337 4 8
-1.4825875 0.13015451 -0.98366779 3 7
-1.404838 0.33854026 -1.0738683 3 6
-1.51404 0.12688154 -1.2567111 3 5
-1.4115474 0.34654555 -1.3561043 3 4
-1.5063348 0.11953559 -1.5665308 4 3
-1.4754328 0.36931518 -1.7554346 3 2
-1.5606282 0.11623854 -2.0085704 4 1
nan nan nan 0 0
-1.4316469 0.13810088 0.3744652 73 31
-1.3577256 0.31590196 0.31451836 96 30
-1.4175715 0.13799188 0.26805505 71 29
-1.3500338 0.3136211 0.21133064 86 28
-1.4301091 0.14042553 0.17116165 71 27
-1.3527168 0.31426144 0.12940511 86 26
-1.4246188 0.1403918 0.097171552 75 25
-1.3499914 0.31362998 0.063004084 84 24
-1.4275558 0.14117311 0.032495111 74 23
-1.3464981 0.31306034 0 88 22
-1.4250189 0.14142881 -0.032437082 79 21
-1.3450191 0.31296155 -0.062771164 86 20
-1.4220719 0.14114754 -0.096511386 73 19
-1.3507216 0.31503764 -0.12138196 88 18
-1.4213121 0.14107956 -0.15949711 77 17
-1.343333 0.31379032 -0.18681565 85 16
-1.4194753 0.14041851 -0.242607 77 15
nan nan nan 0 13
-1.4121826 0.13947941 -0.31701517 75 14
-0.22066779 0.05013746 -0.066194825 5 12
-1.4604027 0.14089756 -0.5792672 3 11
-1.3759507 0.32965496 -0.73282689 4 9
-1.4696159 0.14026 -0.67704737 4 10
-1.3961853 0.33706141 -0.84704649 4 8
-1.4800855 0.13488619 -0.98226655 3 7
-1.4036477 0.34344196 -1.0738683 3 6
-1.5097855 0.13184111 -1.2534806 4 5
-1.4138345 0.35235113 -1.3595593 3 4
-1.5144533 0.12548347 -1.575628 4 3
-1.4710048 0.37366191 -1.7516184 3 2
-1.5662555 0.12214403 -2.016525 4 1
nan nan nan 0 0
-1.4239445 0.14238903 0.37253165 73 31
-1.3566147 0.3206394 0.31451836 95 30
-1.4146385 0.1426972 0.26758146 71 29
-1.3417218 0.31661826 0.21017161 87 28
-1.4246716 0.14492288 0.17055576 70 27
-1.3467692 0.31783044 0.12892935 86 26
-1.4266015 0.14561279 0.097345069 75 25
-1.3488886 0.31834042 0.063004084 84 24
-1.4270288 0.14640442 0.032495111 74 23
-1.3478292 0.31833711 0 88 22
-1.4245166 0.14640221 -0.032437082 77 21
-1.3487216 0.31904668 -0.063004084 84 20
-1.424052 0.1463614 -0.096684039 73 19
-1.3520359 0.32032853 -0.1216055 90 18
-1.4232568 0.14653814 -0.15978143 76 17
-1.3422295 0.31847751 -0.18681565 86 16
-1.4165006 0.14537305 -0.24217759 76 15
nan nan nan 0 13
-1.4165366 0.14489543 -0.31813142 74 14
nan nan nan 0 12
-1.4598767 0.14624926 -0.5792672 3 11
-1.3705027 0.33340484 -0.7304818 4 9
-1.471344 0.1458647 -0.67811024 4 10
-1.3887093 0.3406367 -0.84316695 4 8
-1.4775195 0.14011844 -0.98086536 3 7
-1.4004502 0.34810111 -1.0723537 3 6
-1.50169 0.13669673 -1.2470193 3 5
-1.4090315 0.35663742 -1.3561043 3 4
-1.5071493 0.13045591 -1.5683503 4 3
-1.4665648 0.37798223 -1.7478024 3 2
-1.5642871 0.12776364 -2.0145366 4 1
nan nan nan 0 0
-1.423413 0.14760709 0.37253165 73 31
-1.3506958 0.32446402 0.31339106 96 30
-1.414106 0.14788115 0.26758146 72 29
-1.3405523 0.3215338 0.21017161 88 28
-1.4216626 0.14988765 0.17025281 71 27
-1.3455952 0.32276449 0.12892935 86 26
-1.4235777 0.15058246 0.097171552 76 25
-1.3452853 0.32269588 0.062887624 84 24
-1.4240233 0.15112527 0.032437082 73 23
-1.3466535 0.32327503 0 90 22
-1.4264561 0.15188272 -0.032495111 76 21
-1.3427452 0.32257822 -0.062771164 87 20
-1.4185451 0.15106016 -0.096338734 74 19
-1.3484328 0.32469508 -0.12138196 88 18
-1.4202663 0.15124658 -0.15949711 77 17
-1.3362408 0.3222262 -0.18612756 90 16
-1.4135349 0.15006092 -0.24174818 79 15
nan nan nan 0 13
-1.4111484 0.14958112 -0.31701517 74 14
nan nan nan 0 12
-1.4616629 0.15157932 -0.58020455 3 11
-1.3692715 0.33842573 -0.7304818 4 9
-1.4595691 0.14986427 -0.67279589 4 10
-1.3854365 0.34496158 -0.84187371 4 8
-1.4873257 0.14626911 -0.98787147 3 7
-1.401154 0.35347742 -1.0738683 3 6
-1.4993038 0.14176184 -1.245404 3 5
-1.4112769 0.36245921 -1.3595593 3 4
-1.5135167 0.13631736 -1.575628 4 3
-1.4651695 0.38335493 -1.7478024 3 2
-1.5743999 0.13410139 -2.0284572 4 1
nan nan nan 0 0
-1.422889 0.15257484 0.37253165 73 31
-1.3471895 0.32859588 0.31282741 96 30
-1.4086992 0.15229724 0.26663426 73 29
-1.3418206 0.32679957 0.21055794 89 28
-1.4211307 0.15484925 0.17025281 71 27
-1.3493516 0.32840955 0.12940511 84 26
-1.4230434 0.15555078 0.097171552 76 25
-1.3441507 0.32738984 0.062887624 87 24
-1.421002 0.15582693 0.032379057 71 23
-1.3455168 0.32797375 0 90 22
-1.4209749 0.15607494 -0.032379057 79 21
-1.3416111 0.3272633 -0.062771164 87 20
-1.4130501 0.1554739 -0.095993437 74 19
-1.3449308 0.32857007 -0.12115843 88 18
-1.4172603 0.15593593 -0.15921281 77 17
-1.3375691 0.32724789 -0.18647161 87 16
-1.4154513 0.15525846 -0.24217759 75 15
-1.2661575 0.31172019 -0.36317685 13 13
-1.4106447 0.15425983 -0.31701517 74 14
nan nan nan 0 12
-1.4496278 0.15521222 -0.57551789 3 11
-1.3638601 0.34188351 -0.72813678 4 9
-1.4612875 0.15519315 -0.67385876 4 10
-1.3759909 0.34744444 -0.83670092 4 8
-1.4826857 0.15104796 -0.98506904 3 7
-1.3922701 0.35613659 -1.0678098 3 6
-1.4988254 0.14673294 -1.245404 3 5
-1.4065713 0.36622006 -1.3561043 3 4
-1.5062265 0.14071164 -1.5683503 4 3
-1.4607691 0.3873775 -1.7439861 3 2
-1.5724373 0.13919109 -2.0264685 4 1
nan nan nan 0 0
-1.4199741 0.15703118 0.37188715 73 31
-1.3508193 0.33423916 0.31395471 95 30
-1.4081863 0.15696782 0.26663426 71 29
-1.3383327 0.33065113 0.21017161 87 28
-1.4181428 0.1592883 0.16994987 71 27
-1.3457822 0.33251691 0.12916723 85 26
-1.4225197 0.1602689 0.097171552 75 25
-1.3382108 0.33063963 0.062654711 86 24
-1.4179937 0.16026185 0.032321028 75 23
-1.33957 0.33122593 0 90 22
-1.4204214 0.16103412 -0.032379057 76 21
-1.3380953 0.33110675 -0.062654711 90 20
-1.4125267 0.1601589 -0.095993437 75 19
-1.3413597 0.33265948 -0.12093488 89 18
-1.4167354 0.16063488 -0.15921281 77 17
-1.3340164 0.33131415 -0.18612756 74 16
-1.4124808 0.159679 -0.24174818 75 15
-1.2721095 0.31767625 -0.36524037 18 13
-1.4028316 0.15837567 -0.31534079 75 14
nan nan nan 0 12
-1.442165 0.1595193 -0.57270592 3 11
-1.3626583 0.3466422 -0.72813678 3 9
-1.4562652 0.15955327 -0.67173302 4 10
-1.3747697 0.35224542 -0.83670092 4 8
-1.4862956 0.15638955 -0.98787147 3 7
-1.40064 0.36350954 -1.0753829 3 6
-1.492608 0.15139736 -1.240558 3 5
-1.4087771 0.37205699 -1.3595593 3 4
-1.5057261 0.1459685 -1.5683503 4 3
-1.4609672 0.39289662 -1.7458942 3 2
-1.5659063 0.14413618 -2.0185139 4 1
nan nan nan 0 0
-1.4170167 0.16171718 0.37124261 74 31
-1.3496443 0.33895236 0.31395471 95 30
-1.4076297 0.16188236 0.26663426 72 29
-1.3371704 0.33532074 0.21017161 88 28
-1.4151126 0.16395621 0.16964693 71 27
-1.3446132 0.33721253 0.12916723 85 26
-1.4194738 0.16494982 0.096998028 77 25
-1.3394698 0.33592016 0.062771164 84 24
-1.4199085 0.16549571 0.032379057 74 23
-1.3408293 0.3365123 0 89 22
-1.4223336 0.16627729 -0.032437082 77 21
-1.3345102 0.33516335 -0.062538244 89 20
-1.4070038 0.16451783 -0.09564814 75 19
-1.342604 0.33795139 -0.12115843 87 18
-1.4112312 0.16501085 -0.15864418 77 17
-1.3424523 0.3384051 -0.18750374 38 16
-1.4143617 0.16488947 -0.24217759 74 15
-1.2849658 0.32568169 -0.36936739 21 13
-1.4046911 0.16354904 -0.31589893 74 14
nan nan nan 0 12
-1.4277805 0.16299996 -0.56708193 3 11
-1.3593031 0.35084119 -0.72696424 4 9
-1.4489528 0.1638848 -0.66854447 4 10
-1.3818109 0.35920951 -0.84187371 4 8
-1.4836818 0.1613567 -0.98647028 3 7
-1.3839824 0.36431846 -1.063266 3 6
-1.4882743 0.15621568 -1.2373275 3 5
-1.4022355 0.37555999 -1.3543768 3 4
-1.5000887 0.15071988 -1.5628921 4 3
-1.458029 0.39756605 -1.7439861 1 2
-1.5684104 0.14988331 -2.0224912 4 1
nan nan nan 0 0
-1.4164437 0.16666251 0.37124261 73 31
-1.3460938 0.34305614 0.31339106 96 30
-1.4070562 0.16679491 0.26663426 71 29
-1.3288136 0.33814728 0.20901257 90 28
-1.4120671 0.16860493 0.16934399 72 27
-1.3386064 0.34066877 0.12869146 87 26
-1.4164126 0.16961142 0.096824512 76 25
-1.3358699 0.33997399 0.062654711 87 24
-1.4168105 0.17040461 0.032321028 73 23
-1.3372248 0.34056973 0 90 22
-1.4192626 0.17094654 -0.032379057 76 21
-1.3332729 0.34005237 -0.062538244 90 20
-1.4088975 0.1697222 -0.095820785 74 19
-1.3390048 0.3420158 -0.12093488 90 18
-1.4106168 0.17018215 -0.15864418 80 17
-1.3364668 0.34185413 -0.18681565 9 16
-1.4088564 0.16949244 -0.24131881 74 15
-1.2953967 0.33340415 -0.37280658 22 13
-1.3992716 0.16787933 -0.31478265 75 14
nan nan nan 0 12
-1.4271735 0.16823193 -0.56708193 3 11
-1.3580701 0.35558391 -0.72696424 4 9
-1.4505904 0.16945289 -0.66960728 4 10
-1.3784174 0.36372223 -0.84058058 3 8
-1.4769071 0.16611093 -0.98226655 3 7
-1.3864791 0.37042215 -1.0662953 3 6
-1.489589 0.16187185 -1.2389427 3 5
-1.4043356 0.38165125 -1.3578318 3 4
-1.5012317 0.15639108 -1.5647113 4 3
-1.4659692 0.40525296 -1.7554346 3 2
-1.5633268 0.15519127 -2.016525 4 1
nan nan nan 0 0
-1.413425 0.17156607 0.37059811 74 31
-1.3424704 0.34737355 0.31282741 96 30
-1.4064354 0.17195091 0.26663426 70 29
-1.3347366 0.34488067 0.21017161 87 28
-1.4139031 0.17407827 0.16964693 70 27
-1.3373487 0.34557271 0.12869146 90 26
-1.4157814 0.17480171 0.096824512 76 25
-1.332198 0.34423926 0.062538244 86 24
-1.4137263 0.17504631 0.032263003 73 23
-1.3359677 0.34546864 0 90 22
-1.4186265 0.17614724 -0.032379057 77 21
-1.3320777 0.34470427 -0.062538244 89 20
-1.4107416 0.175188 -0.095993437 73 19
-1.3401515 0.34755012 -0.12115843 88 18
-1.4075489 0.17480326 -0.15835987 79 17
-1.3304136 0.3454977 -0.18612756 8 16
-1.4058114 0.17411079 -0.2408894 75 15
-1.3035232 0.34036845 -0.3755579 20 13
-1.4034848 0.17359653 -0.31589893 74 14
nan nan nan 0 12
-1.4127702 0.17156136 -0.56145799 3 11
-1.3524919 0.35941765 -0.72461915 4 9
-1.4477429 0.17424901 -0.66854447 4 10
-1.381271 0.36964488 -0.84316695 3 8
-1.4824893 0.1719695 -0.98647028 3 7
-1.3832588 0.37473613 -1.0647806 3 6
-1.4852216 0.1666524 -1.2357121 3 5
-1.3995122 0.38558447 -1.3543768 3 4
-1.5006765 0.16163041 -1.5647113 4 3
-1.464474 0.41062331 -1.7554346 3 2
-1.5627756 0.16064735 -2.016525 4 1
nan nan nan 0 0
-1.4104201 0.17620359 0.36995357 72 31
-1.3388948 0.35143536 0.31226376 96 30
-1.3985184 0.17595284 0.26521346 73 29
-1.3311363 0.34890759 0.20978525 90 28
-1.408362 0.17839748 0.16904105 71 27
-1.3386019 0.35064009 0.12892935 86 26
-1.4151627 0.17974263 0.096824512 76 25
-1.333403 0.3495245 0.062654711 86 24
-1.4155864 0.18029158 0.032321028 72 23
-1.3371707 0.35076812 0 89 22
-1.4155548 0.18053864 -0.032321028 79 21
-1.3308663 0.34935197 -0.062538244 89 20
-1.4051725 0.1794879 -0.09564814 74 19
-1.3341773 0.3507185 -0.12071135 90 18
-1.4093944 0.18002589 -0.15864418 79 17
-1.3220797 0.34800497 -0.18509544 7 16
-1.4051951 0.17901693 -0.2408894 75 15
-1.3069718 0.34615499 -0.37693357 23 13
-1.3932295 0.17703813 -0.3136664 73 14
nan nan nan 0 12
-1.4167941 0.17681101 -0.56333268 3 11
-1.3448994 0.36216733 -0.72110164 4 9
-1.4448797 0.1790273 -0.66748154 3 10
-1.3697175 0.3714059 -0.83670092 4 8
-1.4695427 0.17569181 -0.97806287 3 7
-1.3877598 0.38091069 -1.0693245 3 6
-1.4865568 0.17179202 -1.2373275 3 5
-1.3947465 0.3892453 -1.3509218 3 4
-1.5035412 0.16697749 -1.5683503 4 3
-1.4568921 0.41370079 -1.7478024 3 2
-1.5622343 0.16582882 -2.016525 4 1
nan nan nan 0 0
-1.4074316 0.18057658 0.36930907 73 31
-1.3377221 0.35587338 0.31226376 96 30
-1.4027975 0.18120995 0.26616067 71 29
-1.3347443 0.35459587 0.21055794 87 28
-1.4102241 0.18338253 0.16934399 70 27
-1.3349656 0.35466766 0.12869146 89 26
-1.4170325 0.18475269 0.096998028 76 25
-1.3322366 0.35394427 0.062654711 86 24
-1.4100231 0.18434536 0.032204974 73 23
-1.3335853 0.35455421 0 90 22
-1.4173946 0.18579938 -0.032379057 76 21
-1.3272882 0.35311741 -0.062421788 90 20
-1.4045696 0.18414666 -0.09564814 74 19
-1.3353498 0.35601878 -0.12093488 90 18
-1.4063263 0.18438001 -0.15835987 80 17
-1.3232483 0.35326037 -0.18543947 7 16
-1.4021511 0.18336067 -0.24046002 75 15
-1.3011762 0.34923333 -0.3755579 26 13
-1.3974369 0.182523 -0.31478265 74 14
nan nan nan 0 12
-1.4000733 0.17971936 -0.5567714 3 11
-1.3436271 0.3668597 -0.72110164 4 9
-1.4397877 0.18325444 -0.6653558 3 10
-1.3704748 0.37675554 -0.83799416 4 8
-1.4730628 0.18106151 -0.98086536 3 7
-1.373015 0.38199675 -1.058722 3 6
-1.4878432 0.17720196 -1.2389427 3 5
-1.3916414 0.39361641 -1.3491942 3 4
-1.4961342 0.17145796 -1.5610726 4 3
-1.4569907 0.41923338 -1.7497104 1 2
-1.561646 0.17128102 -2.016525 4 1
nan nan nan 0 0
-1.4115834 0.18611139 0.37059811 72 31
-1.3388221 0.36117887 0.31282741 96 30
-1.4021562 0.18610552 0.26616067 71 29
-1.3287306 0.35796016 0.20978525 89 28
-1.4071151 0.1879797 0.16904105 71 27
-1.3337194 0.35932541 0.12869146 90 26
-1.4114339 0.18904428 0.096650988 74 25
-1.3309928 0.35859248 0.062654711 88 24
-1.4093379 0.18951212 0.032204974 73 23
-1.3299266 0.35855246 0 90 22
-1.4068274 0.18942884 -0.032146949 79 21
-1.3283951 0.35863459 -0.062538244 90 20
-1.4014459 0.18871981 -0.09547548 76 19
-1.3340989 0.36067787 -0.12093488 90 18
-1.400717 0.18887794 -0.15779126 80 17
-1.3196179 0.35722631 -0.18509544 7 16
-1.4039111 0.18882261 -0.2408894 76 15
-1.2975693 0.35336453 -0.37487006 30 13
-1.3919597 0.18676031 -0.3136664 72 14
nan nan nan 0 12
-1.4040016 0.18544826 -0.55864602 3 11
-1.3402113 0.37095493 -0.7199291 4 9
-1.4368622 0.18824041 -0.66429299 3 10
-1.364965 0.38061959 -0.83540773 4 8
-1.4621168 0.185178 -0.97385913 3 7
-1.3716059 0.38702655 -1.058722 3 6
-1.483395 0.18219618 -1.2357121 3 5
-1.3936617 0.3997173 -1.3526492 3 4
-1.4954958 0.17694043 -1.5610726 4 3
-1.463268 0.42659158 -1.7592509 3 2
-1.5610077 0.17700359 -2.016525 4 1
nan nan nan 0 0
-1.4061035 0.19064324 0.36930907 72 31
-1.3374895 0.3660835 0.31282741 96 30
-1.399032 0.19091579 0.26568705 72 29
-1.3274096 0.36282781 0.20978525 89 28
-1.4039576 0.1928024 0.16873811 72 27
-1.3323934 0.36421132 0.12869146 89 26
-1.4107316 0.19421618 0.096650988 76 25
-1.3296697 0.36346841 0.062654711 87 24
-1.403715 0.19375554 0.03208892 73 23
-1.3261931 0.36276099 0 90 22
-1.4110763 0.19526054 -0.032263003 79 21
-1.3223197 0.36194301 -0.062305331 90 20
-1.4007447 0.19385511 -0.09547548 74 19
-1.332768 0.36556518 -0.12093488 90 18
-1.4000491 0.19376621 -0.15779126 79 17
-1.3182999 0.36206055 -0.18509544 28 16
-1.4008031 0.19338946 -0.24046002 76 15
-1.2986438 0.35853529 -0.3755579 30 13
-1.3888509 0.19153222 -0.31310827 73 14
nan nan nan 0 12
-1.3964541 0.18942603 -0.55583405 3 11
-1.3473418 0.37826633 -0.72461915 4 9
-1.4317102 0.19265945 -0.66216725 3 10
-1.3656858 0.38596725 -0.83670092 3 8
-1.4635152 0.19054405 -0.97526038 3 7
-1.366424 0.39071158 -1.0556928 3 6
-1.4827501 0.18737309 -1.2357121 3 5
-1.392258 0.40457967 -1.3526492 3 4
-1.491464 0.18175179 -1.5574336 4 3
-1.4539535 0.42964852 -1.7497104 3 2
-1.5618854 0.18262427 -2.0185139 4 1
nan nan nan 0 0
-1.4054295 0.19555029 0.36930907 73 31
-1.3315116 0.36944002 0.31170011 96 30
-1.3910623 0.19478981 0.26426628 73 29
-1.3213767 0.36613235 0.20901257 89 28
-1.4057338 0.1980439 0.16904105 69 27
-1.328781 0.36795974 0.1284536 90 26
-1.410045 0.19913936 0.096650988 76 25
-1.3259872 0.36743689 0.062538244 86 24
-1.40303 0.19865426 0.03208892 73 23
-1.329735 0.36873186 0 90 22
-1.4079458 0.19959217 -0.032204974 77 21
-1.3234534 0.36722812 -0.062421788 90 20
-1.3926499 0.19770472 -0.094957538 79 19
-1.3291504 0.36931238 -0.12071135 90 18
-1.3993642 0.19865212 -0.15779126 79 17
-1.3123227 0.36509502 -0.18440734 62 16
-1.4001194 0.19827801 -0.24046002 75 15
-1.2881303 0.3604598 -0.37280658 27 13
-1.3882082 0.19613676 -0.31310827 73 14
nan nan nan 0 12
-1.3912261 0.19342592 -0.55395943 3 11
-1.3397117 0.38090977 -0.72110164 4 9
-1.4310288 0.19765587 -0.66216725 3 10
-1.3602865 0.38930938 -0.83411455 4 8
-1.4566833 0.19483972 -0.97105664 3 7
-1.3651209 0.39524063 -1.0556928 3 6
-1.4764425 0.19156367 -1.2308662 3 5
-1.3874432 0.40816784 -1.3491942 3 4
-1.4925549 0.1869062 -1.5592531 4 3
-1.4509739 0.43400183 -1.7478024 3 2
-1.5552533 0.18709145 -2.0105591 4 1
nan nan nan 0 0
-1.4023813 0.19987319 0.36866453 72 31
-1.3279355 0.3731907 0.31113645 95 30
-1.3904086 0.19940169 0.26426628 75 29
-1.3225323 0.37118348 0.20939893 89 28
-1.3976991 0.20165411 0.16813223 70 27
-1.3250935 0.37191942 0.12821572 90 26
-1.409377 0.20381415 0.096650988 77 25
-1.3247616 0.37183201 0.062538244 87 24
-1.4023637 0.20330575 0.03208892 73 23
-1.3285049 0.37313938 0 90 22
-1.4047666 0.20415047 -0.032146949 77 21
-1.3222284 0.37161484 -0.062421788 89 20
-1.396924 0.20303069 -0.095302835 75 19
-1.3254576 0.3732709 -0.1204878 90 18
-1.3937806 0.20258553 -0.15722264 80 17
-1.318187 0.37170133 -0.18543947 84 16
-1.3994544 0.20291987 -0.24046002 76 15
-1.2938619 0.36670724 -0.37487006 18 13
-1.3875151 0.20098132 -0.31310827 73 14
nan nan nan 0 12
-1.3836573 0.19731218 -0.5511474 3 11
-1.3320118 0.38373914 -0.71758407 4 9
-1.4303656 0.20240027 -0.66216725 3 10
-1.3609732 0.39465478 -0.83540773 4 8
-1.4539775 0.1993918 -0.96965545 3 7
-1.3675479 0.40112981 -1.058722 3 6
-1.473873 0.19646786 -1.2292509 3 5
-1.3825483 0.41196984 -1.3457391 3 4
-1.4867907 0.19146861 -1.5537949 4 3
-1.4479051 0.43859282 -1.7458942 3 2
-1.5515831 0.19215305 -2.0065818 4 1
nan nan nan 0 0
-1.401675 0.20476721 0.36866453 73 31
-1.3313075 0.37916562 0.31226376 96 30
-1.3921334 0.20460655 0.26473987 72 29
-1.3212285 0.37579769 0.20939893 89 28
-1.3994422 0.20689045 0.16843517 70 27
-1.3237871 0.37654257 0.12821572 90 26
-1.4086568 0.20873253 0.096650988 76 25
-1.3234555 0.37645403 0.062538244 88 24
-1.3966635 0.20771754 0.031972867 74 23
-1.319984 0.37570968 0 90 22
-1.406518 0.20941657 -0.032204974 77 21
-1.3232582 0.37714693 -0.062538244 90 20
-1.3912719 0.20717953 -0.094957538 77 19
-1.3241464 0.3778953 -0.1204878 90 18
-1.395486 0.2080546 -0.15750696 80 17
-1.3168814 0.37630042 -0.18543947 89 16
-1.3962644 0.20768969 -0.24003062 76 15
-1.2994359 0.37345019 -0.37693357 10 13
-1.3843939 0.20546997 -0.31255016 74 14
nan nan nan 0 12
-1.3829248 0.20238221 -0.5511474 3 11
-1.3264273 0.38714185 -0.71523899 4 9
-1.4228944 0.20667791 -0.65897858 3 10
-1.3533626 0.39781952 -0.83152813 4 8
-1.4614395 0.20585923 -0.97526038 3 7
-1.3660684 0.40613943 -1.058722 3 6
-1.4693612 0.2013579 -1.2260202 3 5
-1.3879449 0.41913691 -1.3526492 3 4
-1.4911793 0.19758183 -1.5592531 4 3
-1.4540823 0.44602722 -1.7554346 3 2
-1.5448556 0.19708434 -1.9986271 4 1
nan nan nan 0 0
-1.3937469 0.20884216 0.36673099 72 31
-1.32757 0.38336307 0.31170011 96 30
-1.3913741 0.2097076 0.26473987 73 29
-1.3198423 0.38063771 0.20939893 90 28
-1.3937662 0.21128295 0.16782929 70 27
-1.320008 0.3806985 0.12797785 89 26
-1.4078823 0.21389413 0.096650988 77 25
-1.3196683 0.38060626 0.062421788 89 24
-1.4008729 0.21333559 0.03208892 73 23
-1.3185982 0.38054514 0 90 22
-1.4032698 0.21419743 -0.032146949 79 21
-1.3147392 0.37967345 -0.062188867 90 20
-1.3880371 0.2119053 -0.094784886 77 19
-1.3251433 0.38344195 -0.12071135 90 18
-1.3972073 0.21329504 -0.15779126 81 17
-1.3154933 0.38112453 -0.18543947 90 16
-1.3955309 0.21256231 -0.24003062 76 15
-1.2888982 0.37528068 -0.37418225 6 13
-1.3812218 0.21018033 -0.31199202 76 14
nan nan nan 0 12
-1.3799173 0.20686892 -0.55021012 3 11
-1.3207672 0.39074075 -0.71289396 4 9
-1.4244032 0.21197246 -0.66004151 3 10
-1.3499162 0.40192711 -0.83023494 4 8
-1.454563 0.2100831 -0.97105664 3 7
-1.3703527 0.41263601 -1.063266 3 6
-1.4667593 0.20622379 -1.2244049 3 5
-1.3864735 0.42397916 -1.3526492 3 4
-1.4870819 0.20233051 -1.5556144 4 3
-1.4508961 0.45087147 -1.7535266 3 2
-1.5486656 0.20305713 -2.0045931 4 1
nan nan nan 0 0
-1.3930093 0.21370596 0.36673099 72 31
-1.3285602 0.38868248 0.31226376 96 30
-1.388207 0.21419312 0.26426628 74 29
-1.3137661 0.38384941 0.20862623 90 28
-1.3930203 0.21614683 0.16782929 71 27
-1.3186712 0.38530385 0.12797785 90 26
-1.4046623 0.21842831 0.096477471 77 25
-1.3183316 0.38521045 0.062421788 88 24
-1.3976495 0.21784359 0.032030895 75 23
-1.3196601 0.385851 0 90 22
-1.4049835 0.21947592 -0.032204974 77 21
-1.3158016 0.38496554 -0.062305331 90 20
-1.3872888 0.21674916 -0.094784886 79 19
-1.31902 0.3866567 -0.12026427 90 18
-1.3915448 0.21741265 -0.15722264 80 17
-1.3094053 0.38431171 -0.18475139 90 16
-1.3923465 0.21705724 -0.23960124 76 15
nan nan nan 0 13
-1.3804797 0.21500042 -0.31199202 75 14
nan nan nan 0 12
-1.3700211 0.21029499 -0.54646081 4 11
-1.325737 0.39726096 -0.71641147 4 9
-1.4124664 0.21525922 -0.65472716 3 10
-1.3525997 0.40787926 -0.83282137 4 8
-1.4579182 0.21575767 -0.97385913 3 7
-1.3727069 0.41858396 -1.0662953 3 6
-1.4735868 0.21241656 -1.2308662 3 5
-1.3798091 0.42720321 -1.3474667 3 4
-1.4897636 0.20798734 -1.5592531 4 3
-1.4477735 0.45544565 -1.7516184 3 2
-1.5389364 0.20726742 -1.9926609 3 1
nan nan nan 0 0
-1.3946799 0.21869411 0.36737549 74 31
-1.3249297 0.39239058 0.31170011 96 30
-1.3850635 0.21841732 0.26379266 73 29
-1.3148534 0.3889083 0.20901257 90 28
-1.3947474 0.2211494 0.16813223 70 27
-1.3173862 0.38967466 0.12797785 90 26
-1.4014664 0.22269799 0.096303947 77 25
-1.3194408 0.39029232 0.062538244 87 24
-1.3969195 0.22247717 0.032030895 75 23
-1.3159772 0.3895117 0 91 22
-1.3968418 0.22296478 -0.032030895 79 21
-1.3121244 0.38861373 -0.062188867 90 20
-1.3865625 0.22134839 -0.094784886 77 19
-1.3201166 0.39174077 -0.1204878 90 18
-1.3908162 0.22202599 -0.15722264 79 17
-1.3104962 0.38936082 -0.18509544 90 16
-1.389186 0.22129008 -0.23917183 76 15
nan nan nan 0 13
-1.3773519 0.21919838 -0.31143391 75 14
nan nan nan 0 12
-1.360155 0.21341713 -0.5427115 4 11
-1.3159651 0.39907736 -0.71172142 4 9
-1.4139814 0.22028619 -0.65579003 4 10
-1.3491945 0.41173431 -0.83152813 4 8
-1.4551471 0.22028509 -0.97245795 3 7
-1.3656129 0.42136428 -1.0617514 3 6
-1.4728743 0.21730198 -1.2308662 3 5
-1.3801084 0.43231985 -1.3491942 3 4
-1.4873679 0.21268721 -1.5574336 4 3
-1.4431785 0.45925871 -1.7478024 3 2
-1.5367396 0.21216555 -1.9906723 4 1
nan nan nan 0 0
-1.3915223 0.22318286 0.36673099 72 31
-1.3212202 0.39630949 0.31113645 95 30
-1.3842927 0.22325075 0.26379266 74 29
-1.3134879 0.39349562 0.20901257 90 28
-1.3866162 0.22483791 0.16722341 71 27
-1.3184007 0.39498883 0.12821572 90 26
-1.3982182 0.22719295 0.096130431 75 25
-1.3156792 0.39417505 0.062421788 88 24
-1.3911992 0.22655711 0.031914841 74 23
-1.312216 0.39338115 0 90 22
-1.3935875 0.227441 -0.031972867 80 21
-1.3131508 0.39391291 -0.062305331 90 20
-1.3857814 0.22618705 -0.094784886 77 19
-1.3139743 0.39490542 -0.12004072 91 18
-1.3924849 0.22727533 -0.15750696 79 17
-1.3091291 0.39393294 -0.18509544 90 16
-1.3884051 0.22613789 -0.23917183 76 15
nan nan nan 0 13
-1.3789842 0.22439198 -0.31199202 74 14
-0.2170842 0.063894369 -0.066194825 5 12
-1.3639797 0.21888959 -0.54458618 4 11
-1.318783 0.40497208 -0.71406645 4 9
-1.4176743 0.22592463 -0.65791577 3 10
-1.3538783 0.41834694 -0.83540773 4 8
-1.4482294 0.22442363 -0.96825421 3 7
-1.3622364 0.42553216 -1.0602367 3 6
-1.4683324 0.2218792 -1.2276356 3 5
-1.3837556 0.43878296 -1.3543768 3 4
-1.4849194 0.21763267 -1.5556144 3 3
-1.4431033 0.46479166 -1.7497104 3 2
-1.5299876 0.21669134 -1.9827174 4 1
nan nan nan 0 0
-1.3883505 0.22765221 0.36608645 75 31
-1.3244873 0.40234244 0.31226376 96 30
-1.3786595 0.22729146 0.26284549 74 29
-1.309744 0.39735726 0.20862623 90 28
-1.3907207 0.23047964 0.16782929 69 27
-1.3146337 0.39886215 0.12797785 90 26
-1.3998774 0.23247656 0.096303947 75 25
-1.3119067 0.39803639 0.062305331 90 24
-1.3903595 0.23165455 0.031914841 75 23
-1.313226 0.39868939 0 90 22
-1.3952512 0.23271106 -0.032030895 79 21
-1.3116982 0.39872321 -0.062305331 90 20
-1.3825228 0.23061691 -0.094612241 77 19
-1.3197305 0.40167615 -0.12071135 90 18
-1.3891919 0.23197269 -0.15722264 80 17
-1.3101135 0.39922589 -0.18543947 87 16
-1.3899971 0.23162569 -0.23960124 74 15
nan nan nan 0 13
-1.3733834 0.22841318 -0.31087577 76 14
-0.22361991 0.066784382 -0.068646483 5 12
-1.358593 0.22314465 -0.5427115 4 11
-1.3152543 0.40891388 -0.71289396 4 9
-1.4146028 0.23075891 -0.6568529 4 10
-1.3421321 0.420093 -0.8289417 4 8
-1.4514881 0.23037151 -0.97105664 3 7
-1.3606676 0.43052214 -1.0602367 3 6
-1.463737 0.22668284 -1.2244049 3 5
-1.3769795 0.44218457 -1.3491942 3 4
-1.4824158 0.22282234 -1.5537949 3 3
nan nan nan 0 2
-1.5306829 0.22251236 -1.9847062 4 1
nan nan nan 0 0
-1.382741 0.23194854 0.36479741 73 31
-1.320677 0.40647396 0.31170011 96 30
-1.3778172 0.23234297 0.26284549 75 29
-1.3082788 0.40215504 0.20862623 90 28
-1.3874191 0.2351649 0.16752635 70 27
-1.3132334 0.40344867 0.12797785 90 26
-1.3916376 0.23636581 0.09578339 76 25
-1.3128248 0.40357968 0.062421788 89 24
-1.3895425 0.23650643 0.031914841 76 23
-1.3117559 0.4034999 0 91 22
-1.3919657 0.23716447 -0.031972867 80 21
-1.3102983 0.40329951 -0.062305331 90 20
-1.3816682 0.23568258 -0.094612241 77 19
-1.3135637 0.40480614 -0.12026427 90 18
-1.3883736 0.23682047 -0.15722264 79 17
-1.306347 0.40306267 -0.18509544 90 16
-1.3843229 0.23565821 -0.23874246 75 15
nan nan nan 0 13
-1.374981 0.23360971 -0.31143391 76 14
nan nan nan 0 12
-1.3555591 0.22726975 -0.54177415 4 11
-1.3138189 0.41350251 -0.71289396 4 9
-1.411556 0.23532738 -0.65579003 3 10
-1.3529632 0.42843792 -0.83670092 3 8
-1.4384093 0.2334699 -0.96264929 3 7
-1.3611255 0.43564156 -1.0617514 3 6
-1.4629773 0.23153551 -1.2244049 3 5
-1.3789409 0.44787124 -1.3526492 3 4
-1.4850591 0.22825092 -1.5574336 3 3
nan nan nan 0 2
-1.5299366 0.22758707 -1.9847062 4 1
nan nan nan 0 0
-1.3843458 0.23693585 0.36544195 74 31
-1.319322 0.41085121 0.31170011 96 30
-1.3770391 0.2369107 0.26284549 76 29
-1.3045807 0.40575382 0.20823988 90 28
-1.3841857 0.23934594 0.16722341 71 27
-1.311817 0.40803021 0.12797785 90 26
-1.3908461 0.24097933 0.09578339 80 25
-1.309096 0.40718544 0.062305331 90 24
-1.3813608 0.23984322 0.031740759 77 23
-1.3056388 0.4063541 0 91 22
-1.3886663 0.24159776 -0.031914841 80 21
-1.3065706 0.40689597 -0.062188867 90 20
-1.380879 0.24026304 -0.094612241 77 19
-1.3097668 0.40864342 -0.12004072 90 18
-1.3851329 0.24100171 -0.15693834 77 17
-1.3025697 0.40687811 -0.18475139 90 16
-1.3811065 0.23983042 -0.23831305 77 15
nan nan nan 0 13
-1.3693537 0.23758331 -0.31031767 74 14
-0.21865553 0.066877738 -0.067012042 5 12
-1.3479021 0.23083945 -0.53896219 4 11
-1.3123674 0.41808605 -0.71289396 4 9
-1.4107679 0.24000697 -0.65579003 4 10
-1.335169 0.42790574 -0.82635534 4 8
-1.4437568 0.2392423 -0.9668529 3 7
-1.3577056 0.43977386 -1.0602367 3 6
-1.4583918 0.23603861 -1.2211744 3 5
-1.3773692 0.45268193 -1.3526492 3 4
-1.4808648 0.23290759 -1.5537949 3 3
nan nan nan 0 2
-1.5306311 0.23315114 -1.9866949 3 1
nan nan nan 0 0
-1.3811301 0.24135512 0.36479741 74 31
-1.3178797 0.41545403 0.31170011 96 30
-1.3762038 0.24171603 0.26284549 75 29
-1.3055111 0.41105083 0.20862623 90 28
-1.380897 0.24374908 0.16692047 71 27
-1.3103848 0.41260684 0.12797785 90 26
-1.3875397 0.24540274 0.095609866 76 25
-1.3052859 0.4109987 0.062188867 89 24
-1.3854387 0.24552734 0.031856813 76 23
-1.3089789 0.41241935 0 90 22
-1.3902761 0.24687636 -0.031972867 79 21
-1.3027619 0.41069964 -0.062072415 90 20
-1.3775756 0.24464993 -0.094439581 77 19
-1.3083323 0.41321287 -0.12004072 90 18
-1.3842833 0.24583526 -0.15693834 80 17
-1.3011415 0.41142243 -0.18475139 90 16
-1.377835 0.24422435 -0.23788367 76 15
nan nan nan 0 13
-1.3733166 0.2432031 -0.31143391 79 14
