# .PCD v0.7 - Point Cloud Data file format
VERSION 0.7
FIELDS x y z intensity
SIZE 4 4 4 4
TYPE F F F F
COUNT 1 1 1 1
WIDTH 277
HEIGHT 1
VIEWPOINT 0 0 0 1 0 0 0
POINTS 277
DATA ascii
0.40122536 0.67526364 -3.5125575 29
0.33498862 0.40253046 -3.3160858 27
0.090288602 -0.065051422 -2.8327374 21
0.090542957 0.098264299 -2.8483267 23.5
0.076646715 0.30478787 -2.8346236 26.5
0.076053046 0.49320209 -2.858232 28.5
0.097488701 0.65095758 -2.8464396 30
-0.53190535 -0.064155482 -2.7456126 21
-0.25479704 -0.060218293 -2.6137557 21
-0.61266124 0.15820876 -2.6887181 24.5
-0.53285944 0.064084195 -2.7454278 23
-0.28118593 0.090582311 -2.6189184 23.5
-0.62608993 0.29802409 -2.7019112 26.5
-0.62788379 0.47502342 -2.6820271 28.5
-0.5563032 0.5422315 -2.7906654 29
-0.55002165 0.6908772 -2.7554102 30.5
-0.093701519 -0.5525924 -2.4449155 14
0.46785018 -0.057054833 -2.4449284 21
0.81039 -0.029275276 -2.4095073 21.5
1.6474861 -0.067324206 -2.4220066 21
-0.80016637 0.17384611 -2.4041896 25
-0.64317775 0.1152667 -2.4233267 24
-0.40184394 0.18007603 -2.592696 25
-0.28825545 0.059875265 -2.5873373 23
-0.088768311 0.086009234 -2.500402 23.5
0.46292317 0.11490403 -2.4619491 24
1.0697908 0.12096696 -2.4126647 24
1.6424365 0.066892505 -2.4163792 23
-0.45909932 0.28260624 -2.5915046 26.5
-0.22110139 0.24544376 -2.5938237 26
-0.089386441 0.30576217 -2.486937 27
0.42735308 0.30382478 -2.4365058 27
1.6914862 0.35764197 -2.4359019 27
-0.45924002 0.40523961 -2.5854509 28
-0.076687723 0.52050245 -2.487433 29.5
0.43747905 0.51921856 -2.4450088 29.5
1.6811007 0.51127189 -2.4421289 28.5
-0.074433044 0.65413648 -2.4855368 31
0.44140717 0.65024817 -2.4324644 31
1.0770538 -0.55878192 -2.2275846 14
1.0599594 -0.33863655 -2.2327578 16
-0.75580412 -0.11219094 -2.3452008 20
-0.57807112 -0.056431424 -2.3954833 21
0.92628276 -0.029396461 -2.376687 21.5
1.1582116 -0.060568158 -2.3715713 21
1.358501 -0.090175904 -2.2353153 20.5
1.7212837 -0.0672694 -2.3670433 21
-0.7931056 0.0576552 -2.3880224 23
-0.57864058 0.028114013 -2.3879745 22.5
0.50490743 0.054472819 -2.3302498 23
0.72002465 0.10929532 -2.2821577 24
1.1686333 0.09018787 -2.3568192 23.5
1.3306174 0.090044215 -2.2559988 23.5
1.7184774 0.067219786 -2.3684461 23
-0.77562076 0.30764344 -2.380203 27
0.50669205 0.36579609 -2.3193343 28
0.72238702 0.2942881 -2.2853765 27
0.95003694 0.35038158 -2.3681297 27.5
1.1322292 0.29306385 -2.3666937 26.666666
1.3546209 0.27937171 -2.2231939 26.5
1.7981321 0.27603969 -2.3062181 26
-0.76948082 0.52204061 -2.3743813 29.5
-0.598818 0.56249726 -2.3918545 30
0.51619172 0.49690419 -2.3207119 29.5
0.72884214 0.54497021 -2.2764184 30
0.91834474 0.48187006 -2.3600373 29
1.1123707 0.45233893 -2.3758535 28.5
1.35707 0.49720511 -2.2230442 29
-1.4979793 0.69586778 -2.3984737 30.5
-0.6812284 0.65287179 -2.3854525 31
0.51222903 0.62317663 -2.3147461 31
0.73484606 0.62896746 -2.2768507 31
1.3669466 0.68501037 -2.214818 31
-1.2453712 -0.21258925 -2.0549462 18
1.3693094 -0.28669521 -2.1376817 17
1.5793668 -0.26962751 -2.157198 17.5
-1.2707376 -0.1112189 -2.0773628 20
1.5732818 -0.18105967 -2.1308756 19
-1.2842221 0.084201247 -2.0850959 23.5
-1.2638576 0.29763287 -2.0664914 27
-1.2623711 0.45985842 -2.0627949 29
1.8554673 0.49445918 -2.1852505 28.5
2.0446103 0.49812087 -2.0426893 28.5
-1.5606271 0.69028431 -2.1067767 31
-0.82064128 0.60389632 -2.1466861 31
1.8409181 0.74428254 -2.1427233 31
2.0386822 0.71042097 -2.0447867 30.5
1.0941882 -0.5024091 -1.9410208 14
-1.6257837 -0.27434799 -1.808321 17
1.1150589 -0.35042045 -1.9785336 15.5
-1.6190516 -0.1652164 -1.8008438 19
-1.5962197 -0.084470212 -1.8758537 20.5
-1.0393401 -0.12406533 -1.9132955 19.5
2.5247755 -0.071600519 -1.8188516 21
2.675416 -0.1120796 -1.8392024 20.5
2.5101075 0.071337007 -1.8206732 23
2.6929908 0.075063147 -1.8597754 23
2.6983278 0.31040746 -1.8638891 26
-1.1093751 0.55100107 -1.954005 30.5
1.9701413 0.51181632 -1.8295281 29
2.0615792 0.42869741 -1.8601331 28
2.3416164 0.51845247 -1.8805274 28.5
2.4895391 0.59040588 -1.8406805 29
2.6986754 0.50747836 -1.8653655 28
1.9591198 0.65944213 -1.8323953 30.5
2.0681887 0.63227302 -1.8394499 30
2.3367956 0.7420603 -1.9049095 30.5
2.7069836 0.68981624 -1.8647672 29.5
2.7090287 0.86798704 -1.8646696 31
-1.6133732 -0.21324703 -1.7907183 18
2.1826241 0.33853698 -1.7689458 27
2.3838191 0.28163475 -1.7897985 26
2.3779016 0.45920268 -1.78257 28
2.359324 0.72885096 -1.7899243 30.5
-0.11955667 -0.24650495 -1.4436469 15
2.0666111 -0.29050919 -1.5341575 17
2.2590597 -0.30644786 -1.5006099 17
2.6564066 -0.27468115 -1.5838583 18
-0.12815109 -0.14210238 -1.4426842 17.6
2.0601425 -0.17572808 -1.5388987 19
2.2570684 -0.18523388 -1.4974439 19
-0.28040358 -0.27908659 -1.2215804 14
-0.19794481 -0.27183396 -1.2055333 14
-1.712855 -0.096527457 -1.2237748 20
-0.24317986 -0.40536594 -1.1816144 12
-1.609787 -0.21748064 -1.0725321 17
-0.27863818 -0.33981401 -1.1900648 13
-1.6094133 -0.15332028 -1.1272552 18.5
2.4911296 -0.23219509 -0.81051296 18
-1.6273417 -0.10458615 -0.86502147 19.5
-1.8111877 -0.11054652 -0.70084393 19.5
2.4520199 -0.2807692 -0.41288674 17
2.4084351 -0.41580549 -0.22665899 15
-1.7756366 -0.22224285 -0.22185671 16.5
2.3952818 -0.21385682 -0.31182963 18
2.4266686 -0.33559734 -0.33270082 16
-1.8609363 0.28969055 -0.22762148 28
-1.8693057 -0.021243399 -0.15652716 21.5
-1.765874 -0.10067859 -0.18535079 19.5
-1.8934302 0.08656662 -0.093769766 24
-1.8976057 -0.2353061 0.088917695 16.5
-1.8606802 -0.1248919 0.052068576 19
2.2993667 -0.79448074 0.38595346 12
-1.9824288 -0.27510267 0.36430785 16
-2.0718322 -0.60652506 0.5913868 13
2.279798 -0.70590836 0.52494967 12.666667
-2.0626469 -0.66941005 0.62645 12.5
0.54122645 -0.65281212 0.67063528 5.6666665
-2.084281 -0.49156079 0.64421773 14
0.57568258 -0.5312866 0.64631158 7.5
0.61984259 -0.44537315 0.68770367 9.5
2.1877453 -1.1002004 0.9294405 10
2.1895494 -0.95901471 0.99717832 11
0.5397774 -0.63760936 0.81430119 7
0.56902796 -0.52548349 0.84428 9
-0.52128106 -0.093722925 0.92341733 18
2.1481254 -0.41749662 1.1336361 15
-2.1633012 -0.27675006 1.1582474 17
-0.50780451 -0.28869101 1.0390807 13.5
-0.23749818 -0.32215744 1.0758376 12.75
1.8196017 -0.2980504 1.1995656 16
2.168941 -0.27661997 1.1439489 17
-0.51678896 -0.11919785 1.0426546 17.5
-0.24474689 -0.091246538 1.0879217 18.5
-0.19515584 -0.12307915 1.0944871 17
1.8133532 -0.19190527 1.1945291 18
2.1593254 -0.16673455 1.1399735 19
-0.13080236 -0.38586581 1.3770089 13
1.8268886 -0.31114352 1.2063302 16
1.8292946 -0.14945132 1.2083452 19
-2.2293308 -0.24168783 1.573745 18
-2.1151364 -0.23454364 1.595082 18
-0.12303431 -0.29131517 1.4117793 14.333333
1.6437248 -0.33894554 1.4596819 15.5
2.0642576 -0.32454726 1.5734607 16.5
-2.2154541 -0.12501211 1.5767366 20
-2.1139503 -0.18059193 1.5912471 19
-0.10674722 -0.12728167 1.4167349 18
0.0958248 -0.45363444 1.79289 13.5
2.0719354 -0.24041802 1.7494774 18
-2.2733209 -0.065960377 1.7744906 21
-2.134378 -0.12292183 1.6113151 20
2.0606389 -0.12134765 1.641767 20
-2.2714534 0.099632606 1.7798275 23.5
-2.2667975 0.31043565 1.7867329 26.5
-2.265903 0.49835724 1.7873203 28.5
-2.2720675 0.71172392 1.7870369 30.5
0.28665939 -0.48116013 1.8825736 13.5
0.094291069 -0.31216258 1.8229027 15
0.33616921 -0.2717641 1.9099759 16
1.7562764 -0.2263158 1.8554864 18
2.0497775 -0.24220413 1.8056623 18
0.35107628 -0.17090482 1.906132 18
1.7947701 -0.17792492 1.8864702 19
2.0349333 -0.15675418 1.8387576 19.5
2.0017221 -1.1323938 2.0070827 11
1.9924436 -0.8275668 2.1433709 13
2.0233331 -0.97668332 2.0189896 12
-0.010625135 -0.09234038 2.0451713 20
0.15277033 -0.10749043 2.054178 19.666666
1.9918156 -0.13507666 2.1479743 20
0.066562697 0.046522401 2.0362673 23
1.9437008 -1.1135834 2.2928145 11.5
-2.3663714 0.69896698 2.3385839 29.5
-2.3626542 0.87546706 2.3250756 31
1.6886538 -0.23984112 2.5426433 18.5
1.9274771 -0.30386126 2.474942 17.666666
1.6794138 -0.13982572 2.5240588 20
1.9239846 0.84100735 2.5409648 31
1.6656898 -0.27435589 2.6028242 18
1.8803569 -0.22142218 2.6290841 19
1.8854419 -0.11378759 2.7128184 20.5
-2.4018307 0.55462712 2.6534557 28
-2.4112604 0.68456841 2.6484838 29
-2.4218779 0.88597536 2.6506224 30.5
1.8876072 0.87904036 2.7429619 31
1.8456285 -1.1711535 2.8800051 12
1.3961318 -0.90455341 2.8744447 13
1.8571032 -0.97886628 2.9136362 13
1.4046202 -0.72561365 2.8784728 14
1.4276041 -0.56169695 2.9267135 15
1.8359207 0.93254459 3.0152135 31
1.7515491 -0.44414708 3.5008781 17
1.7378931 1.0427755 3.5395684 31
1.6504322 -0.7364493 3.9258914 15
1.670606 -0.59454763 3.9772131 16
-2.6548476 0.57343858 3.9144409 27
-2.6336963 0.72853172 3.8813589 28
1.6779646 0.89337844 3.9039397 29.5
1.0863485 -1.1837656 4.02742 13
1.1289568 -0.96500134 4.0955496 14
1.10311 -0.72739363 4.0597625 15
1.6280696 -0.61036754 4.1175504 16
1.6303796 0.87517393 4.2706232 29
1.6117206 1.0410367 4.2373686 30
1.6044518 -0.53338832 4.4117928 17
-2.2796779 0.058896463 4.5568805 22.5
-2.2697821 0.29438284 4.5610223 24.5
-2.4692333 0.49077734 4.5380292 26
-2.7282393 0.63616741 4.4778347 27
-2.7244599 0.81393611 4.4718513 28
-2.7284665 1.001001 4.4519019 29
-2.7393055 1.2932805 4.4496794 30.5
-2.1536539 -0.11719497 4.6156526 21
-1.6982411 0.00021729355 4.6759267 22
-1.6482371 0.23289949 4.7462897 24
-0.10467314 -0.56140482 4.9391994 17
-0.81725448 -0.11276657 4.8298297 21
-1.0508983 0.057095945 4.8271275 22.5
-0.10073001 0.28561759 4.947691 24.5
-0.099226199 0.53383774 4.9381909 26.5
-0.099748366 0.76622593 4.9317555 28
-0.095047809 0.94587409 4.9359808 29
1.3761469 -0.66946387 5.1400113 16.5
1.3524833 -0.36928722 5.1965051 19
1.4594551 -0.31020948 5.1892538 19.5
1.4596559 -0.062055923 5.18644 21.5
1.4560519 0.51262945 5.197875 26
1.4575776 0.65496278 5.1996245 27
1.4545504 0.83798635 5.1923747 28
-0.10445512 1.1668701 5.0754867 30
1.4623525 1.0352838 5.1991858 29
1.45526 1.2265118 5.1325083 30
1.3110321 -0.69242626 5.3422971 16.5
1.3280466 -0.48975885 5.3274312 18
1.4522191 -0.48172289 5.2019267 18
1.3283489 -0.25409648 5.3206739 20
1.3215935 -0.063406646 5.3328333 21.5
1.3320088 0.1268632 5.3346324 23
1.4546016 0.12470478 5.2065701 23
1.3260269 0.3177745 5.3406429 24.5
1.4576361 0.31210771 5.205245 24.5
1.3134656 0.52120584 5.3280349 26
1.3347694 0.66648602 5.3297548 27
1.3131573 0.85268039 5.3266339 28
1.3249145 1.0566086 5.3497586 29
1.4513878 1.4353477 5.2160106 31
