# .PCD v0.7 - Point Cloud Data file format
VERSION 0.7
FIELDS x y z intensity
SIZE 4 4 4 4
TYPE F F F F
COUNT 1 1 1 1
WIDTH 434
HEIGHT 1
VIEWPOINT 0 0 0 1 0 0 0
POINTS 434
DATA ascii
0.35636994 0.23340546 -5.0482621 24
0.40475866 0.2941041 -5.0787196 24.5
0.36140999 0.62823397 -5.0605893 27
0.40305811 0.6356352 -5.0642753 27
0.3734079 0.97727907 -5.0871778 29
0.17289625 -0.075399995 -3.2675347 21.088501
-0.0019346948 0.13193643 -3.4618454 23.666666
0.29404226 0.21229699 -3.3277552 24.773361
0.43318707 0.32891977 -3.4502072 26.088249
0.32643041 0.59616494 -3.3090262 28.763649
0.4404788 0.55704594 -3.4071467 28.200001
0.090182848 0.88543272 -3.3515165 31.089249
0.4132522 0.80312192 -3.481302 30
0.13753419 -0.066275008 -2.8820958 21.089249
0.44774747 -0.071963541 -3.0973282 21.088001
0.13724145 0.13884109 -3.0131955 24.089249
0.44883513 0.16945603 -3.1528101 24.338001
-0.58163756 0.49587035 -2.8157995 28.5
-0.22235754 0.66052753 -3.1371636 29.502001
0.13419989 0.56160033 -2.9420681 29.089249
0.47335148 0.64451814 -3.1767845 29.337875
-0.5607546 -0.4850564 -2.6330864 14.863144
-0.22870058 -0.46581003 -2.5035286 14.752
0.064018779 -0.41334492 -2.4045587 15
-1.5114537 -0.065105788 -2.4033458 21
-0.56256235 -0.11802908 -2.5672832 20.052834
-0.16884026 -0.16256392 -2.5147867 19.1635
0.22328389 -0.10540646 -2.5338619 20.221741
0.44795641 -0.07122656 -2.4473534 20.8375
0.88598377 -0.059122957 -2.4172544 21.084667
1.5599467 -0.067784838 -2.5028739 21
1.6738844 -0.068678528 -2.4715943 21.081501
-1.5059046 0.19925855 -2.4042811 25.007999
-0.54500592 0.15585592 -2.6232243 24.483654
-0.24399818 0.16195206 -2.5899799 24.632202
0.33757794 0.061088044 -2.6368268 23
0.44650072 0.11823969 -2.4478621 24.087498
0.97410834 0.16814616 -2.4256296 24.834999
1.5607947 0.21122348 -2.4986739 25.082001
1.7191722 0.14660479 -2.5284195 24.118851
-1.4977394 0.75730813 -2.451612 31.015751
-0.5436039 0.5958693 -2.6384289 29.830612
-0.23377118 0.55999529 -2.5588822 29.751524
0.28796268 0.67951214 -2.6382897 30.976902
0.44657815 0.57107365 -2.4726994 30.087582
0.8402344 0.58336842 -2.4392409 30.1705
1.5715024 0.56140208 -2.4810898 29.082001
1.6666802 0.54844987 -2.5149031 28.831749
-1.5710456 -0.64168733 -2.1021957 13.685082
-0.15857345 -0.54086834 -2.3910167 14
0.076122269 -0.41055414 -2.3881931 15
1.0176483 -0.50630701 -2.160449 14.333375
1.4098581 -0.56222332 -2.0506248 14.16275
-1.398587 -0.14595261 -2.1615567 19.472536
-0.86048323 -0.13027763 -2.1830392 19.576427
-0.71013111 -0.097416759 -2.3411813 20.25
0.2138679 -0.28259215 -2.3619227 16.838749
0.64849889 -0.25622907 -2.2847977 17.335751
1.012633 -0.20796821 -2.2396002 18.33375
1.4143372 -0.16411625 -2.2040949 19.308773
1.7379365 -0.033659358 -2.3583198 21.58075
-1.4573337 0.097178139 -2.2536564 23.591333
-0.97004682 0.1681551 -2.1077726 25
-0.67588389 0.14138655 -2.366415 24.4
0.61059439 0.17345163 -2.3215177 25
1.0726097 0.23100235 -2.3309968 25.8335
1.2950943 0.20066911 -2.2801719 25.28265
1.746186 0.19709328 -2.3481436 24.833334
-1.483304 0.59547436 -2.1168108 30.092167
-0.86832321 0.57909083 -2.2172966 30.433447
-0.73193276 0.60792327 -2.3675146 30.504501
0.67902261 0.5667237 -2.2990842 30.335499
1.0375081 0.56832796 -2.3397322 29.941092
1.3401941 0.61041552 -2.2658496 30.194687
1.781689 0.65018266 -2.1917784 30.180376
2.0361326 0.57859939 -2.0547309 29.328751
-1.6306717 -0.54012632 -1.7507132 14.0215
-1.5916187 -0.61539388 -1.9455647 13.686333
1.0453889 -0.53261411 -1.8621793 13.63265
1.5326259 -0.56222934 -1.9608587 14.160999
-1.6179945 -0.19356757 -1.8160124 18.510124
-1.0569768 -0.13184687 -1.95701 19.382374
1.1297768 -0.34202275 -1.9459817 15.650454
1.2843138 -0.35133755 -1.8331813 15.591072
2.2942195 -0.13090828 -1.669001 20.153
2.648803 -0.16841064 -1.7451414 19.666666
-1.6220996 0.2026691 -1.7733796 25.5
-1.5916936 0.10611176 -1.941797 23.75
-1.0296547 0.16063678 -1.9717505 25
2.3452759 0.30495626 -1.8075364 26.333334
2.5749547 0.16026497 -1.8074224 24.251499
-1.6271287 0.58317202 -1.737529 30.511002
-1.5863545 0.56921434 -1.9399139 30
-1.0786645 0.53034806 -1.9696829 30.2575
1.9689151 0.65048933 -1.871783 30.411751
2.1253066 0.61490828 -1.853914 29.828251
2.5710206 0.66049612 -1.7963872 29.618084
2.6719031 0.85615033 -1.839524 31.07625
1.1585562 -0.55318046 -1.5902023 13.162
1.9479904 -0.41113913 -1.3874431 15.15275
-1.6871595 -0.16979665 -1.3205255 18.455807
-0.14324522 -0.20386773 -1.3638848 16.251499
0.090584919 -0.29861349 -1.3200364 14.1601
0.41827199 -0.22896783 -1.2811636 15.171
2.1110532 -0.27069449 -1.5258127 17.493416
2.6147773 -0.15383464 -1.3816186 19.727272
-1.6945527 0.20131235 -1.3747662 25.785715
2.6130879 0.1745719 -1.3581002 24.526316
-1.6850579 0.54472351 -1.413416 30.584053
2.6138904 0.61618865 -1.3535291 29.5
2.6535239 0.80998552 -1.5464214 31
-1.4324254 -0.53320479 -1.0099845 12.615677
-0.25800836 -0.41141531 -1.172348 11.878187
0.49369976 -0.41443306 -1.129687 12.16825
-1.6596065 -0.092313409 -0.97290683 19.873283
-1.5884523 -0.16894564 -0.90395403 17.849083
-0.82054585 -0.39482951 -1.1520576 13.01775
-0.63828081 -0.3165282 -0.90765005 13.267624
-0.21712564 -0.31453222 -1.1737711 13.252444
0.20967335 -0.29656932 -1.1046702 13.425713
0.47434521 -0.3437067 -0.91420823 12.116125
2.5488827 -0.12554447 -1.000833 20
-1.7671313 0.19366294 -0.97570401 25.875
2.5510519 0.16097367 -0.99917823 24.5
-1.7573372 0.49609321 -1.0016427 30.5
2.5506067 0.57326627 -0.99766779 29.5
-1.8074946 -0.55020094 -0.7514897 13.033751
-1.3997327 -0.44189459 -0.73065782 13.03125
-1.7401936 -0.080543727 -0.73745024 20.123684
-1.5788852 -0.13555922 -0.73663831 18.532499
0.55938005 -0.37109059 -0.77041972 11.162001
0.94309229 -0.12967449 -0.50674105 16.780685
2.4754746 -0.15930466 -0.57802397 19.222221
-1.8186436 0.20240287 -0.68257022 26.167749
2.4796045 0.18434507 -0.59433645 25
-1.8105586 0.49204415 -0.69979638 30.767624
2.4905131 0.5611757 -0.63773048 29.75
0.9596616 -1.1549331 -0.19039175 1.6666666
1.5586486 -1.1633396 -0.10976886 6
-1.7711029 -0.49687609 -0.017541829 13.04475
-1.4371724 -0.40232423 -0.1017743 13.043
1.7980648 -0.55151695 -0.15849023 12.708943
2.3636475 -0.407058 -0.13868199 15.0685
2.4026914 -0.41445243 -0.20256491 15
-1.8080084 -0.15199012 -0.15671964 18.27103
-1.3992913 -0.39200988 -0.12337185 13.0425
0.94072706 -0.088634931 -0.39727518 18.1465
2.310235 -0.27768266 -0.19644962 16.9445
2.4088326 -0.22681269 -0.28432867 17.933136
-1.8990633 0.18259656 -0.12094714 25.83452
2.3883483 0.1725475 -0.066951595 25
2.415848 0.1753515 -0.2331086 25
-1.8885942 0.46552327 -0.21552074 30.520437
2.3872991 0.54217505 -0.077515967 30
2.4182971 0.55190414 -0.23868637 30
2.2254796 -0.8953284 0.31771716 11.131001
-2.0040846 -0.56976187 0.29685897 13.04925
-1.8248138 -0.5485146 0.13816255 12.74715
-1.4646465 -0.49843526 0.18217184 12.0485
1.8214649 -0.52748996 0.1406433 12.994896
2.2600734 -0.75105453 0.30020246 12.280464
-2.0118754 -0.13770439 0.34741589 19
-1.9239948 -0.12061783 0.10594468 19.272751
-0.89851213 -0.37395889 0.33628547 11.05525
1.9783211 -0.34296548 0.26753601 15.131167
2.2221446 -0.26211116 0.18638673 16.970173
-2.0104587 0.17727146 0.34908244 25.5
-1.9759794 0.17233799 0.17387208 25.5
2.3403602 0.16982014 0.20015886 25
-2.0115569 0.50017875 0.3480697 30.5
-1.9759257 0.48619571 0.17432204 30.5
2.343626 0.53433746 0.19920421 30
0.74351066 -1.1761117 0.61227375 1.3333334
0.95992416 -1.1732198 0.70178592 3.3333333
1.393283 -1.1697226 0.74460447 6
1.609708 -1.1785436 0.75074321 7
2.2567468 -0.92259288 0.67011529 11.189
-2.0655131 -0.61234552 0.60948122 12.984917
0.33278936 -0.76361114 0.71899784 3.5
0.53979117 -0.61523998 0.69293696 6.4166665
1.7994977 -0.47786811 0.6201998 13.675525
2.2431216 -0.66908312 0.59362423 12.980291
-2.0568995 -0.14476363 0.59884769 19
-0.94907075 -0.36825034 0.55456138 12.060166
-0.60178846 -0.34962189 0.7882278 11.738
2.1849728 -0.29400489 0.55133748 16.564167
-2.0539134 0.17268358 0.5882346 25.3125
2.2697456 0.16973513 0.59971958 25
-2.0582252 0.48711982 0.61031872 30
2.2722795 0.53390998 0.60017943 30
0.76752234 -1.1689069 0.91753334 3.5
1.0207243 -1.166877 0.96468693 5
1.4335448 -1.1698419 1.0276541 7
1.7281784 -1.1331489 1.0716791 8.5
2.1887951 -0.96085095 1.0025903 11.0945
-2.1378839 -0.59152257 0.9885875 13.612945
-1.7838374 -0.44639036 0.86893058 14.058
-0.47601631 -0.40733245 1.0216204 11.577499
-0.21486609 -0.40862387 1.0169026 11.084
0.33607343 -0.75138432 0.85810882 5
0.54396361 -0.59643221 0.83359057 7.8571429
1.5625628 -0.42931363 1.0956548 14.117498
1.7270384 -0.51682782 0.95358092 13.488999
2.1456132 -0.40818113 1.012881 15.06075
-2.1275291 -0.16273679 0.9794237 18.90909
-0.49127537 -0.15547794 0.99334049 16.705139
-0.2997486 -0.19308041 1.0740063 15.681629
1.8260939 -0.23623291 1.1202712 17.273607
2.1358354 -0.29490873 0.98715341 16.771652
-2.1271424 0.17002065 0.996921 25
2.1981981 0.17427482 0.99228412 25
-2.1255996 0.54380333 0.98123461 30.142857
2.1974461 0.53681928 0.99098843 29.875
0.36589009 -1.1640083 1.5199165 6
0.6368736 -1.1562128 1.4664488 6.25
0.81474954 -1.1707791 1.5653071 7
1.5351593 -1.1817547 1.2656178 8
1.7083586 -1.0135018 1.4344983 10.182
2.1000373 -1.047864 1.3943 10.828403
-2.184979 -0.62490612 1.2497317 13.6599
-0.12450961 -0.42020914 1.2428423 12.087199
1.5905581 -0.66512769 1.4323034 12.614
1.721018 -0.53275329 1.4804605 13.948001
2.0745389 -0.5822835 1.4834757 14.117249
-2.188369 -0.15425643 1.4339892 19.384615
-0.51493567 -0.14846782 1.2711493 18.412333
-0.1946587 -0.20288259 1.3949492 16.608315
1.5842896 -0.32230246 1.5437844 15.862875
1.6882064 -0.31307054 1.4812031 16.092911
2.1170509 -0.17576782 1.4529933 19
-2.1983082 0.17408369 1.3938383 24.8125
2.1278071 0.18401802 1.3954403 25
-2.1994126 0.5337311 1.4119443 29.363636
2.1208313 0.55348241 1.4225314 29.714285
0.35427222 -1.1697513 1.8323041 7.5
0.59229326 -1.1757538 1.7766758 7.5
0.95012134 -1.1783677 1.8416152 8.333333
1.9409379 -1.1830804 1.6590511 10
2.0303981 -1.0669321 1.8934714 11.329977
-0.048805267 -0.54828799 1.823279 12.755917
0.17363238 -0.52753663 1.8514097 13.023733
1.5066341 -0.43641418 1.9096028 14.966286
1.66608 -0.53639454 1.7903799 14.2365
2.0489864 -0.74082637 1.800751 13.3144
-2.195266 -0.093480423 1.639709 20.5
-0.045632973 -0.38439593 1.7123162 14.089251
0.23354325 -0.25701737 1.8915093 16.314322
0.40651178 -0.19645788 1.9132673 17.596001
1.5623719 -0.33540928 1.6910852 15.861375
1.8009207 -0.22002381 1.8286809 18.228153
2.0678549 -0.19889826 1.7227497 18.745125
-2.262857 0.22143623 1.764302 25.282249
-0.56311691 0.039330717 1.6324059 23.0805
2.0568449 0.16076654 1.8041571 24.5
-2.2672524 0.63177907 1.7859337 29.782375
2.0534079 0.57111311 1.7978648 29.5
0.31189698 -1.1572789 2.1916363 9
0.60130197 -1.1716036 2.1560211 9
0.99299943 -1.1779875 2.1806335 9.5
1.4070776 -1.0797665 2.177104 10.803875
1.9537656 -1.0198567 2.2242694 11.999556
2.0127025 -0.89444929 2.042501 12.55625
1.4747738 -0.59014577 2.126987 14.107399
1.6319633 -0.58612633 2.0159545 14.1095
-0.034385063 -0.18970457 2.1231084 18.377918
0.1409421 -0.13523854 2.0679793 19.164
1.8484015 -0.23832133 2.2398028 18.404425
2.010427 -0.066286132 2.0697269 21
-0.017248338 0.02357945 2.0619268 22.58975
0.11593199 0.035065584 2.0582449 22.796125
1.980505 0.17532875 2.2292547 24.5
2.0098836 0.17366989 2.0681925 24.571428
-2.3500106 0.68392539 2.2532773 29.533249
1.9715068 0.70667762 2.2427731 30.30525
2.0077479 0.59907365 2.0417838 29.5
-2.3534288 0.85927641 2.2464771 31.033249
1.9518443 0.80529535 2.3480313 31
0.35369992 -1.1804855 2.5231671 10
0.60498857 -1.18208 2.4760315 10
0.95592505 -1.1832047 2.5851755 10.550375
1.4038314 -1.1501824 2.5961795 11.286045
1.8545936 -1.032069 2.5455503 12.330277
1.4721565 -0.47154808 2.6156733 15.533286
1.9216709 -0.72370958 2.5511451 14.1085
1.5185084 -0.36370197 2.4798508 16.605751
1.7858247 -0.21323249 2.5279517 18.989914
1.9166715 0.18970998 2.594116 24.5
-2.4208155 0.62324518 2.6652446 28.5345
-2.3945866 0.70746017 2.5152626 29.401499
1.910475 0.58869696 2.6038048 28.75
-2.4193497 0.88262153 2.6347775 30.534374
-2.3911674 0.90832239 2.470329 31.068001
1.9101442 0.85367972 2.6091728 31.054085
0.66233617 -1.1836586 2.8856525 11.0965
0.88771331 -1.184332 2.8265407 11.09875
1.4247255 -1.0895698 2.9992659 12.301188
1.8291447 -1.0421559 2.9367766 12.747223
1.053387 -0.58305925 3.1328831 15.099301
1.3686621 -0.60203415 2.9165211 14.872464
1.8598022 -0.7836895 2.9132564 14.053125
1.5810716 -0.38189131 2.9768348 17.104
1.7266495 -0.28923088 2.9737239 18.30225
1.8476708 0.16375946 2.995646 24
-2.4660246 0.65352088 2.9601848 28.470098
1.847091 0.58153653 2.9799838 28.285715
-2.4740839 0.95054936 2.9493339 30.569998
1.8287693 0.90054893 3.0432975 30.752834
0.68834823 -1.178015 3.3704455 12.095751
1.0083632 -1.1783313 3.2882872 12.0985
1.2713875 -1.1854144 3.2199118 12.10075
1.7764692 -0.96776134 3.3489318 13.604
1.0870478 -0.62373662 3.3514016 15.098999
1.2241801 -0.79256999 3.2737851 14.10025
1.728966 -0.4384633 3.4565177 17.05175
1.784268 -0.21511982 3.347904 19.5
1.783324 0.17677417 3.3510857 24
-2.5383584 0.68904734 3.3481321 28.321375
1.7903624 0.65306377 3.3175886 28.55225
-2.5544589 1.0491539 3.3908398 30.571503
1.7687457 0.95824516 3.3713188 30.685333
1.3844157 -1.1836745 3.9325593 13.099751
1.6833949 -1.074984 3.7570674 13.5021
1.0810615 -0.44551998 3.7752481 17.098
1.7051541 -0.59782141 3.8079357 16.051001
1.7050773 -0.23626463 3.7974565 19.5
1.7066393 0.1935126 3.7929602 24
-2.6241751 0.68037665 3.8270245 27.786251
1.7022707 0.61188936 3.8043439 27.714285
-2.6256933 0.95010251 3.8377159 29.369667
1.6921854 1.0091999 3.8061976 30.426064
-2.6289747 1.2283792 3.8199322 31.07275
0.75566566 -1.1878675 4.1168332 13.09525
1.0499204 -1.1244503 4.0362797 13.2985
1.132374 -0.78170526 4.3741398 15.09725
1.5590744 -0.6016953 4.2907114 16.299999
1.6433289 -0.52779382 4.158185 16.799999
1.6405611 -0.23365094 4.1771913 19.714285
-2.1349726 0.00023073329 4.3851452 22.077
1.6390808 0.15591629 4.1982799 23.5
-2.6945839 0.69505459 4.2392259 27.57375
1.5991404 0.7239846 4.3809028 28
1.6354595 0.55715227 4.1950297 27
-2.6981497 1.0584658 4.2310195 29.57375
1.5879973 1.0700703 4.379972 30
1.640372 1.0392287 4.1099749 30.217167
-2.6984172 1.3299069 4.2302318 31.07375
1.5947883 1.238093 4.394639 31.1
1.621098 1.2007048 4.2353253 31.1005
1.0331051 -1.0420061 4.466671 14.0965
-0.63595653 -0.56872982 4.7561674 16.886202
1.5089102 -0.55195034 4.5763254 17.049438
-2.1304369 -0.11684879 4.609901 21
1.5674185 -0.2237718 4.6026654 20
1.603362 -0.21518897 4.4087086 20
-2.7263858 0.00028102871 4.7273998 22.075001
-2.1323977 0.17551918 4.5818381 23.5
-1.8132784 0.17294347 4.644691 23.5
-1.3945025 0.17062993 4.7158155 23.5
-1.0386072 0.1695177 4.7796297 23.5
1.568627 0.16850726 4.6064363 23.5
1.6045793 0.21663013 4.41682 24
-2.5089645 0.63704365 4.5197353 27
-2.1579311 0.60728967 4.5782905 26.875
-1.8020407 0.63486463 4.6404409 27.125
-1.4020318 0.60885453 4.7110982 27
-1.0244515 0.60508531 4.777122 27
1.5634186 0.60163033 4.6168523 27
-2.5927291 0.99821955 4.4984517 29
-2.1681044 1.0479219 4.5746613 29.4
-1.8346193 1.0690941 4.6306748 29.6
-1.3996707 1.0361303 4.7129216 29.5
-1.0276227 1.029779 4.7777181 29.5
1.555271 1.0290409 4.6338034 29.549625
1.601603 0.90122741 4.4253526 29
-2.6273236 1.3182338 4.4906669 30.666666
-2.1440163 1.3404537 4.5787215 31
-1.8007547 1.3196414 4.6410694 31
-1.4003243 1.3027939 4.7113695 31
-1.024434 1.2949897 4.7780528 31
1.5531641 1.2941761 4.6315207 31.049625
1.0314876 -1.1753815 5.0627971 14.09575
1.3032634 -1.1438718 4.8567443 14.0975
-0.57522947 -0.49544933 4.8572149 17.586624
-0.16422421 -0.5093624 4.9558787 17.4946
1.4299824 -0.55775595 5.0840349 17.333334
-0.54061347 -0.15121111 4.8753633 20.666666
-0.15475596 -0.25854364 4.9846416 19.79475
1.444188 -0.19872788 5.0863967 20.363636
-2.6133645 0.12875016 4.9168644 23.076
-0.90566456 0.15838067 4.8163643 23.4
-0.60103232 0.16956918 4.8554611 23.5
-0.16898645 0.2302846 4.980237 24
0.18442822 0.29869896 5.1698112 24.5
1.4701276 0.20229262 5.0355649 23.666666
-0.84368116 0.60445386 4.8082891 27
-0.60000724 0.6054582 4.8514385 27
-0.16516693 0.61734843 4.9813247 27
0.16270417 0.6071133 5.1629319 26.799999
0.40530089 0.63231325 5.1981091 27
1.4650879 0.60181177 5.0384583 26.714285
-0.85102373 1.0289481 4.8091006 29.5
-0.59904402 1.0308065 4.8544755 29.5
-0.16669182 1.0498142 4.9787359 29.5
0.20254716 0.98710257 5.1357536 29
0.53617013 1.0511279 5.1062045 29.333334
0.88514012 1.1922289 5.1101952 30
1.466104 1.0096021 5.05371 29.049166
-0.85259545 1.2948097 4.8116946 31
-0.5963645 1.2971902 4.8579907 31
-0.20176443 1.3073292 4.9283276 31
0.20285136 1.3254641 4.997016 31
0.60076952 1.3527148 5.0674973 31
1.0358158 1.3167579 5.1418481 30.6
1.4086695 1.3126829 5.1147151 30.549084
1.1553335 -0.94628155 5.3389759 15.048
1.2342579 -0.94965106 5.3411112 15
1.1865104 -0.62195307 5.3434887 17
1.3225424 -0.58696795 5.2911839 17.25
0.61322165 -0.15631777 5.2408185 20.714285
1.0313926 -0.16101003 5.3159842 20.714285
1.3225771 -0.22563276 5.2940722 20.200001
0.37648177 0.30116218 5.2027831 24.5
0.60229951 0.24375539 5.243753 24
1.0013007 0.24982977 5.3138657 24
1.3602608 0.25093812 5.2614355 24
0.3410922 0.56365055 5.2019477 26.5
0.59980899 0.57019687 5.2384019 26.5
0.9996869 0.58459938 5.3120766 26.5
1.3566164 0.58772886 5.2622027 26.5
0.3741703 1.0009431 5.2090468 29
0.60456723 0.9157865 5.2404971 28.5
0.99797493 0.93706465 5.3035383 28.5
1.3611385 0.94328904 5.2604618 28.5
1.4065467 1.3672364 5.2094741 30.666666
