# .PCD v0.7 - Point Cloud Data file format
VERSION 0.7
FIELDS x y z intensity ring
SIZE 4 4 4 4 2
TYPE F F F F U
COUNT 1 1 1 1 1
WIDTH 1163
HEIGHT 1
VIEWPOINT 0 0 0 1 0 0 0
POINTS 1163
DATA ascii
-0.25962391 -0.46437696 -0.11385756 96 14
-0.32470271 -0.43801719 -0.17651953 92 12
-0.26143542 -0.46999875 -0.20339964 96 11
-0.33643895 -0.45093262 -0.28023297 96 9
-0.25860333 -0.46572554 -0.23383114 98 10
-0.3337675 -0.44585845 -0.31554103 98 8
-0.25724947 -0.46777105 -0.33769789 96 7
-0.33571255 -0.44569674 -0.39834607 91 6
-0.25051957 -0.45947656 -0.41351935 84 5
-0.2149107 -0.28450543 -0.30749881 4 4
-0.17938386 -0.33050779 -0.36206695 3 3
-0.24858397 -0.3255758 -0.44267482 5 2
-0.17212203 -0.32026863 -0.4315443 4 1
-0.18386994 -0.24056581 -0.37699658 4 0
-0.26042578 -0.4644576 0.13277079 95 31
-0.33126602 -0.44671232 0.12062173 87 30
-0.26115999 -0.46487236 0.096139885 92 29
-0.32517427 -0.43885416 0.079973385 84 28
-0.25936732 -0.4607465 0.060285252 86 27
-0.32899013 -0.44394016 0.049478423 81 26
-0.26800787 -0.47588477 0.035571728 82 25
-0.3300696 -0.44537449 0.02422338 82 24
-0.263834 -0.46802226 0.011663424 83 23
-0.33198217 -0.44777137 0 78 22
-0.26765186 -0.4744772 -0.011837505 82 21
-0.33022505 -0.44525927 -0.02422338 80 20
-0.25862131 -0.45828652 -0.034012061 83 19
-0.33401981 -0.44985399 -0.047166839 79 18
-0.26853761 -0.47603902 -0.058567569 85 17
-0.32797527 -0.44146979 -0.071561061 83 16
-0.26748592 -0.47450757 -0.088884331 90 15
-0.3310225 -0.44431809 -0.14857234 92 13
-0.26361659 -0.46772483 -0.11497381 96 14
-0.32899594 -0.44071284 -0.17815398 91 12
-0.26532239 -0.47313705 -0.20527431 97 11
-0.34201297 -0.45503372 -0.28375053 96 9
-0.26233694 -0.46882549 -0.23595686 98 10
-0.33402616 -0.44298804 -0.31424779 97 8
-0.26178202 -0.47236356 -0.34190163 95 7
-0.33242863 -0.4382062 -0.39228758 86 6
-0.25576138 -0.46530795 -0.41998059 84 5
-0.21369231 -0.28089386 -0.30404377 4 4
-0.17323983 -0.31628284 -0.34569207 3 3
-0.24872532 -0.32343251 -0.44076675 5 2
-0.17252907 -0.31832749 -0.42955562 4 1
-0.18381399 -0.23878367 -0.37495875 4 0
-0.26086667 -0.4614374 0.13212627 95 31
-0.33575422 -0.44944412 0.12174904 87 30
-0.2615813 -0.46181637 0.095666289 94 29
-0.32967505 -0.44166321 0.080746077 85 28
-0.26340368 -0.4641661 0.060891133 87 27
-0.33353111 -0.44676569 0.049954176 83 26
-0.26844573 -0.47277209 0.035398208 82 25
-0.33913156 -0.45419568 0.024805672 85 24
-0.26432219 -0.46487385 0.011605397 82 23
-0.33203936 -0.44461274 0 78 22
-0.27175805 -0.47789621 -0.011953559 80 21
-0.33335772 -0.44604036 -0.024339838 80 20
-0.26266581 -0.46172792 -0.034357365 82 19
-0.33708724 -0.45067334 -0.047390379 80 18
-0.26784348 -0.47072291 -0.057998952 85 17
-0.33249745 -0.44427535 -0.072249144 83 16
-0.26680827 -0.46923101 -0.08802554 91 15
-0.33264881 -0.44310185 -0.14857234 90 13
-0.26644167 -0.4689261 -0.11553194 96 14
-0.32918087 -0.43762189 -0.17733674 92 12
-0.26931754 -0.47620684 -0.20714895 96 11
-0.34225914 -0.45208234 -0.28257802 97 9
-0.26515603 -0.46983686 -0.23701973 97 10
-0.33694944 -0.44345868 -0.31554103 98 8
-0.26351157 -0.47140089 -0.34190163 94 7
-0.33767807 -0.44170851 -0.39683145 87 6
-0.25563309 -0.46101978 -0.41674998 85 5
-0.2080584 -0.27155411 -0.29367864 4 4
-0.17521416 -0.31715351 -0.3475115 3 3
-0.24885474 -0.32129222 -0.43885866 5 2
-0.17726834 -0.32437187 -0.43949908 4 1
-0.18738422 -0.2415151 -0.38107225 4 0
-0.26374269 -0.46258217 0.13277079 95 31
-0.33592671 -0.44627044 0.12118538 88 30
-0.26568747 -0.46512881 0.096613474 93 29
-0.32681364 -0.43454814 0.079587042 84 28
-0.26388043 -0.46103814 0.060588192 89 27
-0.33215848 -0.4415746 0.049478423 81 26
-0.26894712 -0.46961519 0.035224687 83 25
-0.34230316 -0.45493934 0.024922131 84 24
-0.26717627 -0.46612236 0.011663424 82 23
-0.33517784 -0.44538435 0 78 22
-0.27104029 -0.47254977 -0.011837505 81 21
-0.33038306 -0.43890649 -0.023990463 80 20
-0.26558754 -0.46293107 -0.034530014 83 19
-0.3387368 -0.44943488 -0.047390379 80 18
-0.27193716 -0.47410524 -0.058567569 84 17
-0.33412361 -0.44305369 -0.072249144 82 16
-0.26844454 -0.4682968 -0.08802554 90 15
-0.33273602 -0.44002682 -0.14788452 91 13
-0.26815858 -0.46794635 -0.11553194 97 14
-0.33644524 -0.44397891 -0.18060564 92 12
-0.26756281 -0.46920753 -0.20433699 96 11
-0.34526038 -0.4525747 -0.28375053 96 9
-0.26568505 -0.46693629 -0.23595686 97 10
-0.34241873 -0.44735977 -0.31942061 98 8
-0.26414821 -0.4686693 -0.34050038 94 7
-0.34287995 -0.44523799 -0.40137532 84 6
-0.26000634 -0.46513647 -0.4215959 85 5
-0.20677441 -0.26798239 -0.2902236 4 4
-0.17878476 -0.32105473 -0.3529698 3 3
-0.2500307 -0.32037795 -0.43885866 5 2
-0.17839952 -0.32375112 -0.43949908 4 1
-0.18461524 -0.23632979 -0.37292096 4 0
-0.26416194 -0.4595589 0.13212627 94 31
-0.33748242 -0.44509515 0.12118538 88 30
-0.26730946 -0.46419853 0.096613474 90 29
-0.32982799 -0.43536741 0.079973385 84 28
-0.26671842 -0.46226937 0.060891133 86 27
-0.3382304 -0.44634512 0.050192051 81 26
-0.2730591 -0.47300449 0.035571728 81 25
-0.33934081 -0.44778854 0.024572756 80 24
-0.26880175 -0.46518689 0.011663424 82 23
-0.33369431 -0.44023904 0 78 22
-0.27144679 -0.46943155 -0.011779478 83 21
-0.33646351 -0.44370228 -0.024339838 79 20
-0.26720184 -0.4620012 -0.034530014 84 19
-0.33879015 -0.4462724 -0.047166839 80 18
-0.27359045 -0.47315311 -0.058567569 86 17
-0.33717382 -0.44385052 -0.07259319 81 16
-0.27252251 -0.47163296 -0.088884331 92 15
-0.33573413 -0.44076875 -0.14857234 92 13
-0.26737195 -0.46277606 -0.11441568 96 14
-0.33511049 -0.43905747 -0.1789712 92 12
-0.26805353 -0.46625593 -0.20339964 96 11
-0.34683806 -0.45136678 -0.28375053 96 9
-0.26731333 -0.46600601 -0.23595686 98 10
-0.34397823 -0.44616175 -0.31942061 98 8
-0.26476905 -0.46593904 -0.33909914 96 7
-0.34688431 -0.44717047 -0.40440455 84 6
-0.2607007 -0.46255869 -0.41998059 84 5
-0.20770858 -0.267259 -0.2902236 4 4
-0.17659725 -0.31442055 -0.34569207 3 3
-0.25114748 -0.31950322 -0.43885866 5 2
-0.18097663 -0.3257879 -0.44347647 4 1
-0.18725239 -0.23794244 -0.37699658 4 0
-0.26456332 -0.45653832 0.13148175 94 31
-0.33606184 -0.44005492 0.12005808 86 30
-0.26770565 -0.46113396 0.096139885 91 29
-0.3328521 -0.43617091 0.080359727 83 28
-0.26833043 -0.46133554 0.060891133 88 27
-0.33970866 -0.44522107 0.050192051 83 26
-0.27346379 -0.46988735 0.035398208 83 25
-0.34090182 -0.44660124 0.024572756 81 24
-0.26917574 -0.46208039 0.011605397 83 23
-0.33827901 -0.44303352 0 77 22
-0.27425051 -0.47069398 -0.011837505 80 21
-0.33343911 -0.43658933 -0.023990463 79 20
-0.26881289 -0.46106568 -0.034530014 83 19
-0.34178814 -0.44711873 -0.047390379 80 18
-0.27399924 -0.47004378 -0.058283258 86 17
-0.33713162 -0.44076914 -0.072249144 80 16
-0.27293724 -0.46854505 -0.088454939 91 15
-0.33727062 -0.43959412 -0.14857234 91 13
-0.27133757 -0.46611026 -0.11553194 95 14
-0.33519328 -0.4360179 -0.17815398 92 12
-0.26844609 -0.46335351 -0.20246232 96 11
-0.34697449 -0.44847348 -0.28257802 97 9
-0.26781517 -0.46310571 -0.23489399 97 10
-0.34677511 -0.44670299 -0.32071382 97 8
-0.26639387 -0.46501201 -0.33909914 95 7
-0.34590259 -0.44289377 -0.40137532 84 6
-0.26223317 -0.46169162 -0.41998059 82 5
-0.21534348 -0.27505434 -0.30058873 5 4
-0.17763893 -0.31383321 -0.34569207 3 3
-0.25523946 -0.32244739 -0.44458291 5 2
-0.18132754 -0.32385764 -0.44148776 4 1
-0.19077159 -0.24069896 -0.38311005 4 0
-0.27090824 -0.46402517 0.13405983 95 31
-0.3419967 -0.44471246 0.12174904 87 30
-0.27292216 -0.46661744 0.097560667 93 29
-0.33429664 -0.43506476 0.080359727 85 28
-0.27110365 -0.46258992 0.061194073 87 27
-0.34430924 -0.44796699 0.050667804 82 26
-0.27752429 -0.47329193 0.035745248 80 25
-0.3469696 -0.45139045 0.024922131 80 24
-0.27447253 -0.46766883 0.011779478 82 23
-0.33974633 -0.44190931 0 75 22
-0.278404 -0.47405529 -0.011953559 82 21
-0.3410061 -0.44337526 -0.024456298 82 20
-0.27034038 -0.46017173 -0.034530014 82 19
-0.34792721 -0.45182377 -0.048060995 80 18
-0.27680472 -0.47127989 -0.058567569 84 17
-0.33866811 -0.43958962 -0.072249144 83 16
-0.2757265 -0.469767 -0.088884331 89 15
-0.34315789 -0.4441615 -0.15063587 90 13
-0.27173936 -0.46305287 -0.11497381 95 14
-0.34099919 -0.4404909 -0.18060564 92 12
-0.27122101 -0.46442056 -0.20339964 96 11
-0.35263139 -0.45246726 -0.28609562 97 9
-0.2716088 -0.46613628 -0.23701973 97 10
-0.34700716 -0.44381005 -0.31942061 96 8
-0.26896021 -0.46592447 -0.34050038 95 7
-0.35239366 -0.44791427 -0.40743384 85 6
-0.26478219 -0.46243447 -0.4215959 81 5
-0.20952293 -0.26583898 -0.2902236 4 4
-0.18208125 -0.3191967 -0.3529698 3 3
-0.25230077 -0.31653032 -0.43695059 5 2
-0.18392308 -0.3258743 -0.44546515 4 1
-0.18978199 -0.23778546 -0.37903443 4 0
-0.27131096 -0.46098927 0.13341531 95 31
-0.34354696 -0.44351596 0.12174904 86 30
-0.27207527 -0.46142134 0.096613474 89 29
-0.3403722 -0.4397366 0.081518762 85 28
-0.27271676 -0.46164075 0.061194073 88 27
-0.34433973 -0.44480047 0.050429929 82 26
-0.27791527 -0.47016767 0.035571728 83 25
-0.34547025 -0.44623914 0.024689214 80 24
-0.27492154 -0.46450311 0.011721451 82 23
-0.34128681 -0.44072068 0 78 22
-0.28132072 -0.47523692 -0.012011586 79 21
-0.3441664 -0.44409034 -0.024572756 76 20
-0.26816219 -0.45276982 -0.034012061 82 19
-0.35103595 -0.45256811 -0.048284534 79 18
-0.27727407 -0.46811944 -0.058283258 84 17
-0.34172639 -0.440355 -0.07259319 82 16
-0.27620164 -0.46662819 -0.088454939 88 15
-0.34033135 -0.43722883 -0.14857234 91 13
-0.27458501 -0.46420461 -0.11553194 95 14
-0.33968985 -0.43552417 -0.1789712 92 12
-0.27408788 -0.46542603 -0.20433699 96 11
-0.35557929 -0.45296469 -0.28726813 97 9
-0.27331546 -0.46513769 -0.23701973 98 10
-0.3486315 -0.44253522 -0.31942061 97 8
-0.2737633 -0.47031948 -0.34470412 95 7
-0.3527905 -0.44506657 -0.40591919 78 6
-0.26742038 -0.46311849 -0.42321122 81 5
-0.21390103 -0.26928777 -0.29540616 5 4
-0.17651027 -0.30658084 -0.33841434 3 3
-0.25544423 -0.31815267 -0.44076675 5 2
-0.1843783 -0.32387489 -0.44347647 4 1
-0.19432601 -0.24156715 -0.38718569 4 0
-0.27177566 -0.45790878 0.13277079 92 31
-0.34667644 -0.44416788 0.12231269 87 30
-0.2712751 -0.4561896 0.095666289 91 29
-0.34198162 -0.43848616 0.081518762 84 28
-0.27314669 -0.45850033 0.060891133 86 27
-0.34596765 -0.44353542 0.050429929 79 26
-0.28217122 -0.47344184 0.035918768 82 25
-0.35019079 -0.44889605 0.024922131 77 24
-0.27527058 -0.4613885 0.011663424 82 23
-0.3444455 -0.44143173 0 76 22
-0.28306064 -0.47420263 -0.012011586 81 21
-0.34262577 -0.43896124 -0.024339838 75 20
-0.27489513 -0.46037257 -0.034702662 81 19
-0.34806976 -0.44541061 -0.047613915 80 18
-0.28143361 -0.47142538 -0.058851875 84 17
-0.34640411 -0.44298878 -0.073281273 81 16
-0.28033322 -0.46990272 -0.089313723 90 15
-0.34781805 -0.44358 -0.15132371 91 13
-0.27380729 -0.45899788 -0.11441568 94 14
-0.34414253 -0.43803951 -0.18060564 91 12
-0.27688435 -0.46646509 -0.20527431 96 11
-0.35723707 -0.4516584 -0.28726813 96 9
-0.27493742 -0.46418083 -0.23701973 97 10
-0.3488369 -0.43964532 -0.31812742 96 8
-0.27332604 -0.46577895 -0.34190163 95 7
-0.35683775 -0.44692993 -0.40894845 77 6
-0.26903534 -0.46218216 -0.42321122 79 5
-0.21597965 -0.26994169 -0.29713365 5 4
-0.17757937 -0.3059628 -0.33841434 3 3
-0.25558397 -0.31596553 -0.43885866 5 2
-0.18625025 -0.32454985 -0.44546515 4 1
-0.1942457 -0.23977083 -0.38514787 4 0
-0.27337241 -0.45695728 0.13277079 93 31
-0.3497377 -0.44486389 0.12287636 86 30
-0.27411798 -0.45735127 0.096139885 90 29
-0.34044307 -0.43341729 0.080746077 85 28
-0.27221012 -0.45327738 0.060285252 88 27
-0.34743661 -0.4423857 0.050429929 81 26
-0.28382212 -0.47245401 0.035918768 82 25
-0.35020509 -0.44571325 0.024805672 84 24
-0.28071421 -0.46686792 0.011837505 82 23
-0.3475368 -0.44218624 0 77 22
-0.28335294 -0.47111392 -0.011953559 81 21
-0.34570709 -0.43971968 -0.024456298 80 20
-0.27267158 -0.45298207 -0.034184713 83 19
-0.35263953 -0.44815558 -0.048060995 81 18
-0.28053537 -0.46617234 -0.058283258 84 17
-0.34633172 -0.43989813 -0.072937228 80 16
-0.28323138 -0.47103772 -0.089743115 90 15
-0.34487265 -0.43672246 -0.14926018 90 13
-0.27781904 -0.46227637 -0.11553194 96 14
-0.34566948 -0.43683556 -0.18060564 90 12
-0.27842972 -0.46554431 -0.20527431 96 11
-0.35458496 -0.44530678 -0.28375053 96 9
-0.27885702 -0.46711525 -0.23914547 97 10
-0.35432097 -0.4434835 -0.322007 97 8
-0.27808493 -0.47018424 -0.34610534 93 7
-0.35957089 -0.44728878 -0.41046309 77 6
-0.2696102 -0.45963639 -0.4215959 79 5
-0.21687363 -0.26922399 -0.29713365 5 4
-0.17944559 -0.30685979 -0.34023377 3 3
-0.25971666 -0.31885225 -0.44458291 5 2
-0.1880724 -0.32524845 -0.44745383 4 1
-0.19040954 -0.23355818 -0.37495875 4 0
-0.27736065 -0.46019745 0.13405983 94 31
-0.35273021 -0.44560543 0.12344001 88 30
-0.28066963 -0.46486852 0.098034263 90 29
-0.34649831 -0.4380793 0.081905104 83 28
-0.27498651 -0.45450136 0.060588192 87 27
-0.3489787 -0.44117025 0.050429929 81 26
-0.28410542 -0.46937096 0.035745248 82 25
-0.3532382 -0.44650197 0.024922131 80 24
-0.27969009 -0.46164751 0.011721451 83 23
-0.34744224 -0.43907699 0 78 22
-0.2824235 -0.46583593 -0.011837505 83 21
-0.34872103 -0.44052282 -0.024572756 80 20
-0.27417219 -0.45207533 -0.034184713 84 19
-0.35420173 -0.44692191 -0.048060995 79 18
-0.28591409 -0.47162852 -0.059136182 83 17
-0.35250378 -0.44448891 -0.073969364 82 16
-0.280992 -0.46375933 -0.088454939 90 15
-0.34782246 -0.43745172 -0.14994803 90 13
-0.28068393 -0.46339396 -0.11609006 96 14
-0.34859598 -0.4375287 -0.18142286 91 12
-0.28124014 -0.4665601 -0.20621163 96 11
-0.35752586 -0.44578299 -0.28492308 96 9
-0.27924758 -0.46424332 -0.2380826 97 10
-0.35586688 -0.44224399 -0.322007 97 8
-0.28174421 -0.47282732 -0.34890783 93 7
-0.3598716 -0.44449067 -0.40894845 74 6
-0.27409926 -0.46363574 -0.42644182 79 5
-0.21896155 -0.26985976 -0.29886121 5 4
-0.18137343 -0.3077161 -0.3420532 3 3
-0.25772873 -0.31421852 -0.43885866 5 2
-0.19146116 -0.32853627 -0.45341986 4 1
-0.19308349 -0.2351125 -0.37903443 3 0
-0.28020975 -0.46129674 0.13470435 94 31
-0.35123175 -0.44057447 0.12231269 85 30
-0.27975768 -0.45968038 0.09708707 89 29
-0.34493202 -0.4330157 0.081132419 82 28
-0.28041786 -0.45991272 0.061497014 86 27
-0.35363331 -0.44383007 0.050905682 83 26
-0.28574207 -0.46837637 0.035745248 82 25
-0.35166702 -0.44137213 0.024689214 81 24
-0.28267345 -0.46275806 0.011779478 80 23
-0.35367027 -0.44370818 0 78 22
-0.28663501 -0.46912426 -0.011953559 81 21
-0.34876847 -0.43729547 -0.024456298 80 20
-0.27962115 -0.4575175 -0.034702662 81 19
-0.35888147 -0.44956279 -0.048508074 79 18
-0.28635487 -0.46845245 -0.058851875 83 17
-0.3540532 -0.44325575 -0.073969364 80 16
-0.28651291 -0.46904892 -0.089743115 90 15
-0.34942344 -0.43617392 -0.14994803 91 13
-0.28103954 -0.46032554 -0.11553194 96 14
-0.35019726 -0.43624809 -0.18142286 90 12
-0.2817539 -0.46354002 -0.20527431 96 11
-0.36186898 -0.44795588 -0.28726813 96 9
-0.28327537 -0.46709752 -0.24020834 97 10
-0.36019447 -0.44424897 -0.32459342 97 8
-0.28241792 -0.47001138 -0.34750658 95 7
-0.3640264 -0.44623983 -0.41197771 76 6
-0.27386048 -0.45933956 -0.42321122 78 5
-0.21879458 -0.26766521 -0.29713365 5 4
-0.18508972 -0.3114934 -0.3475115 4 3
-0.26089886 -0.31579322 -0.44267482 5 2
-0.19039501 -0.32389432 -0.44745383 4 1
-0.18647207 -0.22554897 -0.36273187 3 0
-0.27939463 -0.45613524 0.13341531 93 31
-0.35590985 -0.44306996 0.12344001 86 30
-0.28271478 -0.4607501 0.097560667 90 29
-0.34962425 -0.43558866 0.081905104 83 28
-0.28210166 -0.45888183 0.061497014 86 27
-0.35369217 -0.44059634 0.050667804 79 26
-0.28745684 -0.46732596 0.035745248 81 25
-0.35642421 -0.44396284 0.024922131 81 24
-0.28558779 -0.46390274 0.011837505 81 23
-0.35057527 -0.43657953 0 78 22
-0.28965396 -0.47020429 -0.012011586 79 21
-0.34714961 -0.43219391 -0.02422338 76 20
-0.28259483 -0.45861879 -0.034875315 82 19
-0.3605268 -0.44824442 -0.048508074 79 18
-0.28928167 -0.46957052 -0.059136182 86 17
-0.35255539 -0.43810907 -0.073281273 82 16
-0.28686675 -0.46594286 -0.089313723 90 15
-0.35549429 -0.4405449 -0.15201154 90 13
-0.28272483 -0.45929241 -0.11553194 94 14
-0.35321084 -0.43685418 -0.18224007 91 12
-0.28337029 -0.46255368 -0.20527431 96 11
-0.36771107 -0.45174658 -0.2907857 96 9
-0.28373325 -0.4641695 -0.23914547 97 10
-0.361743 -0.44298896 -0.32459342 97 8
-0.28724751 -0.47435179 -0.35171029 93 7
-0.36558184 -0.44496644 -0.41197771 73 6
-0.27643609 -0.46002167 -0.4248265 78 5
-0.22088699 -0.26828599 -0.29886121 5 4
-0.18704431 -0.31232381 -0.34933093 4 3
-0.25684473 -0.30866328 -0.43313444 5 2
-0.19228536 -0.32453778 -0.44944251 4 1
-0.19382311 -0.2326213 -0.37699658 4 0
-0.27846667 -0.45103458 0.13212627 90 31
-0.35283604 -0.43616238 0.12174904 87 30
-0.2843214 -0.45976043 0.097560667 90 29
-0.35270303 -0.43628022 0.082291454 82 28
-0.27980965 -0.45154801 0.060588192 87 27
-0.35365573 -0.4374299 0.050429929 81 26
-0.28908637 -0.46631968 0.035745248 81 25
-0.35954946 -0.44465184 0.025038589 80 24
-0.28851351 -0.46503273 0.011895532 81 23
-0.35525656 -0.43922839 0 77 22
-0.28998464 -0.46706113 -0.011953559 82 21
-0.35339123 -0.43678525 -0.024572756 79 20
-0.28419399 -0.45762959 -0.034875315 81 19
-0.36366403 -0.44891202 -0.048731618 80 18
-0.29091901 -0.46855789 -0.059136182 83 17
-0.35878271 -0.44262844 -0.074313402 82 16
-0.28849146 -0.46493867 -0.089313723 88 15
-0.35398331 -0.43558306 -0.15063587 89 13
-0.28560144 -0.46037945 -0.11609006 94 14
-0.35473359 -0.43561858 -0.18224007 91 12
-0.28619131 -0.46353948 -0.20621163 96 11
-0.36506522 -0.44535494 -0.28726813 96 9
-0.28652942 -0.46510851 -0.24020834 97 10
-0.36328715 -0.44172356 -0.32459342 96 8
-0.28676209 -0.46980098 -0.34890783 95 7
-0.36203384 -0.43758065 -0.40591919 69 6
-0.27706057 -0.4574165 -0.42321122 78 5
-0.22182216 -0.26751333 -0.29886121 5 4
-0.18900692 -0.3131443 -0.35115036 4 3
-0.26210564 -0.31268752 -0.44076675 5 2
-0.19494802 -0.32647932 -0.45341986 4 1
-0.18992552 -0.22644213 -0.36680749 4 0
-0.28637138 -0.46034425 0.13534887 94 31
-0.3574484 -0.43869236 0.12287636 88 30
-0.28592449 -0.45876518 0.097560667 90 29
-0.35265666 -0.43313721 0.081905104 84 28
-0.28660312 -0.45901212 0.061799955 86 27
-0.35675946 -0.43811634 0.050667804 79 26
-0.29202434 -0.46742868 0.035918768 81 25
-0.36426821 -0.4472546 0.025271507 80 24
-0.29145053 -0.46614784 0.011953559 81 23
-0.35678756 -0.43798563 0 78 22
-0.29292953 -0.46817067 -0.012011586 80 21
-0.35649884 -0.43747875 -0.024689214 79 20
-0.28578967 -0.45663473 -0.034875315 80 19
-0.36206585 -0.44379324 -0.048284534 80 18
-0.29124469 -0.46542808 -0.058851875 84 17
-0.35403195 -0.433725 -0.072937228 82 16
-0.29140899 -0.46602288 -0.089743115 90 15
-0.3570314 -0.43619859 -0.15132371 92 13
-0.28464207 -0.45523524 -0.11497381 94 14
-0.35775772 -0.43619841 -0.18305729 92 12
-0.28902274 -0.46451128 -0.20714895 96 11
-0.36520478 -0.44238108 -0.28609562 96 9
-0.28696686 -0.4621774 -0.23914547 97 10
-0.36757052 -0.44373646 -0.32717982 97 8
-0.28732431 -0.46702823 -0.34750658 95 7
-0.36227903 -0.43479198 -0.40440455 68 6
-0.28062615 -0.45971459 -0.42644182 75 5
-0.22743085 -0.27224952 -0.30577129 6 4
-0.19009884 -0.31248263 -0.35115036 4 3
-0.26214498 -0.31054369 -0.43885866 5 2
-0.19300628 -0.32057813 -0.44546515 4 1
-0.19449687 -0.23016557 -0.37495875 3 0
-0.28542942 -0.45523694 0.13405983 92 31
-0.36053008 -0.43931866 0.12344001 87 30
-0.28882024 -0.45984897 0.098034263 87 29
-0.35416648 -0.43190357 0.081905104 79 28
-0.28557941 -0.45379621 0.061194073 87 27
-0.35979569 -0.4388493 0.050905682 79 26
-0.29365417 -0.46640643 0.035918768 80 25
-0.36900955 -0.44982988 0.025504425 80 24
-0.28910702 -0.45876622 0.011779478 81 23
-0.35512784 -0.4328844 0 78 22
-0.29712707 -0.47143716 -0.012127639 81 21
-0.35802373 -0.43623167 -0.024689214 80 20
-0.29134458 -0.46198097 -0.035393264 81 19
-0.36671126 -0.44642624 -0.048731618 79 18
-0.29418305 -0.46651545 -0.059136182 84 17
-0.35704803 -0.43445545 -0.073281273 80 16
-0.29433757 -0.46709231 -0.090172507 89 15
-0.36469689 -0.44234344 -0.15407504 90 13
-0.28872854 -0.45842472 -0.11609006 95 14
-0.3562541 -0.43131608 -0.18142286 91 12
-0.2893399 -0.46158072 -0.20621163 96 11
-0.36666977 -0.44116756 -0.28609562 95 9
-0.28857839 -0.46117288 -0.23914547 96 10
-0.36628544 -0.43924052 -0.32459342 97 8
-0.2889528 -0.4660224 -0.34750658 94 7
-0.36885935 -0.43966037 -0.41046309 66 6
-0.2831398 -0.46041217 -0.42805713 76 5
-0.22598515 -0.26874554 -0.30231625 5 4
-0.19113404 -0.31185055 -0.35115036 4 3
-0.26422796 -0.31089619 -0.44076675 5 2
-0.19639139 -0.32384267 -0.45143119 4 1
-0.18956415 -0.22295651 -0.36273187 3 0
-0.28821784 -0.45633614 0.13470435 92 31
-0.36198494 -0.43812069 0.12344001 88 30
-0.28773758 -0.45472795 0.09708707 89 29
-0.35559675 -0.43072674 0.081905104 80 28
-0.28972083 -0.45705065 0.061799955 85 27
-0.35973334 -0.43567786 0.050667804 79 26
-0.29387286 -0.46331814 0.035745248 81 25
-0.3641091 -0.4409259 0.025038589 80 24
-0.29461673 -0.46415317 0.011953559 79 23
-0.35976058 -0.43554696 0 77 22
-0.29610944 -0.46616596 -0.012011586 81 21
-0.36426297 -0.44079876 -0.025038589 80 20
-0.28756335 -0.45256779 -0.034702662 80 19
-0.3634837 -0.43940607 -0.048060995 77 18
-0.294406 -0.4634349 -0.058851875 83 17
-0.36173517 -0.43700916 -0.073969364 82 16
-0.29326373 -0.46194336 -0.089313723 88 15
-0.35999221 -0.43375826 -0.15132371 90 13
-0.29032698 -0.45741412 -0.11609006 94 14
-0.36223659 -0.43556359 -0.18387452 90 12
-0.28972086 -0.45860273 -0.20527431 96 11
-0.37390462 -0.44663376 -0.2907857 95 9
-0.29010609 -0.46021333 -0.23914547 97 10
-0.37196535 -0.44285667 -0.328473 97 8
-0.29267246 -0.46858469 -0.35030904 93 7
-0.36910141 -0.4368566 -0.40894845 62 6
-0.28275242 -0.45616654 -0.4248265 73 5
-0.2339924 -0.27617529 -0.31268138 5 4
-0.19044405 -0.30824897 -0.3475115 4 3
-0.26213497 -0.3063125 -0.4350425 4 2
-0.1959628 -0.32055634 -0.44745383 4 1
-0.18938829 -0.22120297 -0.36069405 4 0
-0.28852147 -0.45328355 0.13405983 92 31
-0.36820781 -0.44245267 0.12513097 86 30
-0.29063338 -0.4557966 0.097560667 89 29
-0.35868478 -0.43137577 0.082291454 79 28
-0.28866166 -0.45184183 0.061194073 85 27
-0.36444932 -0.43823406 0.051143561 82 26
-0.29548836 -0.46228951 0.035745248 81 25
-0.3688544 -0.4434799 0.025271507 77 24
-0.2949782 -0.46095914 0.011895532 81 23
-0.36127871 -0.4342885 0 77 22
-0.29773486 -0.46512949 -0.012011586 80 21
-0.36266571 -0.43563464 -0.024805672 78 20
-0.2958177 -0.46209365 -0.035565913 82 19
-0.36981893 -0.44385526 -0.048731618 80 18
-0.29610261 -0.46235275 -0.058851875 84 17
-0.36325839 -0.43574381 -0.073969364 83 16
-0.29627308 -0.46294576 -0.089743115 90 15
-0.36312872 -0.43427354 -0.15201154 89 13
-0.29192185 -0.45639789 -0.11609006 95 14
-0.36687988 -0.43784267 -0.18550895 91 12
-0.29387116 -0.46145922 -0.20714895 95 11
-0.37546137 -0.44532588 -0.2907857 96 9
-0.29299542 -0.46106258 -0.24020834 97 10
-0.37080809 -0.43823561 -0.32588661 97 8
-0.2932936 -0.46575138 -0.34890783 94 7
-0.37588376 -0.44153598 -0.41500697 57 6
-0.28642717 -0.45837426 -0.42805713 70 5
-0.23145275 -0.27121872 -0.30749881 6 4
-0.19514881 -0.3134008 -0.35478923 4 3
-0.26639199 -0.30904397 -0.44076675 4 2
-0.19792004 -0.32113251 -0.44944251 4 1
-0.18924081 -0.21942037 -0.35865623 4 0
-0.29147589 -0.45426202 0.13470435 93 31
-0.37139913 -0.44296044 0.12569462 87 30
-0.2949377 -0.45887029 0.098507859 88 29
-0.36185703 -0.43194532 0.082677796 83 28
-0.29164988 -0.45287329 0.061497014 85 27
-0.3676587 -0.4387967 0.051381435 79 26
-0.29852217 -0.46330583 0.035918768 81 25
-0.37047735 -0.44212499 0.025271507 80 24
-0.29658547 -0.45992664 0.011895532 80 23
-0.36448133 -0.43487117 0 76 22
-0.30078349 -0.46614113 -0.012069613 80 21
-0.36096036 -0.4305512 -0.024572756 79 20
-0.29750937 -0.46100628 -0.035565913 80 19
-0.37305143 -0.44439781 -0.048955157 79 18
-0.30038965 -0.4655022 -0.059420493 84 17
-0.36805293 -0.43818933 -0.074657448 82 16
-0.29656178 -0.459833 -0.089313723 88 15
-0.36775348 -0.43666795 -0.1533872 90 13
-0.29490378 -0.45737898 -0.11664818 95 14
-0.368406 -0.43655932 -0.18550895 91 12
-0.29423761 -0.45847416 -0.20621163 96 11
-0.37852734 -0.4456237 -0.29195821 96 9
-0.29096961 -0.45430288 -0.23701973 96 10
-0.37094095 -0.43531603 -0.32459342 95 8
-0.29491755 -0.46472472 -0.34890783 95 7
-0.37351915 -0.43570846 -0.41046309 56 6
-0.2890335 -0.45899183 -0.42967245 70 5
-0.23596263 -0.27449381 -0.31268138 6 4
-0.19354412 -0.30833814 -0.34933093 4 3
-0.26859051 -0.30927774 -0.44267482 4 2
-0.19588704 -0.31526452 -0.44148776 4 1
-0.18808411 -0.21659119 -0.35458058 4 0
-0.2917577 -0.45120737 0.13405983 91 31
-0.36978596 -0.43795171 0.12456731 87 30
-0.29521257 -0.45577157 0.098034263 88 29
-0.36496279 -0.43256113 0.083064139 83 28
-0.29725307 -0.45811591 0.062405836 83 27
-0.36749986 -0.43567905 0.051143561 80 26
-0.30013761 -0.46226093 0.035918768 81 25
-0.37040055 -0.43892682 0.025155047 80 24
-0.2981891 -0.45888856 0.011895532 81 23
-0.36599708 -0.43359625 0 77 22
-0.30232757 -0.46514115 -0.012069613 81 21
-0.37055373 -0.43879747 -0.025155047 79 20
-0.29911673 -0.45996502 -0.035565913 81 19
-0.37129408 -0.43936694 -0.048508074 79 18
-0.30335739 -0.46653903 -0.059704799 83 17
-0.36789778 -0.43508178 -0.074313402 78 16
-0.29949781 -0.46086612 -0.089743115 87 15
-0.37083739 -0.43720835 -0.15407504 91 13
-0.29773685 -0.45844832 -0.11720631 92 14
-0.37146491 -0.43706489 -0.18632618 89 12
-0.29950339 -0.46335277 -0.20902361 96 11
-0.38000298 -0.44436601 -0.29195821 96 9
-0.29498923 -0.45709872 -0.23914547 96 10
-0.37518248 -0.43731937 -0.32717982 96 8
-0.29764459 -0.46544224 -0.35030904 95 7
-0.38149282 -0.4419671 -0.41803619 54 6
-0.29258072 -0.46126425 -0.43290305 70 5
-0.23329352 -0.26963699 -0.30749881 6 4
-0.19546953 -0.30915147 -0.35115036 4 3
-0.2674714 -0.30596802 -0.43885866 4 2
-0.20010132 -0.31977788 -0.44944251 4 1
-0.18783697 -0.21488585 -0.35254279 3 0
-0.29587001 -0.45429763 0.13534887 93 31
-0.37123618 -0.43672302 0.12456731 88 30
-0.29672235 -0.45479009 0.098034263 91 29
-0.36478877 -0.42947227 0.082677796 79 28
-0.30011889 -0.45921102 0.06270878 85 27
-0.37063694 -0.43628398 0.051381435 79 26
-0.30031312 -0.45916986 0.035745248 80 25
-0.37510243 -0.44149008 0.025387967 79 24
-0.30378738 -0.46418911 0.012069613 80 23
-0.37068549 -0.43617764 0 77 22
-0.30394942 -0.46408302 -0.012069613 81 21
-0.36875713 -0.43377346 -0.024922131 78 20
-0.29928315 -0.45687819 -0.035393264 79 19
-0.3760677 -0.44184828 -0.048955157 79 18
-0.30490285 -0.46553048 -0.059704799 82 17
-0.37102702 -0.43567392 -0.074657448 83 16
-0.29968488 -0.4578037 -0.089313723 88 15
-0.37228519 -0.43597624 -0.15407504 89 13
-0.29536003 -0.45127076 -0.11553194 94 14
-0.3698259 -0.43225256 -0.18469173 88 12
-0.29986316 -0.46035656 -0.20808628 95 11
-0.38299954 -0.44470397 -0.29313076 96 9
-0.29772758 -0.4580211 -0.24020834 97 10
-0.37389544 -0.43278104 -0.32459342 97 8
-0.29362431 -0.45572188 -0.34330288 93 7
-0.38434464 -0.44212812 -0.41955081 54 6
-0.2952081 -0.46185333 -0.4345184 66 5
-0.23782559 -0.27288133 -0.31268138 6 4
-0.19654748 -0.3084673 -0.35115036 4 3
-0.2739169 -0.31105712 -0.44839907 4 2
-0.19723147 -0.31263545 -0.43949908 4 1
-0.18568161 -0.21099764 -0.34642929 3 0
-0.29350623 -0.4471854 0.13341531 89 31
-0.37275836 -0.43542454 0.12456731 86 30
-0.30098623 -0.45786619 0.098981455 87 29
-0.36789864 -0.43006688 0.083064139 79 28
-0.29765332 -0.45192474 0.061799955 85 27
-0.3721576 -0.43498755 0.051381435 81 26
-0.3019141 -0.4581188 0.035745248 81 25
-0.38316441 -0.44774318 0.025853802 80 24
-0.30275249 -0.4588879 0.011953559 81 23
-0.37383869 -0.43677413 0 78 22
-0.3083024 -0.46720332 -0.012185666 80 21
-0.37197632 -0.43430945 -0.025038589 78 20
-0.30496976 -0.46209356 -0.035911214 79 19
-0.37923539 -0.44241717 -0.049178697 79 18
-0.30796638 -0.46648863 -0.05998911 83 17
-0.36768758 -0.42875609 -0.073625319 79 16
-0.30136082 -0.45670223 -0.089313723 89 15
-0.37545523 -0.4364247 -0.15476288 90 13
-0.30093014 -0.45635858 -0.11720631 96 14
-0.3776066 -0.43802777 -0.18796061 90 12
-0.30281138 -0.4611977 -0.20902361 95 11
-0.37728196 -0.43505397 -0.28726813 95 9
-0.30063537 -0.45882544 -0.24127121 97 10
-0.37689066 -0.43301558 -0.32588661 97 8
-0.29529265 -0.45464268 -0.34330288 93 7
-0.38727945 -0.44220698 -0.42106545 47 6
-0.29484901 -0.45754936 -0.43128774 67 5
-0.2340146 -0.26661161 -0.30577129 6 4
-0.19767673 -0.30774483 -0.35115036 4 3
-0.27176097 -0.30649561 -0.44267482 4 2
-0.19837599 -0.31191045 -0.43949908 4 1
-0.18742576 -0.21138918 -0.34846711 4 0
-0.29778996 -0.45014811 0.13470435 92 31
-0.37594971 -0.43589357 0.12513097 85 30
-0.29862252 -0.4506028 0.097560667 89 29
-0.37271208 -0.43244496 0.083836831 80 28
-0.29930773 -0.45083073 0.061799955 85 27
-0.37048537 -0.42986307 0.050905682 78 26
-0.30633259 -0.46117616 0.036092289 79 25
-0.38480288 -0.44633582 0.025853802 79 24
-0.30297816 -0.45574084 0.011895532 80 23
-0.37379721 -0.43351397 0 77 22
-0.30863762 -0.46398315 -0.012127639 79 21
-0.37349007 -0.43300837 -0.025038589 78 20
-0.30254483 -0.45472485 -0.035393264 79 19
-0.3792198 -0.43914589 -0.048955157 79 18
-0.30549321 -0.45918867 -0.059136182 83 17
-0.37250894 -0.43114042 -0.074313402 83 16
-0.3056618 -0.45976159 -0.090172507 89 15
-0.37855732 -0.43692181 -0.1554507 90 13
-0.30394045 -0.45728815 -0.11776444 95 14
-0.37757733 -0.43492901 -0.18714339 91 12
-0.30187997 -0.45626017 -0.20714895 94 11
-0.38033357 -0.43532497 -0.28844064 96 9
-0.30099744 -0.45587891 -0.24020834 96 10
-0.38265133 -0.43650612 -0.32976621 96 8
-0.29912758 -0.45708543 -0.34610534 94 7
-0.39014274 -0.44233841 -0.42258006 47 6
-0.29850543 -0.45972908 -0.4345184 65 5
-0.23373675 -0.26444829 -0.30404377 6 4
-0.19966923 -0.30850011 -0.3529698 4 3
-0.26962924 -0.3019059 -0.43695059 4 2
-0.20188208 -0.3150641 -0.44546515 4 1
-0.18621095 -0.20859344 -0.34439147 4 0
-0.29935944 -0.44910589 0.13470435 92 31
-0.37746894 -0.4345786 0.12513097 85 30
-0.30290115 -0.45365304 0.098507859 90 29
-0.37259302 -0.42928234 0.083450481 79 28
-0.3008796 -0.44978321 0.061799955 84 27
-0.37853804 -0.43605953 0.051857196 78 26
-0.30656254 -0.45802531 0.035918768 79 25
-0.38471422 -0.44311026 0.025737343 78 24
-0.3087121 -0.46092856 0.012069613 79 23
-0.37366176 -0.43032518 0 77 22
-0.31025532 -0.46290296 -0.012127639 79 21
-0.3782891 -0.43545991 -0.025271507 76 20
-0.30550972 -0.45574385 -0.035565913 79 19
-0.37746814 -0.43407413 -0.048508074 78 18
-0.30984172 -0.46225801 -0.059704799 81 17
-0.37727705 -0.43356094 -0.075001501 77 16
-0.30454186 -0.45458722 -0.089313723 89 15
-0.38008016 -0.43559772 -0.1554507 90 13
-0.30418804 -0.45419347 -0.11720631 95 14
-0.3790932 -0.43360835 -0.18714339 87 12
-0.30474725 -0.45713803 -0.20808628 95 11
-0.37892008 -0.43069142 -0.28609562 95 9
-0.30134261 -0.45293546 -0.23914547 96 10
-0.38132724 -0.43197185 -0.32717982 96 8
-0.30185226 -0.4577727 -0.34750658 92 7
-0.39035717 -0.43949252 -0.42106545 39 6
-0.30218068 -0.46188879 -0.43774903 63 5
-0.23950551 -0.26899326 -0.31095386 5 4
-0.19982035 -0.30635729 -0.35115036 4 3
-0.27394721 -0.30454311 -0.44267482 4 2
-0.20054869 -0.31051797 -0.43949908 4 1
-0.18889695 -0.21007557 -0.34846711 3 0
-0.30226272 -0.45006964 0.13534887 91 31
-0.38220504 -0.4369123 0.12625827 85 30
-0.30448285 -0.45259294 0.098507859 88 29
-0.37408921 -0.42797914 0.083450481 79 28
-0.30382538 -0.45079428 0.062102895 84 27
-0.38162675 -0.43666947 0.05209507 79 26
-0.31231511 -0.46317416 0.036439329 79 25
-0.38625863 -0.44176468 0.025737343 79 24
-0.30893022 -0.45777026 0.012011586 79 23
-0.37516162 -0.42901826 0 77 22
-0.31178865 -0.46187159 -0.012127639 79 21
-0.38145837 -0.43601009 -0.025387967 79 20
-0.30571201 -0.45260164 -0.035393264 80 19
-0.3854948 -0.44028887 -0.049402237 78 18
-0.31007251 -0.45910922 -0.059420493 83 17
-0.38526806 -0.43973258 -0.076377675 82 16
-0.30749545 -0.45556897 -0.089743115 86 15
-0.38478547 -0.43786696 -0.15682638 89 13
-0.30839953 -0.45723513 -0.11832256 95 14
-0.37746784 -0.42874828 -0.18550895 88 12
-0.30626151 -0.45612496 -0.20808628 95 11
-0.38475874 -0.43437284 -0.28961319 96 9
-0.3029218 -0.45188084 -0.23914547 96 10
-0.38561365 -0.43389139 -0.32976621 96 8
-0.30572233 -0.46017674 -0.35030904 93 7
-0.39714104 -0.4441033 -0.42712393 38 6
-0.30058631 -0.45608771 -0.43290305 54 5
-0.23796378 -0.26552436 -0.30749881 5 4
-0.2008352 -0.305693 -0.35115036 5 3
-0.27386308 -0.30244321 -0.44076675 4 2
-0.20239221 -0.31112835 -0.44148776 4 1
-0.18959256 -0.20944799 -0.34846711 3 0
-0.30375355 -0.44906482 0.13534887 91 31
-0.38365182 -0.43564245 0.12625827 86 30
-0.30461431 -0.44954231 0.098034263 88 29
-0.38042313 -0.43227994 0.084609531 79 28
-0.30947196 -0.45596278 0.063011721 83 27
-0.38314867 -0.43533468 0.05209507 79 26
-0.31106514 -0.45799732 0.036092289 80 25
-0.3844074 -0.43674469 0.025504425 74 24
-0.31463394 -0.46296304 0.012185666 76 23
-0.37824136 -0.42964187 0 76 22
-0.31200248 -0.45870769 -0.012069613 80 21
-0.38124442 -0.43287492 -0.025271507 77 20
-0.3099983 -0.45572215 -0.035738561 79 19
-0.38372171 -0.43521768 -0.048955157 78 18
-0.31159323 -0.45807847 -0.059420493 84 17
-0.38021943 -0.43098289 -0.075001501 77 16
-0.31037986 -0.45658973 -0.090172507 87 15
-0.38143682 -0.43120655 -0.15476288 89 13
-0.30863318 -0.45413414 -0.11776444 94 14
-0.37888756 -0.42749423 -0.18550895 86 12
-0.30656222 -0.45312744 -0.20714895 94 11
-0.3833195 -0.42974389 -0.28726813 96 9
-0.30441862 -0.45087382 -0.23914547 94 10
-0.39142656 -0.43730742 -0.33364582 97 8
-0.30610394 -0.45743397 -0.34890783 94 7
-0.39735153 -0.44124201 -0.42560932 37 6
-0.30741167 -0.4630115 -0.44097963 53 5
-0.23888919 -0.2646921 -0.30749881 5 4
-0.20190105 -0.30499008 -0.35115036 5 3
-0.27601382 -0.30267134 -0.44267482 4 2
-0.20511569 -0.31296855 -0.44546515 4 1
-0.192296 -0.21090494 -0.35254279 4 0
-0.30667028 -0.45000404 0.13599338 90 31
-0.38841632 -0.43793255 0.12738557 88 30
-0.31030607 -0.45457715 0.099455044 89 29
-0.37699372 -0.42542288 0.083450481 79 28
-0.30688682 -0.44871575 0.062102895 84 27
-0.38135034 -0.43028235 0.051619314 78 26
-0.31546059 -0.46103755 0.036439329 78 25
-0.38759315 -0.43726277 0.025620885 80 24
-0.31211853 -0.45560241 0.012011586 80 23
-0.38140452 -0.43018323 0 77 22
-0.31781301 -0.46381941 -0.012243693 79 21
-0.38615748 -0.4351981 -0.025504425 77 20
-0.31298792 -0.45670071 -0.035911214 79 19
-0.38689888 -0.43573126 -0.049178697 78 18
-0.31466544 -0.45898804 -0.059704799 83 17
-0.38337329 -0.43149784 -0.075345539 77 16
-0.31205127 -0.45544904 -0.090172507 88 15
-0.38943905 -0.4369581 -0.15751421 91 13
-0.31158412 -0.45507097 -0.11832256 92 14
-0.38519371 -0.43137088 -0.18796061 86 12
-0.31081429 -0.45584267 -0.20902361 95 11
-0.38481724 -0.4284032 -0.28726813 95 9
-0.30733314 -0.4516319 -0.24020834 96 10
-0.39446613 -0.43745276 -0.334939 96 8
-0.31122559 -0.46147573 -0.35311154 94 7
-0.4016515 -0.4427174 -0.42863855 36 6
-0.30594805 -0.45710778 -0.43613371 53 5
-0.24476071 -0.26912621 -0.3144089 5 4
-0.20583624 -0.30855057 -0.35660863 5 3
-0.27486703 -0.29934177 -0.43885866 4 2
-0.20543738 -0.31094339 -0.44347647 4 1
-0.18217084 -0.19857849 -0.33012676 4 0
-0.30695918 -0.44687971 0.13534887 91 31
-0.38838911 -0.43469602 0.12682192 85 30
-0.30920562 -0.44937965 0.098507859 89 29
-0.38350672 -0.42954665 0.084609531 78 28
-0.30992854 -0.4496375 0.062405836 83 27
-0.38458949 -0.4307318 0.051857196 78 26
-0.31292769 -0.45370039 0.035918768 81 25
-0.39253393 -0.43955207 0.025853802 79 24
-0.31652814 -0.45863649 0.012127639 78 23
-0.38465112 -0.43064055 0 77 22
-0.31951088 -0.46265146 -0.012243693 78 21
-0.38767427 -0.43384749 -0.025504425 75 20
-0.31184313 -0.45143384 -0.035565913 78 19
-0.3884933 -0.43431026 -0.049178697 78 18
-0.31766823 -0.45993677 -0.05998911 81 17
-0.39158627 -0.43744472 -0.076721713 82 16
-0.31502917 -0.45639011 -0.090601899 88 15
-0.38934967 -0.43381357 -0.15682638 89 13
-0.31599995 -0.45794973 -0.1194388 93 14
-0.38669714 -0.43002364 -0.18796061 88 12
-0.31501031 -0.4585878 -0.21089825 95 11
-0.38936138 -0.43025196 -0.28961319 94 9
-0.30890778 -0.45055637 -0.24020834 96 10
-0.39454579 -0.43449521 -0.33364582 96 8
-0.30936939 -0.45523182 -0.34890783 93 7
-0.40184662 -0.43985003 -0.42712393 36 6
-0.30965862 -0.45921224 -0.43936431 53 5
-0.24200752 -0.26429945 -0.30922633 5 4
-0.20880118 -0.31069195 -0.36024749 4 3
-0.281488 -0.30422276 -0.44839907 4 2
-0.20320779 -0.30515078 -0.43552172 4 1
-0.18485151 -0.20004722 -0.33420238 4 0
-0.30851719 -0.44580552 0.13534887 91 31
-0.39317617 -0.43694627 0.12794922 87 30
-0.31077239 -0.44829756 0.098507859 90 29
-0.38666224 -0.43003571 0.084995873 80 28
-0.31290248 -0.45059755 0.06270878 86 27
-0.38943273 -0.4330751 0.052332949 78 26
-0.31592351 -0.45465967 0.036092289 81 25
-0.38903531 -0.43262741 0.025504425 79 24
-0.32096273 -0.46164539 0.012243693 78 23
-0.38279405 -0.42559063 0 78 22
-0.31828684 -0.45741776 -0.012127639 79 21
-0.38750884 -0.43064162 -0.025387967 74 20
-0.31483254 -0.45239598 -0.035738561 80 19
-0.39168051 -0.4347952 -0.049402237 77 18
-0.31927177 -0.45882508 -0.05998911 84 17
-0.39311084 -0.43607515 -0.076721713 82 16
-0.31662038 -0.45528767 -0.090601899 88 15
-0.38924304 -0.430675 -0.15613854 90 13
-0.31483254 -0.45282969 -0.11832256 95 14
-0.38819584 -0.42867124 -0.18796061 87 12
-0.31398904 -0.45366168 -0.20902361 95 11
-0.39384881 -0.43214181 -0.29195821 94 9
-0.31047863 -0.44947532 -0.24020834 96 10
-0.39460972 -0.43154252 -0.33235261 96 8
-0.31327868 -0.45757759 -0.35171029 94 7
-0.39932081 -0.43407086 -0.42258006 30 6
-0.31019577 -0.45654467 -0.43774903 49 5
-0.2453986 -0.26609161 -0.31268138 6 4
-0.21178356 -0.31281641 -0.36388639 5 3
-0.28032973 -0.30088988 -0.44458291 4 2
-0.20427173 -0.3044396 -0.43552172 4 1
-0.17457092 -0.18785687 -0.31178638 4 0
-0.31136581 -0.44676799 0.13599338 92 31
-0.39462298 -0.43564004 0.12794922 87 30
-0.31365326 -0.44928366 0.098981455 88 29
-0.38808617 -0.42875108 0.084995873 79 28
-0.3129819 -0.44751748 0.062405836 83 27
-0.39422098 -0.43545854 0.052808702 79 26
-0.31742948 -0.45360953 0.036092289 79 25
-0.39383373 -0.43502498 0.025737343 79 24
-0.32106721 -0.45852494 0.012185666 79 23
-0.38588834 -0.42616564 0 75 22
-0.32122725 -0.45841283 -0.012185666 78 21
-0.39566919 -0.43673193 -0.025853802 74 20
-0.31490868 -0.44930074 -0.035565913 80 19
-0.39647949 -0.43717027 -0.049849316 77 18
-0.31937507 -0.45572352 -0.059704799 83 17
-0.39121282 -0.43111441 -0.076033629 79 16
-0.31812844 -0.45423523 -0.090601899 88 15
-0.39229345 -0.43115333 -0.15682638 86 13
-0.3191098 -0.4557882 -0.1194388 94 14
-0.39441109 -0.43260065 -0.19041227 88 12
-0.31680813 -0.4545255 -0.20996094 95 11
-0.39378032 -0.42921254 -0.2907857 93 9
-0.31196743 -0.44844323 -0.24020834 95 10
-0.39894977 -0.4333677 -0.334939 95 8
-0.31362757 -0.45482585 -0.35030904 94 7
-0.40211576 -0.43419769 -0.42409468 32 6
-0.311708 -0.45551354 -0.43774903 45 5
-0.24627966 -0.2652764 -0.31268138 6 4
-0.21091114 -0.3092635 -0.36024749 5 3
-0.28021288 -0.29878807 -0.44267482 4 2
-0.20862836 -0.30881143 -0.44347647 4 1
-0.18120164 -0.19355369 -0.32401329 4 0
-0.31154454 -0.44369516 0.13534887 91 31
-0.39449298 -0.43246678 0.12738557 85 30
-0.31381661 -0.44617182 0.098507859 87 29
-0.39125136 -0.42921281 0.085382216 78 28
-0.31454211 -0.44642228 0.062405836 84 27
-0.39068797 -0.42858151 0.05209507 76 26
-0.31901091 -0.45249873 0.036092289 78 25
-0.40210745 -0.44100413 0.026203176 77 24
-0.32131353 -0.45529675 0.012127639 79 23
-0.39244831 -0.43033859 0 76 22
-0.32139298 -0.45524064 -0.012127639 78 21
-0.39219618 -0.42976403 -0.025504425 75 20
-0.31933397 -0.45228618 -0.035911214 77 19
-0.39294493 -0.43028682 -0.049178697 78 18
-0.32104322 -0.45454991 -0.059704799 83 17
-0.38936058 -0.42610306 -0.075345539 81 16
-0.31979114 -0.4530662 -0.090601899 88 15
-0.39550197 -0.43147811 -0.15751421 87 13
-0.31930321 -0.45267388 -0.11888068 92 14
-0.39920396 -0.43461987 -0.1920467 88 12
-0.31847191 -0.4533613 -0.20996094 95 11
-0.39527619 -0.4278354 -0.2907857 93 9
-0.31876945 -0.45473284 -0.24445981 90 10
-0.40345818 -0.43502802 -0.3375254 96 8
-0.31763849 -0.4570854 -0.35311154 95 7
-0.39825234 -0.42692715 -0.41803619 27 6
-0.31552538 -0.45752084 -0.44097963 39 5
-0.24351777 -0.26044011 -0.30749881 6 4
-0.21875978 -0.31843486 -0.37298355 4 3
-0.28348854 -0.30014142 -0.44649097 4 2
-0.20723379 -0.30426577 -0.4375104 4 1
-0.17587815 -0.18663356 -0.31178638 4 0
-0.31455481 -0.44452849 0.13599338 90 31
-0.40434971 -0.43995339 0.13020384 83 30
-0.31968108 -0.45104587 0.09992864 87 29
-0.38946673 -0.4241502 0.084609531 78 28
-0.31617624 -0.4452664 0.062405836 82 27
-0.39732695 -0.43262646 0.052808702 78 26
-0.32353824 -0.45540532 0.036439329 78 25
-0.40372109 -0.43952736 0.026203176 79 24
-0.32434011 -0.45621574 0.012185666 77 23
-0.39232466 -0.42706269 0 76 22
-0.32305935 -0.45405963 -0.012127639 78 21
-0.39708748 -0.43205705 -0.025737343 74 20
-0.32530034 -0.45722821 -0.036429163 78 19
-0.39959762 -0.43432197 -0.049849316 79 18
-0.32405895 -0.45545658 -0.05998911 82 17
-0.39597178 -0.43011928 -0.076377675 76 16
-0.32278895 -0.45396069 -0.091031291 89 15
-0.40027982 -0.43361455 -0.15888987 85 13
-0.32096019 -0.45150056 -0.11888068 92 14
-0.39427453 -0.42631087 -0.18877783 88 12
-0.32271248 -0.45604286 -0.21183558 95 11
-0.39986339 -0.42960387 -0.29313076 94 9
-0.3177616 -0.44990838 -0.24233407 93 10
-0.40350744 -0.43205938 -0.33623222 95 8
-0.31805316 -0.45427191 -0.35171029 92 7
-0.40247631 -0.42842177 -0.42106545 25 6
-0.31495956 -0.45327133 -0.43774903 38 5
-0.24442539 -0.25958848 -0.30749881 5 4
-0.22083442 -0.31908688 -0.37480298 5 3
-0.28234378 -0.29677531 -0.44267482 4 2
-0.2108328 -0.30731064 -0.44347647 4 1
-0.1896444 -0.19952467 -0.33827803 4 0
-0.31610459 -0.44342777 0.13599338 87 31
-0.4025608 -0.43497667 0.12907654 86 30
-0.32125357 -0.44992721 0.09992864 87 29
-0.39768046 -0.43001613 0.086154908 78 28
-0.32203269 -0.45023444 0.063314661 82 27
-0.39883465 -0.43123689 0.052808702 74 26
-0.32368332 -0.4522388 0.036265809 80 25
-0.40695539 -0.43994245 0.026319636 77 24
-0.32737705 -0.45711908 0.012243693 78 23
-0.39381298 -0.42569062 0 76 22
-0.32753658 -0.45700479 -0.012243693 78 21
-0.39859319 -0.43066835 -0.025737343 74 20
-0.32256228 -0.44998956 -0.035911214 80 19
-0.39601392 -0.42746398 -0.049178697 78 18
-0.32708493 -0.45634776 -0.060273416 82 17
-0.40085143 -0.4323535 -0.077065758 77 16
-0.32294631 -0.45082262 -0.090601899 89 15
-0.39850459 -0.42870647 -0.15751421 86 13
-0.32253426 -0.45037743 -0.11888068 95 14
-0.40222844 -0.4318223 -0.1920467 87 12
-0.32162917 -0.4511269 -0.20996094 92 11
-0.40136057 -0.42820549 -0.29313076 93 9
-0.3206332 -0.45064643 -0.24339694 92 10
-0.40501314 -0.43064824 -0.33623222 94 8
-0.32082173 -0.45485675 -0.35311154 92 7
-0.40534246 -0.42845315 -0.42258006 29 6
-0.31762582 -0.45373803 -0.43936431 35 5
-0.24407676 -0.25743178 -0.30577129 6 4
-0.22097751 -0.3168999 -0.37298355 5 3
-0.29013115 -0.30273968 -0.45412329 4 2
-0.21190423 -0.30657285 -0.44347647 4 1
-0.18527707 -0.19368444 -0.32808894 3 0
-0.31905049 -0.44429016 0.1366379 90 31
-0.40574402 -0.43534434 0.12964019 83 30
-0.31997332 -0.44480473 0.098981455 87 29
-0.39579871 -0.42502311 0.085382216 79 28
-0.32504413 -0.45112738 0.063617602 82 27
-0.40366784 -0.43354204 0.053284455 77 26
-0.32960904 -0.4571943 0.036786374 76 25
-0.4084886 -0.43851921 0.026319636 78 24
-0.32751718 -0.4539403 0.012185666 77 23
-0.3987186 -0.42795879 0 76 22
-0.32905024 -0.45591611 -0.012243693 78 21
-0.40180361 -0.43109483 -0.025853802 77 20
-0.32993555 -0.45697448 -0.036601812 77 19
-0.40424982 -0.4334065 -0.050072853 79 18
-0.33012104 -0.4572233 -0.060557727 81 17
-0.40228298 -0.43102184 -0.077065758 77 16
-0.32451802 -0.44969255 -0.090601899 87 15
-0.39999864 -0.42731282 -0.15751421 87 13
-0.3282755 -0.4552542 -0.12055506 93 14
-0.40211028 -0.42869872 -0.19122949 88 12
-0.3217805 -0.4481689 -0.20902361 94 11
-0.40430018 -0.42847192 -0.29430327 93 9
-0.32351381 -0.45136982 -0.24445981 93 10
-0.40496168 -0.42775524 -0.334939 92 8
-0.32121676 -0.45204043 -0.35171029 93 7
-0.40538317 -0.42567229 -0.42106545 27 6
-0.32458445 -0.46050873 -0.44744086 37 5
-0.24618667 -0.25791872 -0.30749881 6 4
-0.22202718 -0.31616533 -0.37298355 5 3
-0.28435731 -0.29484659 -0.44267482 4 2
-0.21291971 -0.30586845 -0.44347647 4 1
-0.18795024 -0.19513305 -0.33216459 3 0
-0.31770915 -0.43930209 0.13534887 87 31
-0.40383908 -0.43045655 0.12851289 86 30
-0.32144657 -0.4437412 0.098981455 86 29
-0.39890206 -0.42550376 0.085768558 79 28
-0.32219297 -0.44400206 0.06270878 82 27
-0.4051787 -0.43213034 0.053284455 77 26
-0.32966688 -0.4540742 0.036612853 77 25
-0.40651071 -0.43353149 0.026086718 78 24
-0.3305603 -0.45482242 0.012243693 78 23
-0.39841852 -0.4248172 0 77 22
-0.33063969 -0.45476475 -0.012243693 77 21
-0.40673769 -0.43331859 -0.026086718 74 20
-0.32561776 -0.44778356 -0.035911214 78 19
-0.40747172 -0.43380135 -0.050296392 78 18
-0.33026287 -0.45405316 -0.060273416 83 17
-0.40208244 -0.42781702 -0.076721713 76 16
-0.32752502 -0.45055559 -0.091031291 87 15
-0.40976471 -0.43462685 -0.16095339 86 13
-0.3255924 -0.44817162 -0.11888068 94 14
-0.40686235 -0.43071499 -0.19286393 86 12
-0.32477078 -0.44887054 -0.20996094 93 11
-0.40426597 -0.42546362 -0.29313076 93 9
-0.31982362 -0.44287455 -0.24020834 94 10
-0.41245884 -0.43243676 -0.34011182 95 8
-0.32398942 -0.4526059 -0.35311154 94 7
-0.41108999 -0.42847148 -0.42560932 23 6
-0.32407638 -0.45619342 -0.44421026 36 5
-0.24460568 -0.25442845 -0.30404377 6 4
-0.22220525 -0.31394207 -0.37116411 5 3
-0.28425136 -0.29270127 -0.44076675 4 2
-0.21318015 -0.30383822 -0.44148776 4 1
-0.18764445 -0.19341457 -0.33012676 4 0
-0.32214445 -0.44205195 0.1366379 91 31
-0.4003751 -0.42368209 0.12682192 80 30
-0.32594752 -0.44653845 0.09992864 87 29
-0.40386438 -0.42761743 0.08654125 79 28
-0.32381815 -0.44281816 0.06270878 82 27
-0.40332863 -0.42703676 0.052808702 74 26
-0.33279279 -0.45488206 0.036786374 77 25
-0.4098185 -0.4338477 0.026203176 79 24
-0.33361357 -0.45568874 0.01230172 77 23
-0.40342033 -0.42697555 0 76 22
-0.33377263 -0.45557228 -0.01230172 78 21
-0.40824777 -0.43189618 -0.026086718 75 20
-0.32872206 -0.44860527 -0.036083862 76 19
-0.40562278 -0.42870039 -0.049849316 78 18
-0.33038658 -0.45088762 -0.05998911 83 17
-0.40535694 -0.42813215 -0.077065758 77 16
-0.33198822 -0.45339653 -0.091890074 88 15
-0.406295 -0.42798349 -0.15888987 86 13
-0.32866347 -0.44894794 -0.1194388 91 14
-0.40672833 -0.42758659 -0.1920467 87 12
-0.32769203 -0.44961339 -0.21089825 94 11
-0.41042235 -0.42874554 -0.29664832 95 9
-0.32665706 -0.44910029 -0.24445981 92 10
-0.41098902 -0.42792043 -0.3375254 96 8
-0.32676992 -0.45315751 -0.35451275 92 7
-0.40703067 -0.42133611 -0.41955081 21 6
-0.32456446 -0.45350191 -0.44259495 34 5
-0.24929284 -0.25743917 -0.30922633 6 4
-0.22329974 -0.3131645 -0.37116411 5 3
-0.27735901 -0.28363004 -0.42741019 4 2
-0.21337593 -0.30184746 -0.43949908 4 1
-0.1913884 -0.19583263 -0.3362402 4 0
-0.32510597 -0.44287843 0.13728242 85 31
-0.40690899 -0.42755571 0.12851289 83 30
-0.32605892 -0.44341382 0.099455044 85 29
-0.40877247 -0.42977169 0.087313943 79 28
-0.32828757 -0.44569427 0.063314661 80 27
-0.40481681 -0.42562625 0.052808702 75 26
-0.33290774 -0.45170352 0.036612853 78 25
-0.40960258 -0.43061149 0.026086718 78 24
-0.33520219 -0.45452148 0.01230172 79 23
-0.40317824 -0.42376006 0 76 22
-0.33683622 -0.45642182 -0.012359747 77 21
-0.40456742 -0.42506114 -0.025737343 75 20
-0.33323053 -0.45148128 -0.036429163 76 19
-0.41228983 -0.43267068 -0.050519932 78 18
-0.33342466 -0.45173645 -0.060273416 82 17
-0.41371077 -0.43385753 -0.078441933 80 16
-0.33647525 -0.45621184 -0.092748858 85 15
-0.40778646 -0.4265627 -0.15888987 87 13
-0.33022857 -0.44779795 -0.1194388 93 14
-0.41478217 -0.43296358 -0.19531558 88 12
-0.33062238 -0.45034131 -0.21183558 94 11
-0.41345522 -0.42889374 -0.29782084 93 9
-0.32689396 -0.44612575 -0.24339694 92 10
-0.4065052 -0.42035609 -0.33235261 92 8
-0.32955819 -0.45369527 -0.355914 94 7
-0.41267818 -0.42417151 -0.42409468 21 6
-0.32836106 -0.45547342 -0.44582558 32 5
-0.25146127 -0.25785166 -0.31095386 5 4
-0.22439152 -0.31238315 -0.37116411 4 3
