# .PCD v0.7 - Point Cloud Data file format
VERSION 0.7
FIELDS x y z intensity ring
SIZE 4 4 4 4 2
TYPE F F F F U
COUNT 1 1 1 1 1
WIDTH 1173
HEIGHT 1
VIEWPOINT 0 0 0 1 0 0 0
POINTS 1173
DATA ascii
-0.3534629 -0.44313419 -0.024805672 82 20
-0.28357467 -0.46386999 -0.035220612 82 19
-0.36364371 -0.45531934 -0.049178697 80 18
-0.28506893 -0.46632746 -0.058567569 85 17
-0.3494707 -0.4374086 -0.072937228 82 16
-0.28651291 -0.46904892 -0.089743115 92 15
-0.35244405 -0.43991339 -0.15132371 92 13
-0.28742269 -0.4707042 -0.11832256 96 14
-0.35168377 -0.43808442 -0.18224007 92 12
-0.285337 -0.46949854 -0.20808628 96 11
-0.36473697 -0.45131585 -0.28961319 97 9
-0.28327537 -0.46709752 -0.24020834 98 10
-0.3588399 -0.4425928 -0.32330021 97 8
-0.2813606 -0.46823135 -0.34610534 95 7
-0.3640264 -0.44623983 -0.41197771 77 6
-0.27482861 -0.46098378 -0.4248265 78 5
-0.22456743 -0.27461618 -0.30577129 5 4
-0.18681617 -0.31445616 -0.35115036 3 3
-0.26302928 -0.31822357 -0.44649097 5 2
-0.19115135 -0.325207 -0.44944251 4 1
-0.18647207 -0.22554897 -0.36273187 4 0
-0.28064662 -0.4582009 0.13405983 95 31
-0.35897544 -0.44685563 0.12456731 88 30
-0.28144062 -0.45865196 0.09708707 91 29
-0.35428542 -0.44134882 0.083064139 83 28
-0.28339165 -0.46100178 0.061799955 88 27
-0.35205013 -0.43872318 0.050429929 81 26
-0.28745684 -0.46732596 0.035745248 82 25
-0.36427879 -0.45366937 0.025504425 84 24
-0.2842871 -0.46176854 0.011779478 84 23
-0.35214823 -0.43852264 0 79 22
-0.29217398 -0.47452277 -0.012127639 79 21
-0.3502928 -0.43607542 -0.024456298 78 20
-0.27869883 -0.45223108 -0.034357365 84 19
-0.36358392 -0.45217642 -0.048955157 80 18
-0.28928167 -0.46957052 -0.059136182 84 17
-0.35403863 -0.44009387 -0.073625319 83 16
-0.28814846 -0.46804592 -0.089743115 91 15
-0.35852796 -0.4442738 -0.1533872 92 13
-0.28644711 -0.46558583 -0.11720631 96 14
-0.35321084 -0.43685418 -0.18224007 94 12
-0.2880933 -0.47053194 -0.20902361 96 11
-0.36343044 -0.44668996 -0.28726813 97 9
-0.28490412 -0.46610588 -0.24020834 97 10
-0.36438578 -0.44635534 -0.32717982 97 8
-0.28405687 -0.46902272 -0.34750658 95 7
-0.36550418 -0.44503024 -0.41197771 76 6
-0.27830294 -0.46335188 -0.42805713 77 5
-0.23011357 -0.2794154 -0.31268138 5 4
-0.18785791 -0.31383494 -0.35115036 4 3
-0.26304135 -0.31611508 -0.44458291 5 2
-0.1937501 -0.32719165 -0.45341986 4 1
-0.18440606 -0.22161832 -0.3566184 4 0
-0.28342336 -0.45932925 0.13470435 95 31
-0.36353338 -0.44943827 0.12569462 88 30
-0.28680339 -0.46399784 0.098507859 92 29
-0.35262686 -0.43634173 0.082291454 83 28
-0.28491881 -0.46005949 0.061799955 87 27
-0.35986695 -0.44520921 0.051381435 82 26
-0.29030913 -0.46849585 0.035918768 81 25
-0.36578122 -0.45245892 0.025504425 84 24
-0.28712454 -0.46295318 0.011837505 82 23
-0.35675928 -0.4412283 0 77 22
-0.29382861 -0.47350001 -0.012127639 80 21
-0.35331497 -0.43684694 -0.024572756 77 20
-0.28541985 -0.45980409 -0.035047963 82 19
-0.36201125 -0.44704637 -0.048508074 80 18
-0.29083726 -0.46860865 -0.059136182 84 17
-0.35870543 -0.44269106 -0.074313402 81 16
-0.28969896 -0.46708784 -0.089743115 92 15
-0.35999924 -0.44308242 -0.1533872 91 13
-0.28807056 -0.4645831 -0.11720631 96 14
-0.35465756 -0.43568045 -0.18224007 93 12
-0.28973398 -0.46952346 -0.20902361 96 11
-0.36780053 -0.44882271 -0.28961319 97 9
-0.28880274 -0.46902341 -0.24233407 97 10
-0.36594167 -0.4450807 -0.32717982 97 8
-0.28561065 -0.46807817 -0.34750658 95 7
-0.36705539 -0.44375169 -0.41197771 70 6
-0.28187725 -0.46565282 -0.43128774 75 5
-0.22643147 -0.27308127 -0.30577129 5 4
-0.188079 -0.31170183 -0.34933093 4 3
-0.26518926 -0.3164258 -0.44649097 5 2
-0.19336052 -0.32389835 -0.44944251 4 1
-0.18706153 -0.2231741 -0.36069405 4 0
-0.28249294 -0.45422292 0.13341531 91 31
-0.36046311 -0.44251946 0.12400366 88 30
-0.28197914 -0.45254681 0.096139885 91 29
-0.35728133 -0.43892705 0.083064139 83 28
-0.28652298 -0.45906216 0.061799955 88 27
-0.35668299 -0.43817863 0.050667804 81 26
-0.29063115 -0.46535847 0.035745248 84 25
-0.36260608 -0.4453876 0.025155047 77 24
-0.28742364 -0.45982277 0.011779478 82 23
-0.35512498 -0.4361155 0 79 22
-0.29679555 -0.47459632 -0.012185666 80 21
-0.35800722 -0.43947101 -0.024805672 77 20
-0.28308374 -0.45244396 -0.034530014 82 19
-0.36831298 -0.45155066 -0.049178697 78 18
-0.29116347 -0.4654789 -0.058851875 84 17
-0.35710239 -0.43761152 -0.073625319 84 16
-0.29262361 -0.46816796 -0.090172507 91 15
-0.3600142 -0.43996897 -0.15269937 91 13
-0.28840852 -0.46150225 -0.11664818 96 14
-0.35768157 -0.43626082 -0.18305729 91 12
-0.28894168 -0.46456173 -0.20714895 96 11
-0.37218985 -0.4509303 -0.29195821 97 9
-0.28807017 -0.46415582 -0.24020834 97 10
-0.36749303 -0.44380063 -0.32717982 97 8
-0.28616717 -0.46530932 -0.34610534 95 7
-0.36988193 -0.44399023 -0.41349232 72 6
-0.27857587 -0.45649523 -0.42321122 76 5
-0.23205861 -0.27780211 -0.31268138 5 4
-0.19180119 -0.31546068 -0.35478923 4 3
-0.26629218 -0.3154982 -0.44649097 5 2
-0.19833902 -0.32974541 -0.4593859 4 1
-0.18500341 -0.21922842 -0.35458058 4 0
-0.28662318 -0.45733941 0.13470435 90 31
-0.3666622 -0.44688937 0.12569462 88 30
-0.28485283 -0.45364466 0.096613474 89 29
-0.35566449 -0.43386936 0.082291454 84 28
-0.29074714 -0.46227232 0.062405836 87 27
-0.35821036 -0.43693089 0.050667804 81 26
-0.29621086 -0.47069094 0.036265809 80 25
-0.36415854 -0.44411919 0.025155047 85 24
-0.29307589 -0.46512762 0.011953559 80 23
-0.35983092 -0.4387269 0 78 22
-0.29580376 -0.46931696 -0.012069613 80 21
-0.3612074 -0.44008005 -0.024922131 81 20
-0.28994343 -0.45991603 -0.035220612 82 19
-0.36829907 -0.44834426 -0.048955157 80 18
-0.29418305 -0.46651545 -0.059136182 86 17
-0.3602075 -0.43826917 -0.073969364 84 16
-0.29303393 -0.46500283 -0.089743115 89 15
-0.36162436 -0.4386465 -0.15269937 91 13
-0.2925961 -0.46462861 -0.11776444 96 14
-0.35927814 -0.43494695 -0.18305729 92 12
-0.29064244 -0.46349955 -0.20714895 96 11
-0.37518004 -0.4513205 -0.29313076 96 9
-0.29096055 -0.46502087 -0.24127121 97 10
-0.36773962 -0.4408136 -0.32588661 98 8
-0.2889528 -0.4660224 -0.34750658 94 7
-0.36893606 -0.439596 -0.41046309 67 6
-0.28222916 -0.45873219 -0.42644182 73 5
-0.23424914 -0.27832365 -0.3144089 5 4
-0.19383995 -0.31622475 -0.35660863 4 3
-0.26422796 -0.31089619 -0.44076675 5 2
-0.19722252 -0.32511035 -0.45341986 4 1
-0.18580571 -0.21854889 -0.35458058 4 0
-0.28573602 -0.45218983 0.13341531 89 31
-0.36829764 -0.44554251 0.12569462 87 30
-0.29172704 -0.46091816 0.098507859 92 29
-0.36357388 -0.44015563 0.083836831 83 28
-0.28848115 -0.45489836 0.061497014 85 27
-0.36617878 -0.44326532 0.051619314 82 26
-0.29262698 -0.46115506 0.035571728 82 25
-0.3657839 -0.44278151 0.025155047 80 24
-0.29336739 -0.46198595 0.011895532 82 23
-0.36303645 -0.43932611 0 78 22
-0.29885298 -0.47034499 -0.012127639 79 21
-0.36593845 -0.44265381 -0.025155047 80 20
-0.28764233 -0.45251757 -0.034702662 82 19
-0.37312958 -0.45081574 -0.049402237 81 18
-0.29580969 -0.46548572 -0.059136182 84 17
-0.36339813 -0.43884706 -0.074313402 81 16
-0.29334438 -0.46189213 -0.089313723 92 15
-0.36623871 -0.44106776 -0.15407504 91 13
-0.29559383 -0.46561632 -0.11832256 96 14
-0.36383095 -0.43731052 -0.18469173 90 12
-0.29348743 -0.46444723 -0.20808628 96 11
-0.37540707 -0.44825539 -0.29195821 97 9
-0.29138419 -0.46208254 -0.24020834 97 10
-0.37204266 -0.44279173 -0.328473 97 8
-0.29275426 -0.46853361 -0.35030904 94 7
-0.37304959 -0.44133207 -0.41349232 63 6
-0.28681877 -0.4626255 -0.43128774 75 5
-0.23404059 -0.27613443 -0.31268138 5 4
-0.1984984 -0.32141057 -0.36388639 4 3
-0.2643066 -0.30870602 -0.43885866 5 2
-0.19835614 -0.32441995 -0.45341986 4 1
-0.1827548 -0.21353771 -0.34642929 4 0
-0.29246417 -0.4593637 0.13599338 94 31
-0.36985064 -0.44425416 0.12569462 88 30
-0.29333413 -0.45989701 0.098507859 91 29
-0.36193407 -0.43509847 0.083064139 82 28
-0.29006729 -0.4538886 0.061497014 87 27
-0.36764666 -0.44204855 0.051619314 81 26
-0.29823726 -0.46645215 0.036092289 82 25
-0.37535006 -0.45106995 0.025737343 81 24
-0.29364046 -0.45884794 0.011837505 83 23
-0.36456776 -0.43805617 0 79 22
-0.30174917 -0.47146234 -0.012185666 80 21
-0.36427093 -0.43754765 -0.024922131 77 20
-0.29322708 -0.45782948 -0.035220612 80 19
-0.37462252 -0.4495759 -0.049402237 79 18
-0.30009302 -0.46864548 -0.059704799 83 17
-0.36485139 -0.43763959 -0.074313402 85 16
-0.29890949 -0.46710649 -0.090601899 91 15
-0.3677761 -0.43978661 -0.15407504 91 13
-0.29452908 -0.46051571 -0.11720631 97 14
-0.36383054 -0.43423301 -0.18387452 92 12
-0.29626131 -0.46543238 -0.20902361 96 11
-0.37546137 -0.44532588 -0.2907857 97 9
-0.29660881 -0.46680942 -0.24339694 97 10
-0.37073162 -0.43830025 -0.32588661 96 8
-0.29438797 -0.46750885 -0.35030904 95 7
-0.37451106 -0.44009256 -0.41349232 62 6
-0.29035547 -0.46491939 -0.4345184 73 5
-0.23495498 -0.27535683 -0.31268138 6 4
-0.19688171 -0.31636116 -0.35842806 4 3
-0.26426572 -0.30661172 -0.43695059 5 2
-0.19551367 -0.31727701 -0.44347647 4 1
-0.18441868 -0.21401763 -0.34846711 4 0
-0.29657516 -0.46246985 0.13728242 93 31
-0.3713218 -0.44302526 0.12569462 89 30
-0.29354012 -0.4568505 0.098034263 91 29
-0.36337492 -0.43389586 0.083064139 83 28
-0.29557198 -0.45920235 0.062405836 87 27
-0.36758214 -0.43886083 0.051381435 79 26
-0.30246466 -0.469666 0.036439329 81 25
-0.37201113 -0.444098 0.025387967 81 24
-0.30053934 -0.46629858 0.012069613 82 23
-0.36763138 -0.43875486 0 78 22
-0.30608392 -0.47461867 -0.01230172 80 21
-0.36733142 -0.438245 -0.025038589 80 20
-0.29608628 -0.45895642 -0.035393264 80 19
-0.37779737 -0.45016676 -0.049625777 81 18
-0.30030835 -0.46555462 -0.059420493 85 17
-0.37277532 -0.44392422 -0.075689584 82 16
-0.29913172 -0.4640367 -0.090172507 90 15
-0.36612204 -0.43489954 -0.15269937 90 13
-0.30006713 -0.46564788 -0.11888068 96 14
-0.37139118 -0.44022328 -0.18714339 91 12
-0.29664198 -0.46243876 -0.20808628 97 11
-0.37988555 -0.44736695 -0.29313076 96 9
-0.29694432 -0.46391168 -0.24233407 97 10
-0.37225929 -0.43700352 -0.32588661 98 8
-0.29813707 -0.47003779 -0.35311154 94 7
-0.37994778 -0.44329607 -0.41803619 61 6
-0.29298431 -0.46552324 -0.43613371 69 5
-0.23353882 -0.27181146 -0.30922633 6 4
-0.19888371 -0.31713197 -0.36024749 4 3
-0.2631996 -0.30326259 -0.43313444 4 2
-0.20055978 -0.32306227 -0.45341986 4 1
-0.18612517 -0.21445641 -0.35050493 4 0
-0.29428244 -0.45532763 0.13534887 95 31
-0.37286597 -0.44172642 0.12569462 87 30
-0.29645774 -0.45788971 0.098507859 89 29
-0.36648715 -0.43450665 0.083450481 83 28
-0.29851416 -0.4602558 0.06270878 87 27
-0.37072375 -0.43947113 0.051619314 81 26
-0.30275384 -0.46650931 0.036265809 81 25
-0.37517658 -0.44469932 0.025504425 83 24
-0.29954153 -0.46099031 0.011953559 82 23
-0.36754104 -0.43556455 0 78 22
-0.30773878 -0.47354734 -0.01230172 80 21
-0.36893523 -0.43689573 -0.025038589 81 20
-0.29903644 -0.46001717 -0.035565913 81 19
-0.37452304 -0.4431583 -0.048955157 79 18
-0.30470216 -0.46862727 -0.05998911 84 17
-0.36950397 -0.43696639 -0.074657448 82 16
-0.30216318 -0.46500832 -0.090601899 90 15
-0.37396121 -0.440862 -0.1554507 91 13
-0.2990548 -0.46049803 -0.11776444 95 14
-0.37453941 -0.44065323 -0.18796061 92 12
-0.29833493 -0.46134844 -0.20808628 95 11
-0.37567741 -0.43934947 -0.28844064 97 9
-0.29864264 -0.4628202 -0.24233407 97 10
-0.38085991 -0.44372457 -0.33235261 97 8
-0.29875124 -0.46719208 -0.35171029 94 7
-0.38287643 -0.4434002 -0.41955081 56 6
-0.29266122 -0.46121314 -0.43290305 71 5
-0.23214762 -0.26823884 -0.30577129 5 4
-0.20366175 -0.32222772 -0.36752525 4 3
-0.27068621 -0.30959401 -0.44458291 4 2
-0.19698633 -0.3145788 -0.44148776 4 1
-0.18305185 -0.20945168 -0.34235367 4 0
-0.29594931 -0.45424598 0.13534887 93 31
-0.37448251 -0.44035685 0.12569462 87 30
-0.29946625 -0.45886177 0.098981455 89 29
-0.37129071 -0.43691239 0.084223181 84 28
-0.29750171 -0.45499241 0.062102895 87 27
-0.37233201 -0.43810943 0.051619314 80 26
-0.3031055 -0.46330351 0.036092289 84 25
-0.37842849 -0.44521794 0.025620885 82 24
-0.2997891 -0.45784488 0.011895532 83 23
-0.36750841 -0.43231604 0 77 22
-0.30811191 -0.47031972 -0.012243693 79 21
-0.3769587 -0.44318971 -0.025504425 80 20
-0.29529005 -0.45054948 -0.034875315 80 19
-0.37938759 -0.44556206 -0.049402237 78 18
-0.30363208 -0.46339375 -0.059420493 83 17
-0.37110308 -0.43560916 -0.074657448 83 16
-0.30512446 -0.46601722 -0.091031291 88 15
-0.37392956 -0.43773261 -0.15476288 90 13
-0.29941514 -0.45735398 -0.11720631 95 14
-0.3760753 -0.43934315 -0.18796061 90 12
-0.29994354 -0.46030423 -0.20808628 96 11
-0.37873322 -0.43963647 -0.28961319 96 9
-0.29780748 -0.45796913 -0.24020834 97 10
-0.38100052 -0.4407796 -0.3310594 96 8
-0.29926744 -0.46440044 -0.35030904 95 7
-0.38442186 -0.44206101 -0.41955081 52 6
-0.29426938 -0.46018878 -0.43290305 70 5
-0.23667555 -0.27148655 -0.31095386 6 4
-0.20478529 -0.32151484 -0.36752525 4 3
-0.26966706 -0.30619037 -0.44076675 4 2
-0.20206922 -0.32033059 -0.45143119 4 1
-0.18571845 -0.21096523 -0.34642929 3 0
-0.30016571 -0.45726091 0.1366379 94 31
-0.37760884 -0.44089073 0.12625827 88 30
-0.29838723 -0.4536995 0.098034263 89 29
-0.37281358 -0.43561369 0.084223181 83 28
-0.30315587 -0.46018633 0.063011721 86 27
-0.37223357 -0.43492255 0.051381435 80 26
-0.30608431 -0.46433094 0.036265809 82 25
-0.37345579 -0.43633023 0.025155047 79 24
-0.30275249 -0.4588879 0.011953559 82 23
-0.36901525 -0.43103057 0 77 22
-0.30975175 -0.46924132 -0.012243693 80 21
-0.37850341 -0.4418712 -0.025504425 79 20
-0.2995908 -0.45369077 -0.035220612 82 19
-0.38419658 -0.44800314 -0.049849316 80 18
-0.30660707 -0.4644098 -0.059704799 83 17
-0.37748036 -0.43993038 -0.075689584 83 16
-0.30405504 -0.46082574 -0.090172507 89 15
-0.37388062 -0.43460885 -0.15407504 91 13
-0.30500752 -0.46242687 -0.11888068 94 14
-0.38070604 -0.44159451 -0.18959504 91 12
-0.30281138 -0.4611977 -0.20902361 96 11
-0.38026547 -0.43831176 -0.28961319 96 9
-0.30309755 -0.46262267 -0.24339694 97 10
-0.3825368 -0.43944699 -0.3310594 97 8
-0.30200553 -0.46509507 -0.35171029 95 7
-0.38859633 -0.44369754 -0.42258006 54 6
-0.2968989 -0.46076825 -0.4345184 71 5
-0.23281223 -0.26526257 -0.30404377 5 4
-0.20407756 -0.31789735 -0.36388639 4 3
-0.27289465 -0.30764914 -0.44458291 4 2
-0.20078106 -0.31576687 -0.44546515 4 1
-0.18548168 -0.20924217 -0.34439147 4 0
-0.29778996 -0.45014811 0.13470435 90 31
-0.38074344 -0.44140816 0.12682192 86 30
-0.29727587 -0.4485504 0.09708707 85 29
-0.37271208 -0.43244496 0.083836831 82 28
-0.30339724 -0.45705166 0.06270878 86 27
-0.37204209 -0.43180677 0.051143561 80 26
-0.30770326 -0.4632597 0.036265809 81 25
-0.37988973 -0.44067991 0.025504425 77 24
-0.30710125 -0.46200338 0.012069613 79 23
-0.37543702 -0.43540102 0 77 22
-0.31268081 -0.47029883 -0.01230172 80 21
-0.37676677 -0.43677777 -0.025271507 79 20
-0.30391702 -0.45680749 -0.035565913 80 19
-0.38404587 -0.444848 -0.049625777 78 18
-0.3109594 -0.46748486 -0.060273416 83 17
-0.38056296 -0.44054386 -0.076033629 83 16
-0.30837044 -0.46387571 -0.091031291 90 15
-0.38171926 -0.44054255 -0.15682638 90 13
-0.30787864 -0.4634487 -0.1194388 94 14
-0.37913328 -0.43670696 -0.18796061 92 12
-0.30560851 -0.46213013 -0.20996094 96 11
-0.38317621 -0.43870535 -0.2907857 96 9
-0.30718598 -0.46535042 -0.24552268 96 10
-0.3882426 -0.4429855 -0.334939 97 8
-0.30025247 -0.45882356 -0.34750658 94 7
-0.38345647 -0.43497559 -0.41500697 46 6
-0.29842523 -0.45978117 -0.4345184 66 5
-0.23851798 -0.2698693 -0.31095386 5 4
-0.20788823 -0.3215608 -0.36934468 5 3
-0.27391338 -0.30674249 -0.44458291 4 2
-0.20424494 -0.31894773 -0.45143119 4 1
-0.18422335 -0.20648535 -0.34031585 3 0
-0.30061111 -0.45117444 0.13534887 89 31
-0.3822051 -0.44014311 0.12682192 86 30
-0.30146855 -0.45165798 0.098034263 89 29
-0.37739599 -0.43492526 0.084609531 83 28
-0.30491123 -0.45604306 0.06270878 86 27
-0.3784619 -0.43612561 0.051857196 79 26
-0.30923778 -0.46223676 0.036265809 82 25
-0.38299295 -0.44129759 0.025620885 77 24
-0.30725032 -0.45889947 0.012011586 79 23
-0.3768788 -0.43415362 0 78 22
-0.31293857 -0.46712205 -0.012243693 79 21
-0.37985778 -0.43740529 -0.025387967 75 20
-0.30543017 -0.45579714 -0.035565913 81 19
-0.38559633 -0.44350472 -0.049625777 80 18
-0.30701423 -0.4581731 -0.059136182 84 17
-0.38209841 -0.43921277 -0.076033629 84 16
-0.31126812 -0.46490309 -0.091460682 89 15
-0.38159111 -0.43746921 -0.15613854 90 13
-0.30814809 -0.46034002 -0.11888068 95 14
-0.38370302 -0.43899292 -0.18959504 92 12
-0.30721977 -0.46106052 -0.20996094 96 11
-0.38031 -0.43240947 -0.28726813 96 9
-0.30499548 -0.45865864 -0.24233407 97 10
-0.38551918 -0.43683296 -0.3310594 96 8
-0.30516434 -0.46302864 -0.35171029 95 7
-0.39028046 -0.43956065 -0.42106545 44 6
-0.30106419 -0.46033907 -0.43613371 63 5
-0.23824702 -0.26769423 -0.30922633 5 4
-0.20623666 -0.3165009 -0.36388639 4 3
-0.26954058 -0.29981655 -0.4350425 4 2
-0.20292577 -0.31439289 -0.44546515 4 1
-0.18298435 -0.20370729 -0.3362402 3 0
-0.30218413 -0.45012236 0.13534887 89 31
-0.38373914 -0.43880627 0.12682192 87 30
-0.30576441 -0.4546892 0.098981455 88 29
-0.37891188 -0.43360522 0.084609531 83 28
-0.30650124 -0.45497593 0.06270878 85 27
-0.38162675 -0.43666947 0.05209507 79 26
-0.31223428 -0.46322864 0.036439329 82 25
-0.38288051 -0.43808389 0.025504425 77 24
-0.30893022 -0.45777026 0.012011586 80 23
-0.38169724 -0.43658718 0 78 22
-0.31595647 -0.46810445 -0.01230172 79 21
-0.37980685 -0.43413678 -0.025271507 75 20
-0.3084057 -0.45680144 -0.035738561 82 19
-0.38878942 -0.44402325 -0.049849316 79 18
-0.31145346 -0.46117362 -0.059704799 84 17
-0.3819904 -0.43602005 -0.075689584 83 16
-0.31160134 -0.46171159 -0.091031291 91 15
-0.38478547 -0.43786696 -0.15682638 91 13
-0.30839953 -0.45723513 -0.11832256 96 14
-0.38217282 -0.43404949 -0.18796061 90 12
-0.30634114 -0.45607153 -0.20808628 96 11
-0.38181707 -0.43107927 -0.28726813 95 9
-0.30792543 -0.45942333 -0.24339694 96 10
-0.38568935 -0.43382406 -0.32976621 96 8
-0.30685934 -0.46190703 -0.35171029 95 7
-0.39322132 -0.43960389 -0.42258006 45 6
-0.30170766 -0.45763394 -0.4345184 63 5
-0.24044301 -0.2681556 -0.31095386 5 4
-0.20646577 -0.31430218 -0.36206695 4 3
-0.271678 -0.30006361 -0.43695059 4 2
-0.20652203 -0.31747803 -0.45143119 4 1
-0.18274651 -0.20197199 -0.33420238 3 0
-0.30652079 -0.45302534 0.1366379 93 31
-0.38857901 -0.44103956 0.12794922 87 30
-0.30606088 -0.45152733 0.098507859 88 29
-0.38377702 -0.43590876 0.085382216 82 28
-0.30816671 -0.45384949 0.06270878 84 27
-0.38652796 -0.43899101 0.052570824 80 26
-0.31393 -0.46208113 0.036439329 80 25
-0.38945568 -0.44228175 0.025853802 77 24
-0.31052625 -0.45668912 0.012011586 81 23
-0.3783164 -0.42957586 0 78 22
-0.31767002 -0.46694323 -0.01230172 80 21
-0.38629401 -0.43841085 -0.025620885 80 20
-0.31007785 -0.455668 -0.035738561 81 19
-0.39206836 -0.4444564 -0.050072853 78 18
-0.31583771 -0.46420291 -0.060273416 83 17
-0.38687718 -0.43831757 -0.076377675 79 16
-0.31458694 -0.46266386 -0.091460682 89 15
-0.38631159 -0.43652117 -0.15682638 92 13
-0.31007332 -0.45610169 -0.11832256 96 14
-0.38526008 -0.43447441 -0.18877783 90 12
-0.3105112 -0.45885032 -0.20996094 96 11
-0.38339451 -0.42967695 -0.28726813 96 9
-0.30952722 -0.45834565 -0.24339694 96 10
-0.39437056 -0.44041502 -0.33623222 96 8
-0.30961284 -0.46255931 -0.35311154 94 7
-0.3947534 -0.43822864 -0.42258006 37 6
-0.3053979 -0.45976794 -0.43774903 60 5
-0.2438198 -0.26997894 -0.3144089 5 4
-0.21036533 -0.3178919 -0.36752525 5 3
-0.27496973 -0.30143741 -0.44076675 4 2
-0.20598987 -0.3142069 -0.44745383 4 1
-0.18345043 -0.20133285 -0.33420238 4 0
-0.30674884 -0.44995055 0.13599338 93 31
-0.38849276 -0.43786478 0.12738557 86 30
-0.31176054 -0.45655638 0.09992864 87 29
-0.38529631 -0.4345665 0.085382216 79 28
-0.31392506 -0.45893428 0.063617602 83 27
-0.38474172 -0.43392748 0.05209507 79 26
-0.31554106 -0.4609825 0.036439329 80 25
-0.39266106 -0.44278184 0.02597026 81 24
-0.31492528 -0.45973861 0.012127639 79 23
-0.38147956 -0.43011662 0 76 22
-0.31929803 -0.46583155 -0.01230172 81 21
-0.38282841 -0.43147472 -0.025271507 76 20
-0.31306764 -0.45664608 -0.035911214 81 19
-0.39029616 -0.43937442 -0.049625777 78 18
-0.31606081 -0.46104282 -0.05998911 83 17
-0.38675275 -0.43511993 -0.076033629 78 16
-0.31205127 -0.45544904 -0.090172507 89 15
-0.38622692 -0.43338189 -0.15613854 91 13
-0.31303152 -0.45703334 -0.11888068 95 14
-0.38519371 -0.43137088 -0.18796061 91 12
-0.31081429 -0.45584267 -0.20902361 94 11
-0.38637456 -0.42997223 -0.28844064 96 9
-0.30986121 -0.45538557 -0.24233407 96 10
-0.39014795 -0.43270382 -0.3310594 96 8
-0.31122559 -0.46147573 -0.35311154 94 7
-0.3989661 -0.43978274 -0.42560932 36 6
-0.30805376 -0.46029043 -0.43936431 58 5
-0.24476071 -0.26912621 -0.3144089 5 4
-0.21241328 -0.31858987 -0.36934468 4 3
-0.27602029 -0.30047575 -0.44076675 4 2
-0.2103814 -0.31857109 -0.45540854 4 1
-0.18514271 -0.20174764 -0.3362402 3 0
-0.30967599 -0.45087442 0.1366379 94 31
-0.39327836 -0.44012606 0.12851289 86 30
-0.30920562 -0.44937965 0.098507859 89 29
-0.38350672 -0.42954665 0.084609531 79 28
-0.31412598 -0.45578614 0.063314661 85 27
-0.38617852 -0.43264922 0.05209507 79 26
-0.31855512 -0.46193755 0.036612853 80 25
-0.39587465 -0.44326493 0.026086718 76 24
-0.31652814 -0.45863649 0.012127639 80 23
-0.38799617 -0.4343569 0 78 22
-0.32366297 -0.46889609 -0.012417774 78 21
-0.38600329 -0.43199167 -0.025387967 75 20
-0.31465974 -0.45555049 -0.035911214 79 19
-0.39675134 -0.44362727 -0.050296392 79 18
-0.31907079 -0.46198666 -0.060273416 82 17
-0.38653538 -0.43199602 -0.075689584 81 16
-0.31780922 -0.46045634 -0.091460682 91 15
-0.39418662 -0.43916109 -0.15888987 91 13
-0.31866938 -0.46202922 -0.12055506 95 14
-0.38987058 -0.4335247 -0.18959504 91 12
-0.31362724 -0.4567261 -0.20996094 96 11
-0.38779831 -0.42868862 -0.28844064 96 9
-0.31271952 -0.45617363 -0.24339694 96 10
-0.39158073 -0.43140772 -0.3310594 96 8
-0.31398958 -0.4621048 -0.35451275 94 7
-0.4044649 -0.44284591 -0.43015319 37 6
-0.313811 -0.46561757 -0.44582558 54 5
-0.25057238 -0.27360821 -0.32131898 6 4
-0.21346858 -0.31788367 -0.36934468 5 3
-0.28143495 -0.30427191 -0.44839907 4 2
-0.21060845 -0.31660312 -0.45341986 4 1
-0.18581071 -0.20113257 -0.3362402 3 0
-0.31526449 -0.45582342 0.13857146 93 31
-0.39964291 -0.4442333 0.13020384 85 30
-0.31208307 -0.45037577 0.098981455 89 29
-0.38658717 -0.43010315 0.084995873 80 28
-0.31422976 -0.45269704 0.063011721 85 27
-0.38601571 -0.42945412 0.051857196 78 26
-0.3200852 -0.46087864 0.036612853 80 25
-0.39566582 -0.44009885 0.02597026 75 24
-0.31946471 -0.45964289 0.012185666 79 23
-0.3894344 -0.43306789 0 77 22
-0.32104328 -0.4615894 -0.012243693 79 21
-0.39246511 -0.4362601 -0.025737343 79 20
-0.31899899 -0.45861191 -0.036256514 78 19
-0.39829749 -0.44223961 -0.050296392 79 18
-0.32060102 -0.46092606 -0.060273416 82 17
-0.38804096 -0.43064412 -0.075689584 79 16
-0.31933442 -0.45939991 -0.091460682 88 15
-0.39725894 -0.4396286 -0.15957771 91 13
-0.31889856 -0.45890674 -0.11999694 95 14
-0.39289862 -0.4339748 -0.19041227 92 12
-0.3165293 -0.45754066 -0.21089825 95 11
-0.38929236 -0.42733234 -0.28844064 95 9
-0.31678405 -0.45887044 -0.24552268 96 10
-0.39308423 -0.43003821 -0.3310594 96 8
-0.31552026 -0.46106103 -0.35451275 93 7
-0.39789242 -0.43268237 -0.42106545 33 6
-0.31117973 -0.4581829 -0.43936431 45 5
-0.24782169 -0.26877344 -0.31613642 6 4
-0.21172896 -0.31285337 -0.36388639 5 3
-0.27805918 -0.29859 -0.44076675 4 2
-0.21421023 -0.31966296 -0.4593859 4 1
-0.18651167 -0.20048276 -0.3362402 4 0
-0.31418842 -0.45068926 0.13728242 87 31
-0.40126842 -0.44276556 0.13020384 86 30
-0.31512806 -0.45124778 0.099455044 89 29
-0.38649613 -0.42685881 0.084609531 79 28
-0.32012716 -0.45766145 0.063920543 84 27
-0.39261952 -0.43355146 0.052570824 79 26
-0.32319346 -0.46175179 0.036786374 78 25
-0.39559296 -0.43680099 0.025853802 76 24
-0.32257223 -0.4605222 0.012243693 78 23
-0.39101908 -0.43163761 0 74 22
-0.32558429 -0.46451521 -0.012359747 79 21
-0.3957454 -0.43666288 -0.025853802 77 20
-0.31783238 -0.45334265 -0.035911214 79 19
-0.3999157 -0.44077682 -0.050296392 79 18
-0.31945458 -0.45566779 -0.059704799 83 17
-0.39630193 -0.43652743 -0.077065758 78 16
-0.31961188 -0.45620307 -0.091031291 89 15
-0.390744 -0.42931363 -0.15613854 89 13
-0.31918934 -0.45573249 -0.1194388 95 14
-0.39608553 -0.43427128 -0.19122949 92 12
-0.31820413 -0.45637742 -0.21089825 96 11
-0.39235562 -0.42752326 -0.28961319 95 9
-0.31718019 -0.45584276 -0.24445981 96 10
-0.39756951 -0.43173021 -0.33364582 96 8
-0.31370696 -0.45477104 -0.35030904 94 7
-0.40490752 -0.43703392 -0.42712393 31 6
-0.31392643 -0.45861948 -0.44097963 45 5
-0.24880511 -0.2678633 -0.31613642 6 4
-0.21573782 -0.31634802 -0.36934468 5 3
-0.27915168 -0.29756886 -0.44076675 4 2
-0.2153804 -0.31887567 -0.4593859 4 1
-0.18424033 -0.19665995 -0.33012676 4 0
-0.31162196 -0.4436408 0.13534887 92 31
-0.40116289 -0.43956932 0.12964019 88 30
-0.31529787 -0.44813102 0.098981455 89 29
-0.39466873 -0.43278199 0.086154908 80 28
-0.31604055 -0.44840214 0.06270878 84 27
-0.39244667 -0.4303458 0.052332949 79 26
-0.32194662 -0.45653191 0.036439329 80 25
-0.39880496 -0.43725625 0.02597026 75 24
-0.32131353 -0.45529675 0.012127639 79 23
-0.39083153 -0.42842954 0 77 22
-0.32577091 -0.46132803 -0.01230172 78 21
-0.39388651 -0.4316023 -0.025620885 78 20
-0.32227254 -0.45631745 -0.036256514 79 19
-0.40482461 -0.44304216 -0.050743472 79 18
-0.32531503 -0.46065521 -0.060557727 83 17
-0.39950097 -0.43696266 -0.077409804 79 16
-0.3240248 -0.4591215 -0.091890074 89 15
-0.39550197 -0.43147811 -0.15751421 90 13
-0.31938219 -0.45261815 -0.11888068 95 14
-0.39599398 -0.43115219 -0.19041227 88 12
-0.31979525 -0.45526394 -0.21089825 96 11
-0.39535087 -0.42776641 -0.2907857 93 9
-0.32005957 -0.45659187 -0.24552268 96 10
-0.39907414 -0.43033981 -0.33364582 96 8
-0.31998444 -0.46049753 -0.355914 94 7
-0.39552623 -0.42403024 -0.41500697 27 6
-0.31875032 -0.4622502 -0.44582558 48 5
-0.25222692 -0.26961443 -0.31959143 6 4
-0.21300274 -0.30990931 -0.36206695 5 3
-0.2790713 -0.29542616 -0.43885866 4 2
-0.2156505 -0.31686226 -0.45739722 4 1
-0.18291509 -0.19393072 -0.32605109 4 0
-0.31455481 -0.44452849 0.13599338 90 31
-0.40434971 -0.43995339 0.13020384 86 30
-0.31968108 -0.45104587 0.09992864 88 29
-0.39785457 -0.43321458 0.08654125 81 28
-0.32331437 -0.45541543 0.063920543 84 27
-0.39387155 -0.42904204 0.052332949 79 26
-0.32353824 -0.45540532 0.036439329 80 25
-0.39863276 -0.43402863 0.025853802 76 24
-0.32290083 -0.4541724 0.012127639 79 23
-0.39741951 -0.43256655 0 77 22
-0.3287386 -0.46228829 -0.012359747 79 21
-0.40048099 -0.43572173 -0.02597026 79 20
-0.32530034 -0.45722821 -0.036429163 79 19
-0.40629154 -0.44169727 -0.050743472 79 18
-0.32692102 -0.45951679 -0.060557727 81 17
-0.39421302 -0.42837271 -0.076033629 79 16
-0.32704374 -0.46000114 -0.092319466 90 15
-0.40027982 -0.43361455 -0.15888987 90 13
-0.32368663 -0.45554209 -0.11999694 95 14
-0.39910761 -0.43149552 -0.19122949 88 12
-0.32263288 -0.45609918 -0.21183558 95 11
-0.40280968 -0.43289438 -0.29547578 94 9
-0.3216514 -0.45547184 -0.24552268 95 10
-0.40489855 -0.43368769 -0.3375254 96 8
-0.31805316 -0.45427191 -0.35171029 93 7
-0.40924075 -0.43571162 -0.42863855 27 6
-0.31596068 -0.45489916 -0.43936431 38 5
-0.24937409 -0.26485705 -0.3144089 6 4
-0.21402925 -0.30920127 -0.36206695 5 3
-0.27556431 -0.28984815 -0.43122634 4 2
-0.21670008 -0.31614542 -0.45739722 4 1
-0.18860085 -0.19851866 -0.3362402 4 0
-0.3146345 -0.4415094 0.13534887 89 31
-0.40580642 -0.43861014 0.13020384 88 30
-0.31834087 -0.4459745 0.098981455 88 29
-0.39928898 -0.43189284 0.08654125 79 28
-0.3262572 -0.45636582 0.064223483 84 27
-0.39875942 -0.43130645 0.052808702 78 26
-0.32937333 -0.46043396 0.036959894 76 25
-0.40687859 -0.44001347 0.026319636 80 24
-0.32585117 -0.45513767 0.012185666 81 23
-0.39714739 -0.42941728 0 77 22
-0.33035028 -0.46113798 -0.012359747 77 21
-0.40022087 -0.43256465 -0.025853802 80 20
-0.3239274 -0.45207956 -0.036083862 80 19
-0.40952969 -0.4420968 -0.050967012 79 18
-0.32844305 -0.4584302 -0.060557727 82 17
-0.40077597 -0.43242344 -0.077065758 77 16
-0.32571748 -0.45489657 -0.091460682 89 15
-0.40171552 -0.43228483 -0.15888987 89 13
-0.32386523 -0.45242155 -0.1194388 94 14
-0.39568609 -0.42500103 -0.18877783 87 12
-0.32422301 -0.45497018 -0.21183558 95 11
-0.39976957 -0.42667046 -0.29195821 94 9
-0.32316002 -0.45440271 -0.24552268 94 10
-0.40346605 -0.42916623 -0.334939 96 8
-0.3231115 -0.45830879 -0.355914 95 7
-0.40938628 -0.4328413 -0.42712393 31 6
-0.31863227 -0.45536256 -0.44097963 37 5
-0.24904405 -0.26268286 -0.31268138 6 4
-0.21801473 -0.31269535 -0.36752525 5 3
-0.2765744 -0.28888446 -0.43122634 4 2
-0.21270095 -0.30786371 -0.44546515 4 1
-0.1862556 -0.19475237 -0.33012676 3 0
-0.32037252 -0.44631451 0.13728242 87 31
-0.40400103 -0.43363932 0.12907654 85 30
-0.32131976 -0.44686002 0.099455044 88 29
-0.40755355 -0.43770206 0.088086627 80 28
-0.32496539 -0.45118412 0.063617602 82 27
-0.40196517 -0.43172699 0.05304658 79 26
-0.33097854 -0.45928144 0.036959894 78 25
-0.41012058 -0.44041184 0.026436094 76 24
-0.33042416 -0.45800671 0.01230172 78 23
-0.39864394 -0.42802835 0 77 22
-0.33486569 -0.46404797 -0.012475801 77 21
-0.40009406 -0.42927438 -0.025737343 79 20
-0.3298558 -0.45703205 -0.036601812 79 19
-0.40595496 -0.43522102 -0.050296392 78 18
-0.33012104 -0.4572233 -0.060557727 83 17
-0.40228298 -0.43102184 -0.077065758 77 16
-0.32738259 -0.45369968 -0.091460682 86 15
-0.40494651 -0.43255788 -0.15957771 90 13
-0.32685903 -0.45327127 -0.11999694 94 14
-0.40373331 -0.43041563 -0.1920467 87 12
-0.32454515 -0.45189011 -0.21089825 93 11
-0.40886566 -0.4332712 -0.29782084 95 9
-0.32351381 -0.45136982 -0.24445981 93 10
-0.41094685 -0.43387386 -0.34011182 96 8
-0.32121676 -0.45204043 -0.35171029 95 7
-0.40959185 -0.42990381 -0.42560932 28 6
-0.32357341 -0.45888698 -0.44582558 38 5
-0.2525208 -0.26436335 -0.31613642 5 4
-0.21721071 -0.30907261 -0.36388639 5 3
-0.2775811 -0.28791729 -0.43122634 4 2
-0.22066641 -0.31708822 -0.46137458 4 1
-0.19103271 -0.19819584 -0.33827803 3 0
-0.32481977 -0.44906437 0.13857146 87 31
-0.40726116 -0.43392536 0.12964019 87 30
-0.32581821 -0.44966772 0.10040224 87 29
-0.40067282 -0.42722937 0.086154908 79 28
-0.32661685 -0.44999003 0.063617602 85 27
-0.40696341 -0.43386838 0.053522334 79 26
-0.32974616 -0.45401669 0.036612853 78 25
-0.41687772 -0.44435093 0.026785469 78 24
-0.3305603 -0.45482242 0.012243693 77 23
-0.40192744 -0.42838115 0 77 22
-0.33510295 -0.46078989 -0.012417774 78 21
-0.40159011 -0.42787519 -0.025737343 76 20
-0.32861233 -0.45177335 -0.036256514 78 19
-0.41097099 -0.43734673 -0.050743472 80 18
-0.33026287 -0.45405316 -0.060273416 84 17
-0.4021571 -0.42774683 -0.076721713 79 16
-0.32896429 -0.45255414 -0.091460682 89 15
-0.40645397 -0.4311417 -0.15957771 90 13
-0.3342132 -0.45998114 -0.12222944 95 14
-0.40523329 -0.42900375 -0.1920467 87 12
-0.32747036 -0.45263845 -0.21183558 95 11
-0.4119786 -0.43336388 -0.29899335 95 9
-0.32640335 -0.45207861 -0.24552268 96 10
-0.41245884 -0.43243676 -0.34011182 95 8
-0.32757947 -0.45767444 -0.35731521 94 7
-0.41662255 -0.4341886 -0.4316678 24 6
-0.32517326 -0.4577547 -0.44582558 34 5
-0.25470442 -0.26477337 -0.31786394 5 4
-0.22220525 -0.31394207 -0.37116411 5 3
-0.28090167 -0.28919944 -0.4350425 4 2
-0.21747606 -0.3100771 -0.45143119 4 1
-0.19274311 -0.19855613 -0.34031585 3 0
-0.32779899 -0.44988638 0.13921598 90 31
-0.41045302 -0.43426496 0.13020384 87 30
-0.32882422 -0.45051682 0.10087583 87 29
-0.40556711 -0.4294067 0.086927593 80 28
-0.32818565 -0.44884717 0.063617602 84 27
-0.40496939 -0.42891023 0.05304658 79 26
-0.33132896 -0.45286286 0.036612853 78 25
-0.41326159 -0.43746582 0.026436094 80 24
-0.33508122 -0.45771179 0.012359747 78 23
-0.40169659 -0.42516482 0 76 22
-0.33516112 -0.45765331 -0.012359747 78 21
-0.40996993 -0.43370461 -0.026203176 75 20
-0.33458307 -0.45667818 -0.036774464 80 19
-0.41070125 -0.43417889 -0.050519932 78 18
-0.33768272 -0.46093729 -0.061410651 81 17
-0.40699115 -0.42999491 -0.077409804 78 16
-0.33343446 -0.45539004 -0.092319466 88 15
-0.40961787 -0.43145707 -0.16026555 87 13
-0.33144572 -0.45295128 -0.12055506 95 14
-0.41163331 -0.43270323 -0.19449836 87 12
-0.33032563 -0.45342958 -0.21277291 95 11
-0.40728161 -0.425639 -0.29430327 94 9
-0.32797942 -0.4509365 -0.24552268 96 10
-0.41240242 -0.42952937 -0.33881861 96 8
-0.32195961 -0.44641623 -0.34890783 93 7
nan nan nan 0 6
-0.32889357 -0.45978919 -0.44905618 33 5
-0.25178114 -0.26006052 -0.31268138 6 4
-0.22226118 -0.31179938 -0.36934468 5 3
-0.28185916 -0.28826636 -0.4350425 4 2
-0.21936643 -0.31059915 -0.45341986 4 1
-0.19544677 -0.19996572 -0.34439147 3 0
-0.32502866 -0.44293517 0.13728242 86 31
-0.41694731 -0.43817613 0.1318948 84 30
-0.32887143 -0.44743955 0.10040224 87 29
-0.40869749 -0.42984304 0.087313943 80 28
-0.32967222 -0.44775641 0.063617602 83 27
-0.4064641 -0.42749402 0.05304658 78 26
-0.33282888 -0.45176163 0.036612853 78 25
-0.41816509 -0.43969968 0.026669011 80 24
-0.33807158 -0.45861626 0.012417774 78 23
-0.404834 -0.4256354 0 76 22
-0.34118176 -0.4625335 -0.012533828 77 21
-0.40794957 -0.42873725 -0.02597026 75 20
-0.33462366 -0.45355284 -0.036601812 78 19
-0.41738647 -0.43813235 -0.051190551 78 18
-0.33920941 -0.45981497 -0.061410651 81 17
-0.41191989 -0.43214369 -0.078097887 77 16
-0.33494273 -0.45428184 -0.092319466 88 15
-0.41104639 -0.43009636 -0.16026555 87 13
-0.33446199 -0.45375955 -0.12111318 95 14
-0.41470662 -0.433036 -0.19531558 89 12
-0.33054376 -0.45039901 -0.21183558 94 11
-0.41184187 -0.42738217 -0.29664832 94 9
-0.33345836 -0.45534182 -0.24871127 93 10
-0.41240576 -0.42655519 -0.3375254 95 8
-0.33310348 -0.4587968 -0.3601177 93 7
nan nan nan 0 6
-0.3271741 -0.45397699 -0.44421026 33 5
-0.2514163 -0.25789556 -0.31095386 5 4
-0.22829223 -0.31802502 -0.37844184 5 3
-0.28286368 -0.28728074 -0.4350425 4 2
-0.21871397 -0.30734774 -0.44944251 4 1
-0.19306347 -0.19621822 -0.33827803 3 0
-0.32942671 -0.44569582 0.13857146 90 31
-0.41678268 -0.4349657 0.13133115 86 30
-0.33333498 -0.45024753 0.10134943 86 29
-0.40848058 -0.42663616 0.086927593 79 28
-0.3327027 -0.44860265 0.063920543 83 27
-0.4114095 -0.42965478 0.053522334 76 26
-0.33588132 -0.45260629 0.036786374 77 25
-0.41622972 -0.43464273 0.026436094 79 24
-0.33522624 -0.45139444 0.012243693 79 23
-0.40284523 -0.42062178 0 78 22
-0.34575844 -0.46536472 -0.012649883 78 21
-0.40944362 -0.42731062 -0.02597026 74 20
-0.33768377 -0.4543902 -0.036774464 78 19
-0.41718298 -0.43488216 -0.050967012 78 18
-0.33933946 -0.45662814 -0.06112634 83 17
-0.41342586 -0.43070322 -0.078097887 77 16
-0.33652645 -0.45310992 -0.092319466 88 15
-0.41421843 -0.43038437 -0.16095339 87 13
-0.33893198 -0.45651528 -0.12222944 92 14
-0.41456905 -0.42989132 -0.19449836 88 12
-0.33622137 -0.45485246 -0.21464756 93 11
-0.41796327 -0.43067703 -0.30016586 93 9
-0.33237606 -0.45052075 -0.24658555 93 10
-0.41988751 -0.43122023 -0.34269822 96 8
-0.32984686 -0.45092279 -0.35451275 94 7
nan nan nan 0 6
-0.33098257 -0.45593193 -0.44744086 32 5
-0.24721262 -0.25189617 -0.30404377 5 4
-0.23039465 -0.31862345 -0.38026127 5 3
-0.28730088 -0.28970858 -0.44076675 4 2
-0.22065747 -0.30782124 -0.45143119 4 1
-0.19271694 -0.19452536 -0.3362402 3 0
-0.32954675 -0.44259921 0.13792694 87 31
-0.41999617 -0.4352546 0.1318948 88 30
-0.33344585 -0.44710693 0.10087583 87 29
-0.40652525 -0.42166442 0.086154908 79 28
-0.33574301 -0.44943312 0.064223483 81 27
-0.41117272 -0.42643106 0.053284455 79 26
-0.3404282 -0.45543909 0.037133414 78 25
-0.4194845 -0.43497846 0.026552552 80 24
-0.34283346 -0.45819291 0.012475801 77 23
-0.40953788 -0.42459163 0 76 22
-0.34291342 -0.45813307 -0.012475801 78 21
-0.41623014 -0.43117806 -0.026319636 75 20
-0.33926785 -0.45320871 -0.036774464 76 19
-0.41869846 -0.43342334 -0.050967012 78 18
-0.33805043 -0.45139226 -0.060557727 83 17
-0.41147164 -0.4257094 -0.077409804 79 16
-0.33818492 -0.45187342 -0.092319466 87 15
-0.41579309 -0.42886329 -0.16095339 86 13
-0.33617076 -0.44945562 -0.12055506 93 14
-0.41283643 -0.42499232 -0.19286393 88 12
-0.33651021 -0.4517521 -0.21371023 95 11
-0.416365 -0.42606953 -0.29782084 92 9
-0.33804968 -0.45476627 -0.24977414 92 10
-0.41695192 -0.42511445 -0.33881861 93 8
-0.33515784 -0.45472878 -0.35871646 94 7
nan nan nan 0 6
-0.33265141 -0.45471576 -0.44744086 31 5
-0.24941447 -0.25226375 -0.30577129 5 4
-0.23455735 -0.32195762 -0.38571954 5 3
-0.28486237 -0.28529897 -0.4350425 4 2
-0.21915466 -0.30330345 -0.44546515 4 1
-0.18825865 -0.18874782 -0.32605109 3 0
-0.33116671 -0.4413884 0.13792694 87 31
-0.42158863 -0.43371233 0.1318948 84 30
-0.33654833 -0.4478507 0.10134943 88 29
-0.41497806 -0.42723286 0.087700285 80 28
-0.33887172 -0.45018864 0.064526424 83 27
-0.41621405 -0.42847851 0.053760208 74 26
-0.34209517 -0.45418829 0.037133414 79 25
-0.42806244 -0.44057739 0.027018385 80 24
-0.33994347 -0.45098636 0.01230172 78 23
-0.41284022 -0.42487425 0 77 22
-0.34459025 -0.45687315 -0.012475801 79 21
-0.41598541 -0.42793825 -0.026203176 78 20
-0.34092665 -0.45196217 -0.036774464 77 19
-0.42202732 -0.4336639 -0.051190551 77 18
-0.34408548 -0.45617756 -0.061410651 82 17
-0.41823137 -0.42950144 -0.078441933 79 16
-0.33976018 -0.45069018 -0.092319466 87 15
-0.41560203 -0.42569587 -0.16026555 87 13
-0.34510618 -0.4579834 -0.1233457 95 14
-0.42095199 -0.4302789 -0.19613281 88 12
-0.33946759 -0.4524349 -0.21464756 92 11
-0.42414492 -0.43080962 -0.30251092 94 9
-0.33693925 -0.44994834 -0.24764842 92 10
-0.41994309 -0.42517251 -0.34011182 95 8
-0.33429113 -0.45021933 -0.355914 93 7
nan nan nan 0 6
-0.33536059 -0.45509377 -0.44905618 29 5
-0.24772409 -0.24884982 -0.30231625 5 4
-0.23467609 -0.31974679 -0.38390011 5 3
-0.28590614 -0.284253 -0.4350425 4 2
-0.22373536 -0.30746701 -0.45341986 4 1
-0.19410399 -0.19314134 -0.3362402 3 0
-0.33415303 -0.44216335 0.13857146 86 31
-0.42309999 -0.43223807 0.1318948 85 30
-0.33369103 -0.44078186 0.09992864 83 29
-0.41993421 -0.42930028 0.08847297 80 28
-0.33895046 -0.44701913 0.064223483 82 27
-0.4159604 -0.42525044 0.053522334 79 26
-0.34217972 -0.4509981 0.036959894 80 25
-0.42258635 -0.43196553 0.026552552 80 24
-0.34602386 -0.45578834 0.012475801 75 23
-0.41256571 -0.42165023 0 76 22
-0.34918979 -0.45966068 -0.012591855 76 21
-0.41923013 -0.42826176 -0.026319636 73 20
-0.34250224 -0.45076936 -0.036774464 77 19
-0.42528778 -0.43396014 -0.051414091 76 18
-0.34716982 -0.45695788 -0.061694957 82 17
-0.41972807 -0.42803892 -0.078441933 79 16
-0.34281215 -0.45146942 -0.092748858 88 15
-0.41877693 -0.42595008 -0.16095339 87 13
-0.34230813 -0.45093355 -0.12167132 92 14
-0.41745779 -0.42377657 -0.19368115 87 12
-0.34104478 -0.45124716 -0.21464756 95 11
-0.4194032 -0.42307919 -0.29782084 94 9
-0.33986205 -0.45058233 -0.24871127 95 10
-0.4229396 -0.42521477 -0.341405 91 8
-0.3370924 -0.45071375 -0.35731521 94 7
nan nan nan 0 6
-0.33694714 -0.45392036 -0.44905618 28 5
-0.25245866 -0.2517828 -0.30749881 6 4
-0.23175675 -0.31337941 -0.37662241 5 3
-0.29036891 -0.28663349 -0.44076675 4 2
-0.223037 -0.30422512 -0.44944251 4 1
-0.18853071 -0.1864222 -0.32401329 3 0
-0.33561745 -0.44105285 0.13857146 87 31
-0.42624697 -0.43256128 0.13245845 88 30
-0.34106824 -0.44750842 0.10182302 86 29
-0.42135552 -0.42790538 0.08847297 81 28
-0.34192818 -0.4478716 0.064526424 80 27
-0.41912097 -0.42563552 0.053760208 75 26
-0.34668422 -0.45383757 0.037306935 77 25
-0.43105137 -0.43765348 0.027018385 79 24
-0.3475334 -0.45463836 0.012475801 77 23
-0.41924459 -0.42560339 0 77 22
-0.34618202 -0.45252547 -0.012417774 77 21
-0.42064801 -0.42686918 -0.026319636 75 20
-0.34700879 -0.45360583 -0.037119761 77 19
-0.42847964 -0.43431363 -0.051637631 78 18
-0.34718257 -0.45382494 -0.061410651 81 17
-0.41939911 -0.42488888 -0.078097887 82 16
-0.34579468 -0.45229313 -0.09317825 86 15
-0.42018715 -0.42455903 -0.16095339 86 13
-0.3452729 -0.45173854 -0.12222944 95 14
-0.42387104 -0.42740363 -0.19613281 87 12
-0.34253934 -0.45011374 -0.21464756 93 11
-0.42863342 -0.42946929 -0.30368343 93 9
-0.33999413 -0.44764444 -0.24764842 92 10
-0.42434737 -0.42380992 -0.341405 93 8
-0.33734789 -0.44793347 -0.355914 92 7
nan nan nan 0 6
-0.34185383 -0.45740315 -0.4539021 26 5
-0.25199887 -0.2496821 -0.30577129 6 4
-0.23380777 -0.31399235 -0.37844184 5 3
-0.29131785 -0.285669 -0.44076675 4 2
-0.22315542 -0.30225727 -0.44745383 4 1
-0.19436979 -0.19081236 -0.33420238 3 0
-0.34007645 -0.44372612 0.1398605 89 31
-0.42775431 -0.43107074 0.13245845 88 30
-0.34411448 -0.44826889 0.10229662 85 29
-0.42459223 -0.42817938 0.08885932 79 28
-0.34348947 -0.44667533 0.064526424 80 27
-0.42236301 -0.42593059 0.053998087 76 26
-0.34675395 -0.45064157 0.037133414 78 25
-0.43257648 -0.43614617 0.027018385 79 24
-0.34919739 -0.45336154 0.012475801 76 23
-0.42072764 -0.42413738 0 77 22
-0.35079351 -0.45528686 -0.012533828 76 21
-0.42574143 -0.42885622 -0.026552552 73 20
-0.3440488 -0.44644549 -0.036601812 78 19
-0.43175438 -0.43457538 -0.051861171 78 18
-0.34884363 -0.45254937 -0.061410651 83 17
-0.42263186 -0.42517203 -0.078441933 77 16
-0.34446108 -0.44710758 -0.092319466 86 15
-0.428554 -0.42979881 -0.16370472 87 13
-0.34980386 -0.45440546 -0.1233457 93 14
-0.42878705 -0.42917737 -0.19776724 88 12
-0.34418675 -0.44885525 -0.21464756 94 11
-0.42384461 -0.4217658 -0.29899335 94 9
-0.34163254 -0.44639534 -0.24764842 94 10
-0.42589784 -0.42225176 -0.341405 93 8
-0.33774394 -0.44503856 -0.35451275 92 7
nan nan nan 0 6
-0.33896777 -0.45002693 -0.44744086 25 5
-0.25550824 -0.25127155 -0.30922633 5 4
-0.23190255 -0.30899483 -0.37298355 5 3
-0.28648782 -0.27905619 -0.43122634 4 2
-0.2215807 -0.29776743 -0.44148776 4 1
-0.18563537 -0.18110372 -0.315862 3 0
-0.34023273 -0.44055831 0.13921598 90 31
-0.43278793 -0.43293247 0.13358575 85 30
-0.34426177 -0.44505635 0.10182302 86 29
-0.42440671 -0.42487928 0.08847297 80 28
-0.34512433 -0.44541338 0.064526424 80 27
-0.42568657 -0.42613393 0.054235961 73 26
-0.3499229 -0.45134518 0.037306935 77 25
-0.43417212 -0.43455777 0.027018385 78 24
-0.35382491 -0.45610237 0.012591855 77 23
-0.42050573 -0.42083058 0 77 22
-0.35550845 -0.45795959 -0.012649883 76 21
-0.42191985 -0.42208847 -0.026203176 74 20
-0.34568277 -0.44518152 -0.036601812 74 19
-0.43334427 -0.43299001 -0.051861171 77 18
-0.35345078 -0.45526579 -0.061979275 79 17
-0.42770451 -0.42710674 -0.079130016 77 16
-0.34601972 -0.44590247 -0.092319466 88 15
-0.431761 -0.42999002 -0.16439256 87 13
-0.35146695 -0.45312032 -0.1233457 91 14
-0.42860055 -0.42601877 -0.19695002 88 12
-0.34575146 -0.44765109 -0.21464756 93 11
-0.42854163 -0.4233003 -0.3013384 93 9
-0.3459349 -0.44879726 -0.24977414 92 10
-0.43043065 -0.42375216 -0.3439914 91 8
-0.33929539 -0.44385687 -0.35451275 91 7
nan nan nan 0 6
-0.34053659 -0.44884095 -0.44744086 23 5
-0.25768611 -0.25163093 -0.31095386 5 4
-0.23400271 -0.3095594 -0.37480298 5 3
-0.28750867 -0.27800426 -0.43122634 4 2
-0.22261876 -0.29699215 -0.44148776 4 1
-0.19152409 -0.18543351 -0.32605109 3 0
-0.3417685 -0.43936801 0.13921598 85 31
-0.43603072 -0.43312931 0.1341494 85 30
-0.34131289 -0.43802288 0.10040224 85 29
-0.4276453 -0.42513016 0.08885932 80 28
-0.34667698 -0.44420597 0.064526424 82 27
-0.43248558 -0.4298895 0.054949593 75 26
-0.35302275 -0.45209318 0.037480455 77 25
-0.44101897 -0.43830189 0.027367761 79 24
-0.3554149 -0.4548645 0.012591855 77 23
-0.42553169 -0.42287156 0 75 22
-0.35557362 -0.45474041 -0.012591855 77 21
-0.42694688 -0.42412007 -0.026436094 75 20
-0.35334629 -0.45185697 -0.037292413 76 19
-0.43130535 -0.42797989 -0.051414091 78 18
-0.35047281 -0.44813988 -0.06112634 81 17
-0.42566347 -0.42213687 -0.078441933 77 16
-0.35209852 -0.45053321 -0.093607657 86 15
-0.43154407 -0.4267965 -0.16370472 88 13
-0.35304654 -0.45189074 -0.1233457 92 14
-0.4283973 -0.42286673 -0.19613281 87 12
-0.35155615 -0.45194864 -0.21745953 94 11
-0.43159902 -0.42334169 -0.30251092 91 9
-0.3488788 -0.44938073 -0.25083703 90 10
-0.42729941 -0.4177787 -0.34011182 90 8
-0.34460744 -0.44761002 -0.35871646 93 7
nan nan nan 0 6
-0.3444027 -0.45069367 -0.45067149 19 5
-0.25986961 -0.25197822 -0.31268138 5 4
-0.23816517 -0.31285775 -0.38026127 5 3
-0.28495818 -0.27366757 -0.42550209 4 2
-0.2254585 -0.29864731 -0.44546515 4 1
-0.18689518 -0.17980333 -0.315862 3 0
-0.3433001 -0.43817231 0.13921598 85 31
-0.43231937 -0.42649227 0.13245845 85 30
-0.34886736 -0.44457993 0.10229662 85 29
-0.43265498 -0.42709231 0.089632004 80 28
-0.35127562 -0.44690841 0.065132305 83 27
-0.42509615 -0.41966796 0.053760208 78 26
-0.35306531 -0.44889125 0.037306935 77 25
-0.44432986 -0.43850762 0.02748422 80 24
-0.35700047 -0.45362109 0.012591855 76 23
-0.43057695 -0.42488253 0 75 22
-0.35869688 -0.45546651 -0.012649883 77 21
-0.43199319 -0.42612168 -0.026669011 75 20
-0.35185185 -0.4466891 -0.036947113 77 19
-0.43279666 -0.42647174 -0.051414091 78 18
-0.35509199 -0.45082933 -0.061694957 80 17
-0.43421724 -0.42757237 -0.079818107 81 16
-0.35366905 -0.44930139 -0.093607657 85 15
-0.43647337 -0.42864302 -0.16508038 87 13
-0.35911763 -0.45642045 -0.12502007 93 14
-0.43156427 -0.42301622 -0.19695002 87 12
-0.35171044 -0.44888794 -0.2165222 93 11
-0.43783736 -0.42643562 -0.30602849 93 9
-0.35460222 -0.45352697 -0.25402561 91 10
-0.4287551 -0.41628462 -0.34011182 91 8
-0.3449071 -0.44476205 -0.35731521 91 7
nan nan nan 0 6
-0.33441371 -0.43430844 -0.4345184 18 5
-0.26336968 -0.25355697 -0.31613642 5 4
-0.23925579 -0.31202447 -0.38026127 5 3
-0.28591174 -0.27267122 -0.42550209 4 2
-0.2264996 -0.29785851 -0.44546515 4 1
-0.1896386 -0.18112667 -0.31993765 3 0
-0.34333971 -0.4350684 0.13857146 85 31
-0.43205932 -0.42328256 0.1318948 83 30
-0.34587616 -0.4375619 0.10087583 87 29
-0.43237302 -0.42385691 0.089245662 80 28
-0.34976965 -0.44177487 0.064526424 80 27
-0.42826873 -0.41999197 0.053998087 73 26
-0.35463011 -0.4476561 0.037306935 76 25
-0.44406813 -0.43521231 0.027367761 80 24
-0.35703748 -0.45040697 0.012533828 77 23
-0.4284735 -0.41989055 0 75 22
-0.35866067 -0.45230958 -0.012591855 75 21
-0.43526834 -0.42635223 -0.026785469 75 20
-0.35340893 -0.4454582 -0.036947113 76 19
-0.4377799 -0.42850479 -0.051861171 78 18
-0.3566635 -0.44958711 -0.061694957 79 17
-0.43385631 -0.42440504 -0.079474062 80 16
-0.35675693 -0.45000064 -0.094037049 86 15
-0.43278626 -0.42210165 -0.16301689 87 13
-0.35611424 -0.44947717 -0.1233457 92 14
-0.43643677 -0.42479029 -0.19858447 86 12
-0.35176989 -0.44589311 -0.21558487 92 11
-0.43765625 -0.42345226 -0.30485597 91 9
-0.3533994 -0.44871822 -0.2518999 89 10
-0.43631735 -0.42077646 -0.34528461 89 8
-0.34519115 -0.44191748 -0.355914 92 7
nan nan nan 0 6
-0.35210663 -0.45439571 -0.45713273 22 5
-0.26289392 -0.25144288 -0.3144089 5 4
-0.23925208 -0.30986401 -0.37844184 5 3
-0.28799495 -0.27282405 -0.42741019 4 2
-0.22657563 -0.29589489 -0.44347647 4 1
-0.18599127 -0.17655724 -0.31178638 3 0
-0.34627467 -0.43582544 0.13921598 84 31
-0.43170887 -0.42015523 0.13133115 83 30
-0.35188541 -0.44219497 0.10229662 84 29
-0.43910369 -0.42757088 0.090404697 81 28
-0.3527711 -0.44255984 0.064829364 81 27
-0.42973217 -0.41849446 0.053998087 73 26
-0.35765937 -0.44843403 0.037480455 76 25
-0.44730434 -0.43547302 0.02748422 78 24
-0.35542765 -0.4453004 0.012417774 75 23
-0.43345901 -0.42194188 0 74 22
-0.35868591 -0.44909531 -0.012533828 77 21
-0.43488371 -0.42317137 -0.026669011 76 20
-0.35798046 -0.44819447 -0.037292413 74 19
-0.43927303 -0.42697406 -0.051861171 77 18
-0.35969424 -0.45034924 -0.061979275 80 17
-0.43711758 -0.42460686 -0.079818107 77 16
-0.35977533 -0.45074657 -0.09446644 84 15
-0.43938094 -0.42566216 -0.16508038 87 13
-0.36070439 -0.45205411 -0.12446194 91 14
-0.44295713 -0.42824838 -0.20103614 87 12
-0.35332423 -0.44466248 -0.21558487 90 11
-0.43753356 -0.42039847 -0.30368343 91 9
-0.35488552 -0.44754386 -0.2518999 90 10
-0.43933469 -0.42072442 -0.34657779 88 8
-0.34665471 -0.44077036 -0.355914 92 7
nan nan nan 0 6
-0.34785905 -0.44561324 -0.44905618 18 5
-0.26245052 -0.24928892 -0.31268138 6 4
-0.2392904 -0.30766532 -0.37662241 5 3
-0.28776109 -0.27071878 -0.42550209 4 2
-0.22943647 -0.29751754 -0.44745383 4 1
-0.1908671 -0.17983165 -0.31993765 3 0
