# .PCD v0.7 - Point Cloud Data file format
VERSION 0.7
FIELDS x y z intensity ring
SIZE 4 4 4 4 2
TYPE F F F F U
COUNT 1 1 1 1 1
WIDTH 1460
HEIGHT 1
VIEWPOINT 0 0 0 1 0 0 0
POINTS 1460
DATA ascii
0.88366812 6.293961 -0.14675024 2 21
0.76748365 2.7570076 -0.13183109 3 20
0.41514343 2.9437351 -0.20338178 10 19
0.77157861 2.767967 -0.25483504 3 18
0.41519713 2.9440744 -0.33633706 9 17
0.72291136 2.590431 -0.36881468 5 16
0.36335081 2.5806527 -0.44828618 8 15
0.42757499 1.5264211 -0.44365355 28 13
0.29375774 2.0881352 -0.47496465 9 14
0.42068657 1.4960735 -0.52547246 4 12
0.21547168 1.5519553 -0.61957216 3 11
0.42647156 1.4989192 -0.80904078 3 9
0.21507125 1.5588278 -0.72275072 3 10
0.43076685 1.504202 -0.92463857 3 8
0.20836969 1.5593151 -1.0411185 3 7
0.43698302 1.5083325 -1.1692896 3 6
0.19277261 1.485906 -1.2389427 23 5
0.3783994 1.2869468 -1.248998 21 4
0.15212181 1.2100739 -1.2572274 25 3
nan nan nan 0 2
nan nan nan 0 1
nan nan nan 0 0
0.92219287 6.5354519 1.7518011 21 31
1.8564588 6.5731874 1.5725919 8 30
0.92561728 6.5187283 1.2635528 28 29
1.862765 6.6042237 1.0678571 3 28
0.93123358 6.5175858 0.79946119 31 27
1.9877393 7.0467129 0.69650394 7 26
0.90885413 6.3447199 0.44351873 24 25
1.9851102 7.0373797 0.33936024 4 24
0.90414548 6.2961016 0.14686629 22 23
1.9844097 7.0302095 0 14 22
0.90882945 6.3131032 -0.14727248 3 21
0.77186525 2.7376263 -0.13101588 3 20
0.42561176 2.9472795 -0.20372708 10 19
0.77376902 2.7389042 -0.25237614 3 18
0.4246048 2.9402227 -0.33605275 9 17
0.72856987 2.5759811 -0.36709449 5 16
0.36108303 2.5038569 -0.43497503 9 15
0.43065664 1.5180609 -0.44159007 29 13
0.30069989 2.0846846 -0.47440651 9 14
0.42564544 1.4946702 -0.52547246 4 12
0.22121067 1.553489 -0.62050951 3 11
0.43231606 1.499542 -0.81021339 3 9
0.21930045 1.5513829 -0.71956217 3 10
0.43421665 1.4965277 -0.92075896 3 8
0.21242981 1.5504085 -1.0355135 3 7
0.44168222 1.5048904 -1.167775 3 6
0.19795822 1.4852241 -1.2389427 22 5
0.38392797 1.2890799 -1.2524531 20 4
0.15612935 1.2078346 -1.2554079 25 3
nan nan nan 0 2
nan nan nan 0 1
nan nan nan 0 0
0.94396549 6.5250211 1.7498676 26 31
1.880734 6.5713501 1.5737191 8 30
0.94871879 6.5178862 1.2640263 26 29
1.9170667 6.7069139 1.085629 7 28
0.95899981 6.5486727 0.80370235 27 27
2.0027387 7.0062351 0.69317365 7 26
0.93822199 6.390862 0.44698915 24 25
nan nan nan 0 24
0.93266648 6.3298373 0.1477367 20 23
2.0254555 7.0809207 0 2 22
0.94141144 6.3816018 -0.14895527 3 21
0.77845222 2.7227762 -0.13043359 4 20
0.43553403 2.9433086 -0.20355444 10 19
0.78126323 2.7290065 -0.2517055 3 18
0.43537837 2.9386468 -0.33605275 10 17
0.73003107 2.5472445 -0.36330998 5 16
0.36918342 2.4952064 -0.43368682 9 15
0.43421444 1.5095454 -0.43952656 30 13
0.3079749 2.0836225 -0.47440651 9 14
0.43112081 1.4931 -0.52547246 4 12
0.22690302 1.5526676 -0.62050951 3 11
0.43630323 1.4937869 -0.8078683 3 9
0.22659098 1.5617682 -0.72487646 3 10
0.43969882 1.4949261 -0.92075896 3 8
0.2181109 1.5496196 -1.0355135 3 7
0.44776514 1.5051668 -1.1692896 3 6
0.20365582 1.4863794 -1.240558 22 5
0.38812444 1.2859349 -1.2507255 20 4
0.16055521 1.2072543 -1.2554079 25 3
nan nan nan 0 2
nan nan nan 0 1
nan nan nan 0 0
0.96858186 6.5262957 1.7511566 25 31
1.9061656 6.5690904 1.5748464 8 30
0.97404802 6.5240774 1.2659208 28 29
1.9402597 6.6950984 1.0848564 6 28
0.98226005 6.5402055 0.80309647 28 27
2.0152283 6.9534359 0.68865401 6 26
0.9649725 6.4095764 0.44855082 23 25
2.1286654 7.3443761 0.35496569 3 24
0.9625684 6.3784442 0.14895527 15 23
1.2156216 4.1948233 0 2 22
0.98791301 6.5313315 -0.15255293 3 21
0.78655827 2.715246 -0.13020067 4 20
0.44594678 2.9392262 -0.20338178 10 19
0.7870847 2.7117805 -0.25036427 3 18
0.4456335 2.9371092 -0.33605275 10 17
0.7400552 2.5469289 -0.36365405 5 16
0.37569162 2.47929 -0.43111047 14 15
0.43880531 1.5057141 -0.43883869 33 13
0.31488511 2.0776598 -0.47329023 9 14
0.43433005 1.4847862 -0.5230208 4 12
0.23164272 1.5472808 -0.61863488 3 11
0.44303545 1.4964101 -0.81021339 3 9
0.23006719 1.5475352 -0.71849924 3 10
0.44552845 1.4954317 -0.92205215 3 8
0.22293457 1.5447494 -1.032711 3 7
0.45128584 1.4978843 -1.1647458 3 6
0.20936687 1.4894395 -1.2437887 22 5
0.39207914 1.2828453 -1.248998 20 4
0.1640854 1.2015884 -1.2499497 24 3
nan nan nan 0 2
nan nan nan 0 1
nan nan nan 0 0
0.99135691 6.5228753 1.7511566 25 31
1.9290843 6.5623965 1.5748464 8 30
0.99570519 6.5133572 1.2644999 29 29
1.9364524 6.5958652 1.0697889 3 28
1.0009452 6.5097551 0.7997641 25 27
2.0263519 6.9061232 0.68461007 6 26
1.0047724 6.5195599 0.45653278 13 25
2.1204851 7.2218966 0.34937569 1 24
1.0023367 6.4886732 0.1516245 9 23
1.2239079 4.1689687 0 23 22
1.0107095 6.5354304 -0.15272702 7 21
0.7889806 2.6885269 -0.12903608 3 20
0.45620388 2.9376519 -0.20338178 10 19
0.79044211 2.690048 -0.24857596 3 18
0.45550409 2.9330809 -0.33576843 10 17
0.7456938 2.5349607 -0.36227787 4 16
0.38209316 2.4633586 -0.42853409 17 15
0.44337475 1.5018691 -0.43815088 38 13
0.32177314 2.0766044 -0.47329023 9 14
0.44153401 1.4900539 -0.52547246 4 12
0.23746635 1.5510873 -0.62050951 3 11
0.44735819 1.4928187 -0.80904078 3 9
0.23647815 1.5534354 -0.72168791 3 10
0.44924322 1.4898511 -0.91946578 3 8
0.22832541 1.5439618 -1.032711 3 7
0.45858321 1.5039858 -1.1708043 3 6
0.2137685 1.4849588 -1.240558 22 5
0.39579371 1.2798126 -1.2472705 20 4
0.16806911 1.2010376 -1.2499497 25 3
nan nan nan 0 2
nan nan nan 0 1
nan nan nan 0 0
1.0129821 6.5195518 1.7511566 30 31
1.9522262 6.5606318 1.5759737 8 30
1.0188112 6.519722 1.2663943 23 29
1.9611323 6.5988774 1.0713342 3 28
1.0252174 6.523561 0.80188471 24 27
2.0419297 6.8703842 0.6817556 6 26
1.0263866 6.516192 0.45653278 28 25
3.5374703 11.896665 0.57716858 1 24
1.0304586 6.5272851 0.15261096 35 23
1.2462865 4.1936398 0 2 22
nan nan nan 0 21
nan nan nan 0 20
0.46710953 2.9435132 -0.20389973 10 19
nan nan nan 0 18
0.46445352 2.9266477 -0.33519983 10 17
nan nan nan 0 16
0.38911042 2.4547799 -0.42724594 17 15
0.44904411 1.5026923 -0.43883869 44 13
0.32977727 2.0802832 -0.47440651 9 14
0.44647276 1.4885815 -0.52547246 4 12
0.2428792 1.550249 -0.62050951 3 11
0.45385531 1.4954717 -0.81138593 3 9
0.24059553 1.5459334 -0.71849924 3 10
0.45255694 1.4821382 -0.91558617 4 8
0.23436219 1.5493392 -1.0369147 3 7
0.46147108 1.4947779 -1.1647458 3 6
0.2186759 1.4823153 -1.2389427 22 5
0.40025866 1.2784232 -1.2472705 20 4
0.1724997 1.2021414 -1.2517691 25 3
nan nan nan 0 2
nan nan nan 0 1
nan nan nan 0 0
1.0361118 6.5183616 1.7518011 23 31
1.972301 6.5444503 1.5737191 8 30
1.0404034 6.5088534 1.2649735 33 29
1.9841547 6.5919924 1.0713342 4 28
1.0440534 6.49544 0.7988553 30 27
2.0587187 6.8393865 0.67937678 5 26
1.0562493 6.5568924 0.45965615 28 25
3.5847404 11.903374 0.57810032 1 24
1.0575582 6.5432038 0.15307517 26 23
nan nan nan 0 22
nan nan nan 0 21
nan nan nan 0 20
0.47817641 2.946789 -0.20424503 11 19
nan nan nan 0 18
0.47398832 2.9175694 -0.33434689 10 17
nan nan nan 0 16
0.39575258 2.4387481 -0.42466956 21 15
0.45454875 1.5010364 -0.43883869 51 13
0.33664975 2.0767133 -0.47384837 9 14
0.45123541 1.4846758 -0.52465528 4 12
0.24928625 1.5539261 -0.62238419 3 11
0.45972449 1.4959879 -0.81255841 3 9
0.24731731 1.5517467 -0.72168791 3 10
0.45417303 1.4682117 -0.90782702 4 8
0.24035275 1.5505162 -1.038316 3 7
0.46873689 1.4987683 -1.1692896 3 6
0.22410738 1.4815038 -1.2389427 22 5
0.40604109 1.2803905 -1.2507255 20 4
0.17715003 1.2031978 -1.2535886 24 3
nan nan nan 0 2
nan nan nan 0 1
nan nan nan 0 0
1.065027 6.545516 1.7601798 25 31
1.9976984 6.5418358 1.5748464 8 30
1.0610892 6.4856153 1.2611847 24 29
2.0227287 6.6319213 1.0790613 6 28
1.0698628 6.5038142 0.80037004 22 27
2.0765049 6.8079929 0.67699802 5 26
1.0794648 6.5480552 0.4593091 29 25
3.6239686 11.875825 0.57740152 1 24
1.0812048 6.5444045 0.15319124 36 23
nan nan nan 0 22
0.7832765 4.7266521 -0.11042535 86 21
nan nan nan 0 20
0.4885672 2.9425561 -0.20407237 12 19
nan nan nan 0 18
0.48538411 2.9232492 -0.33519983 10 17
nan nan nan 0 16
0.40065807 2.4154816 -0.42080507 19 15
0.4583697 1.4948468 -0.43746305 55 13
0.34346718 2.0706565 -0.47273216 9 14
0.45641512 1.4830916 -0.52465528 4 12
0.25396624 1.5484712 -0.62050951 3 11
0.4638854 1.4900784 -0.81021339 3 9
0.25129154 1.5419382 -0.71743643 3 10
0.46379387 1.4809024 -0.91687936 3 8
0.24448092 1.5414861 -1.032711 3 7
0.4739657 1.497123 -1.1692896 3 6
0.22956572 1.4825988 -1.240558 23 5
0.41106373 1.2806851 -1.2524531 19 4
0.18185163 1.2059643 -1.2572274 24 3
nan nan nan 0 2
nan nan nan 0 1
nan nan nan 0 0
1.0783805 6.4845686 1.7447114 29 31
2.0205216 6.5348225 1.5748464 8 30
1.0841256 6.484293 1.2616583 24 29
2.0633757 6.6814547 1.0883335 7 28
1.0888652 6.4780135 0.79764354 31 27
2.0921705 6.774549 0.67438138 5 26
1.0944617 6.4975166 0.45601219 35 25
2.2646325 7.3323526 0.35624674 5 24
1.0965708 6.4962273 0.15214674 30 23
nan nan nan 0 22
0.79269969 4.681993 -0.10943888 55 21
nan nan nan 0 20
0.49883568 2.9408326 -0.20407237 12 19
nan nan nan 0 18
0.49475843 2.9166386 -0.3346312 10 17
nan nan nan 0 16
0.40867823 2.4116397 -0.42037565 24 15
0.46716467 1.5047098 -0.44090223 38 13
0.35109729 2.0718479 -0.47329023 9 14
0.46300155 1.4859987 -0.5262897 4 12
0.25823188 1.5407161 -0.61769754 3 11
0.46708322 1.4821355 -0.80669576 3 9
0.25704035 1.5432842 -0.71849924 3 10
0.44946703 1.4181199 -0.87808335 9 8
0.24986021 1.5406233 -1.032711 3 7
0.47857881 1.4935664 -1.167775 3 6
0.23503444 1.4836737 -1.2421734 22 5
0.41440821 1.275807 -1.248998 19 4
0.18657467 1.2087125 -1.2608663 24 3
nan nan nan 0 2
nan nan nan 0 1
nan nan nan 0 0
1.1175593 6.5784073 1.7711366 26 31
2.0455053 6.5347023 1.5765374 8 30
1.1319054 6.6280804 1.2905477 32 29
2.0682409 6.6152811 1.0786749 5 28
1.1290678 6.5769029 0.81036705 28 27
2.1101661 6.7533231 0.67295408 5 26
1.1167138 6.491199 0.45583868 24 25
2.2887213 7.3196359 0.35601383 6 24
1.1285613 6.5465493 0.15342334 33 23
nan nan nan 0 22
0.80779725 4.6768761 -0.10938087 90 21
nan nan nan 0 20
0.50867438 2.9366157 -0.20389973 12 19
nan nan nan 0 18
0.5049364 2.9148939 -0.3346312 10 17
nan nan nan 0 16
0.41625887 2.4053435 -0.41951683 24 15
0.46879447 1.4916105 -0.43746305 35 13
0.35837817 2.0730741 -0.47384837 9 14
0.47175589 1.4956343 -0.53037578 4 12
0.26411349 1.5444213 -0.61957216 3 11
0.4713217 1.4784758 -0.80552328 4 9
0.26317748 1.5468404 -0.72062498 3 10
0.45941949 1.4329122 -0.88842899 9 8
0.25657624 1.5479144 -1.038316 3 7
0.47859883 1.4768426 -1.155658 3 6
0.23965205 1.4810017 -1.240558 22 5
0.41920406 1.2761415 -1.2507255 19 4
0.1897932 1.2030042 -1.2554079 24 3
nan nan nan 0 2
nan nan nan 0 1
nan nan nan 0 0
1.1327831 6.5365829 1.7608243 22 31
2.0664277 6.5255618 1.5759737 8 30
1.1337019 6.5082035 1.267815 25 29
2.0789821 6.5730653 1.0728797 3 28
1.1457465 6.543788 0.80673176 20 27
2.1232097 6.7127008 0.66962385 4 26
1.1644676 6.6373134 0.46642345 31 25
nan nan nan 0 24
1.1656717 6.623805 0.15533823 33 23
nan nan nan 0 22
0.820656 4.654336 -0.10891666 63 21
nan nan nan 0 20
0.51884162 2.9373691 -0.20407237 12 19
0.59636807 1.8850123 -0.17436083 4 18
0.51553869 2.9155595 -0.33491552 11 17
0.58476019 1.8462508 -0.26422545 9 16
0.42507854 2.406302 -0.41994625 10 15
0.47912192 1.5059903 -0.44227788 37 13
0.36477107 2.0670099 -0.47273216 9 14
0.47480813 1.4872295 -0.52792418 5 12
0.26898172 1.5388756 -0.61769754 3 11
0.47171128 1.4621197 -0.7973156 3 9
0.26934254 1.5503724 -0.72275072 3 10
0.45935631 1.4149475 -0.87808335 5 8
0.26197788 1.5470092 -1.038316 3 7
0.48961726 1.4920776 -1.1692896 3 6
0.24477056 1.4782304 -1.2389427 22 5
0.42215744 1.2694556 -1.245543 19 4
0.19420114 1.2023005 -1.2554079 24 3
nan nan nan 0 2
nan nan nan 0 1
nan nan nan 0 0
1.1479075 6.4824352 1.7472894 31 31
2.0910759 6.5202632 1.5765374 7 30
1.1571188 6.5015883 1.2673415 30 29
2.0992887 6.5536413 1.0709479 3 28
1.1623101 6.4980145 0.80158174 32 27
2.140959 6.6835451 0.66748297 4 26
1.1685895 6.5200696 0.45844153 28 25
2.1735237 6.7850742 0.33062586 1 24
1.1711508 6.5212898 0.15301715 27 23
1.3857414 4.3258772 0 7 22
0.83417565 4.6316161 -0.10845244 77 21
nan nan nan 0 20
0.52960414 2.9354477 -0.20407237 13 19
0.60937232 1.9017769 -0.17614914 4 18
0.52527374 2.9112978 -0.3346312 11 17
0.59000504 1.8393811 -0.26353735 8 16
0.43868878 2.4338942 -0.42509896 10 15
0.48363599 1.5020221 -0.44159007 37 13
0.36847958 2.0440702 -0.467709 9 14
nan nan nan 0 12
0.27556151 1.5447743 -0.62050951 3 11
0.47913373 1.4666742 -0.80083317 4 9
0.27318722 1.5405079 -0.71849924 3 10
nan nan nan 0 8
0.26667801 1.542004 -1.0355135 3 7
0.49041414 1.4771533 -1.1586872 3 6
0.24992906 1.477367 -1.2389427 22 5
0.42774546 1.2713975 -1.248998 19 4
0.19949684 1.2083849 -1.2626858 23 3
nan nan nan 0 2
nan nan nan 0 1
nan nan nan 0 0
1.1765285 6.5116692 1.7563127 10 31
2.116081 6.5198741 1.5782284 8 30
nan nan nan 0 29
2.1366386 6.5909109 1.0782886 4 28
1.1880974 6.5110078 0.80370235 22 27
2.160435 6.6641955 0.66629356 4 26
1.1891034 6.503684 0.45757389 31 25
2.1817772 6.7299385 0.32829666 2 24
1.1939074 6.5171618 0.15301715 35 23
1.3938842 4.2996144 0 10 22
0.84763598 4.6139255 -0.10810427 65 21
nan nan nan 0 20
0.53939813 2.9311278 -0.20389973 13 19
0.61369497 1.8925351 -0.17547853 4 18
0.5349853 2.9070032 -0.33434689 11 17
0.60409456 1.8608538 -0.26697779 3 16
0.44319591 2.4105437 -0.42123443 10 15
0.49635518 1.5231664 -0.44846842 37 13
0.33577123 1.8246217 -0.41691959 14 14
0.47042829 1.4389867 -0.51157975 8 12
0.28012967 1.5392412 -0.61863488 3 11
0.45988289 1.3916557 -0.75979489 38 9
0.27896208 1.5417722 -0.71956217 3 10
nan nan nan 0 8
0.27312791 1.5471821 -1.0397172 3 7
nan nan nan 0 6
0.25508451 1.4764856 -1.2389427 22 5
0.43335214 1.2733159 -1.2524531 18 4
0.20259 1.2009156 -1.2554079 23 3
nan nan nan 0 2
nan nan nan 0 1
nan nan nan 0 0
1.2376959 6.7165799 1.8130304 3 31
2.1380661 6.5101333 1.5776647 8 30
1.25021 6.7516346 1.3180163 4 29
2.1519258 6.5599456 1.0744251 6 28
1.2511424 6.723969 0.8306641 6 27
2.1805782 6.6471553 0.66534203 5 26
1.2619804 6.7692013 0.47666118 9 25
2.4093959 7.3439093 0.35880882 7 24
1.2198554 6.5301538 0.15342334 33 23
nan nan nan 0 22
0.85960633 4.5888271 -0.10758203 85 21
nan nan nan 0 20
0.55008435 2.9316788 -0.20407237 13 19
0.6171816 1.8809212 -0.17458437 2 18
0.54512942 2.9051182 -0.33434689 12 17
nan nan nan 0 16
nan nan nan 0 15
0.50469255 1.530551 -0.45121974 9 13
0.34213829 1.8234385 -0.41691959 29 14
0.48737454 1.473208 -0.52465528 3 12
0.28550091 1.5382541 -0.61863488 3 11
nan nan nan 0 9
0.2843422 1.5407891 -0.71956217 3 10
nan nan nan 0 8
0.27743664 1.5401046 -1.0355135 2 7
0.46985343 1.3833498 -1.0859853 26 6
0.26023686 1.4755863 -1.2389427 22 5
0.436611 1.2683804 -1.248998 19 4
0.20706756 1.2018915 -1.2572274 23 3
nan nan nan 0 2
nan nan nan 0 1
nan nan nan 0 0
1.2635201 6.7314329 1.8181864 3 31
2.1611795 6.5076303 1.5787921 8 30
1.2689596 6.7281523 1.3142275 3 29
2.1954634 6.6184087 1.0852427 7 28
1.2738941 6.7222209 0.83096707 4 27
2.1900601 6.6020989 0.66153604 6 26
1.2811707 6.7478271 0.47544652 6 25
nan nan nan 0 24
1.2601509 6.6242924 0.15574443 27 23
2.3674951 7.1322403 0 3 22
0.87248349 4.5736747 -0.10729189 75 21
nan nan nan 0 20
0.56026918 2.9322886 -0.20424503 15 19
0.6297099 1.8977636 -0.17637268 3 18
0.55429608 2.9008543 -0.33406258 11 17
nan nan nan 0 16
nan nan nan 0 15
0.51892656 1.5562174 -0.45947376 7 13
0.34409606 1.8007457 -0.41189647 27 14
0.49075156 1.4671044 -0.5230208 3 12
0.29017368 1.5350208 -0.61769754 3 11
nan nan nan 0 9
0.28779286 1.5309396 -0.71531069 3 10
nan nan nan 0 8
0.28328267 1.5432502 -1.038316 3 7
0.48222834 1.4043443 -1.1041608 25 6
0.26412681 1.4690793 -1.2340969 22 5
0.44141197 1.268631 -1.2507255 18 4
0.21046717 1.1978192 -1.2535886 23 3
nan nan nan 0 2
nan nan nan 0 1
nan nan nan 0 0
1.2870094 6.7269807 1.8181864 3 31
2.1838822 6.5000467 1.5787921 8 30
1.2947501 6.7357359 1.3165954 3 29
2.2028205 6.5638771 1.0775158 3 28
1.2996995 6.729917 0.83248174 5 27
2.2091298 6.5826187 0.66034663 8 26
1.3032986 6.7359672 0.47492597 6 25
2.2016532 6.5603452 0.32107624 9 24
1.3067552 6.7349544 0.15847169 28 23
2.211555 6.5860109 0 8 22
0.88606524 4.5583329 -0.10700176 49 21
nan nan nan 0 20
0.57050133 2.930315 -0.20424503 16 19
nan nan nan 0 18
0.5653975 2.9012415 -0.33434689 11 17
nan nan nan 0 16
0.50961989 2.6185479 -0.459021 9 15
0.53002942 1.5702386 -0.46428862 7 13
0.34760484 1.7851781 -0.4085477 27 14
0.49840847 1.4720062 -0.52547246 3 12
0.29666799 1.5384998 -0.61957216 3 11
nan nan nan 0 9
0.2950919 1.5387665 -0.71956217 3 10
0.50915861 1.4795071 -0.92463857 3 8
0.28893703 1.5422015 -1.038316 3 7
0.48868439 1.4063227 -1.10719 8 6
0.26985025 1.4699786 -1.2357121 22 5
0.44605875 1.2670046 -1.2507255 18 4
0.21515462 1.1987282 -1.2554079 22 3
nan nan nan 0 2
nan nan nan 0 1
nan nan nan 0 0
1.3116565 6.7222185 1.8181864 3 31
2.2092612 6.4966097 1.5799193 7 30
1.3175439 6.7213087 1.3147011 4 29
2.2220926 6.5417285 1.0751977 3 28
1.3238786 6.7226739 0.83217877 5 27
2.2380486 6.588614 0.66177392 7 26
1.3303876 6.7433801 0.47579357 6 25
2.2305071 6.5664177 0.32177499 9 24
1.3302566 6.7303519 0.15847169 33 23
2.2364843 6.5802283 0 9 22
0.89792043 4.5305357 -0.10642149 52 21
nan nan nan 0 20
0.58027047 2.923311 -0.20389973 15 19
nan nan nan 0 18
0.57552129 2.8992503 -0.33434689 12 17
nan nan nan 0 16
0.52495414 2.648165 -0.4646031 9 15
0.54564381 1.5979346 -0.47323045 16 13
0.35508803 1.7886739 -0.40966395 27 14
0.50277495 1.4680234 -0.52465528 3 12
0.30203655 1.5374548 -0.61957216 3 11
nan nan nan 0 9
0.30003119 1.5355054 -0.71849924 3 10
0.51361352 1.4757013 -0.92334539 3 8
0.29201004 1.5289775 -1.0299087 3 7
nan nan nan 0 6
0.27567458 1.4727801 -1.2389427 22 5
0.4486503 1.2603363 -1.245543 18 4
0.21994665 1.2013445 -1.2590469 22 3
nan nan nan 0 2
nan nan nan 0 1
nan nan nan 0 0
1.3369933 6.7270765 1.8207645 4 31
2.2343042 6.4957671 1.5816103 7 30
1.3481935 6.7527795 1.321805 5 29
2.2392905 6.5175824 1.0724933 4 28
1.3478242 6.7204442 0.83248174 5 27
2.2720196 6.6164584 0.66534203 1 26
1.3529376 6.7338047 0.47544652 6 25
2.2639732 6.589292 0.32328898 5 24
1.3517727 6.7158656 0.15823957 34 23
2.2659481 6.5912924 0 5 22
0.90998292 4.5128312 -0.10607332 43 21
0.91581929 2.6664975 -0.1298513 9 20
0.59145546 2.9261577 -0.20424503 14 19
nan nan nan 0 18
0.58514804 2.894789 -0.33406258 12 17
nan nan nan 0 16
0.53516501 2.6511455 -0.46546191 9 15
0.55121827 1.5960201 -0.47323045 16 13
0.36149672 1.7898759 -0.41022208 24 14
0.51100266 1.4751849 -0.52792418 3 12
0.30803439 1.5409917 -0.62144685 3 11
0.51901031 1.4834865 -0.81607598 2 9
0.30582723 1.5366689 -0.71956217 3 10
0.51921749 1.4760072 -0.92463857 3 8
0.29695353 1.5259159 -1.0285074 3 7
nan nan nan 0 6
0.2802034 1.4699829 -1.2373275 22 5
0.45282727 1.2588416 -1.245543 18 4
0.22361916 1.1989223 -1.2572274 22 3
nan nan nan 0 2
nan nan nan 0 1
nan nan nan 0 0
1.361683 6.7344451 1.8239871 5 31
2.2566333 6.490623 1.5821739 7 30
1.3696036 6.7434602 1.3208578 5 29
2.2527807 6.4867907 1.0686299 8 28
1.3720831 6.7256641 0.8336935 6 27
2.2656822 6.5238643 0.65677845 8 26
1.379248 6.7488303 0.47683468 9 25
2.2669508 6.5274949 0.3206104 7 24
1.3775388 6.7284875 0.15864578 56 23
2.2762942 6.5506845 0 5 22
0.92121869 4.4875913 -0.10555109 50 21
0.91644818 2.6398609 -0.12868671 9 20
0.60265636 2.9315104 -0.20476298 14 19
nan nan nan 0 18
0.59474427 2.8928325 -0.33406258 11 17
nan nan nan 0 16
0.54296732 2.6445303 -0.4646031 9 15
0.55809826 1.59872 -0.47460613 15 13
0.36822984 1.7909907 -0.41078019 19 14
0.51275575 1.4645673 -0.52465528 3 12
0.31295311 1.5376353 -0.62050951 3 11
0.52418542 1.4816657 -0.81607598 2 9
0.31047601 1.5334277 -0.71849924 3 10
0.5250867 1.4762005 -0.92593181 3 8
0.302012 1.5249227 -1.0285074 3 7
nan nan nan 0 6
0.28641337 1.4746174 -1.2421734 22 5
0.45597667 1.2538592 -1.242088 13 4
0.22875075 1.2031898 -1.2626858 23 3
nan nan nan 0 2
nan nan nan 0 1
nan nan nan 0 0
1.3846962 6.7272849 1.8233426 4 31
2.2695723 6.4551368 1.5754101 8 30
1.3931344 6.7386379 1.3208578 4 29
2.2721334 6.4695668 1.0670844 26 28
1.3940407 6.7135448 0.83278471 5 27
2.2859647 6.5088725 0.65606487 10 26
1.4007695 6.7342072 0.47614059 8 25
2.2748137 6.4771357 0.31851414 14 24
1.4006624 6.7160525 0.15847169 79 23
2.2850437 6.5026078 0 14 22
0.93687767 4.4843488 -0.10555109 52 21
0.92860597 2.6435502 -0.12903608 7 20
0.61441177 2.9367135 -0.20528091 16 19
nan nan nan 0 18
0.60534304 2.8906333 -0.33406258 12 17
nan nan nan 0 16
0.55366027 2.6473451 -0.46546191 9 15
0.56315064 1.5943984 -0.47391829 17 13
0.37596682 1.7968521 -0.41245461 22 14
0.52128887 1.4715815 -0.52792418 3 12
0.31765306 1.5319376 -0.61863488 3 11
0.53159475 1.4860604 -0.81959355 2 9
0.31564078 1.5300627 -0.71743643 3 10
0.53558654 1.4883503 -0.93498421 4 8
0.3075991 1.5238056 -1.0285074 3 7
nan nan nan 0 6
0.29144913 1.4716849 -1.240558 22 5
0.4605692 1.2521795 -1.242088 13 4
0.23283696 1.2006594 -1.2608663 23 3
nan nan nan 0 2
nan nan nan 0 1
nan nan nan 0 0
1.4078593 6.7150712 1.8214091 3 31
2.2932162 6.446774 1.5754101 35 30
1.4132792 6.7118669 1.3165954 3 29
2.2751365 6.403017 1.0574259 79 28
1.4181253 6.7059617 0.83248174 5 27
2.2856193 6.4324527 0.64916641 80 26
1.4254421 6.7290277 0.47614059 6 25
2.2893324 6.4428725 0.31723312 53 24
1.4225436 6.7037873 0.15829761 82 23
2.3205967 6.5271626 0 5 22
0.94811946 4.4564352 -0.10497081 62 21
nan nan nan 0 20
0.62413585 2.9295626 -0.20493563 16 19
nan nan nan 0 18
0.61542952 2.8885026 -0.33406258 12 17
nan nan nan 0 16
0.56136674 2.6381679 -0.4641737 9 15
0.56627846 1.5856355 -0.47185478 18 13
0.38355926 1.8002303 -0.41357085 22 14
0.52562249 1.4675298 -0.52710694 3 12
0.32299858 1.5308195 -0.61863488 3 11
0.5317567 1.4695765 -0.81138593 3 9
0.3195962 1.5223056 -0.71424776 3 10
0.53563666 1.4724053 -0.92593181 3 8
0.31456879 1.5308377 -1.0341122 3 7
0.54552418 1.4852767 -1.1783774 2 6
0.29658452 1.4706587 -1.240558 22 5
0.46303782 1.2454865 -1.2369053 16 4
0.23637058 1.1964736 -1.2572274 22 3
nan nan nan 0 2
nan nan nan 0 1
nan nan nan 0 0
1.4317937 6.7124782 1.8220536 4 31
2.3058057 6.411231 1.5686463 69 30
1.4387525 6.7164946 1.3184898 4 29
2.306668 6.4206033 1.0616757 79 28
1.4430879 6.7082496 0.83339059 5 27
2.308059 6.4244351 0.64916641 79 26
1.4520692 6.7386403 0.47718173 7 25
2.3126533 6.437192 0.31734958 81 24
1.4469885 6.7036672 0.15841366 102 23
1.3217205 3.6797364 0 5 22
0.96366954 4.4530983 -0.10497081 37 21
0.88782388 2.4725277 -0.12088399 7 20
0.63541055 2.9322417 -0.20528091 16 19
nan nan nan 0 18
0.62603253 2.8887644 -0.33434689 11 17
nan nan nan 0 16
0.57057226 2.6361923 -0.4641737 9 15
0.57099068 1.5813897 -0.47116697 17 13
0.38830218 1.7917334 -0.41189647 23 14
0.53074193 1.465686 -0.52710694 3 12
0.32737491 1.5251491 -0.61676025 3 11
0.53764498 1.4697837 -0.81255841 3 9
0.3277216 1.5344628 -0.72062498 3 10
0.54225618 1.4745404 -0.92851818 3 8
0.31907007 1.5256757 -1.0313098 3 7
0.55279118 1.4889539 -1.1829213 3 6
0.30057597 1.4640049 -1.2357121 22 5
0.4705779 1.2523142 -1.245543 15 4
0.24154732 1.2006863 -1.2626858 21 3
nan nan nan 0 2
nan nan nan 0 1
nan nan nan 0 0
1.4552159 6.7074394 1.8220536 4 31
2.3281708 6.4031429 1.5686463 76 30
1.4647971 6.7234244 1.3208578 4 29
2.3290663 6.4125123 1.0616757 80 28
1.4675543 6.7080202 0.83399642 4 27
2.3336003 6.428441 0.65035582 79 26
1.4713186 6.7140398 0.47579357 7 25
2.3359628 6.431428 0.31746605 83 24
1.4698447 6.6961341 0.15835564 102 23
1.2952436 3.5670288 0 6 22
0.96343946 4.3815217 -0.10334606 23 21
0.88705391 2.4436002 -0.11960294 8 20
0.6456421 2.9300058 -0.20528091 17 19
nan nan nan 0 18
0.63557988 2.8841357 -0.33406258 11 17
nan nan nan 0 16
0.57766205 2.6245613 -0.46245614 9 15
0.57154423 1.5658468 -0.46703994 6 13
0.39528325 1.7951971 -0.41301271 22 14
0.53993213 1.4749119 -0.53119302 3 12
0.33341101 1.5285854 -0.61863488 3 11
0.54174739 1.4659228 -0.81138593 3 9
0.33164597 1.5266734 -0.71743643 3 10
0.54564649 1.4687253 -0.92593181 3 8
0.32610282 1.5326558 -1.0369147 3 7
0.55071157 1.468501 -1.167775 3 6
0.30581546 1.4648688 -1.2373275 22 5
0.47279412 1.2456822 -1.2403604 16 4
0.24484865 1.1965176 -1.2590469 21 3
nan nan nan 0 2
nan nan nan 0 1
nan nan nan 0 0
1.4764125 6.6978593 1.8207645 4 31
2.3519135 6.402245 1.5703372 76 30
1.4881439 6.7233243 1.321805 6 29
2.3503177 6.4047537 1.0616757 80 28
1.4892532 6.7006936 0.8336935 8 27
2.3551676 6.4179201 0.65011793 80 26
1.5087249 6.7772913 0.48065212 10 25
2.358999 6.4283338 0.31769896 83 24
1.4909556 6.6863437 0.15823957 95 23
1.2863669 3.506397 0 4 22
0.98090386 4.3878899 -0.10357817 27 21
0.9029094 2.4617398 -0.12065107 6 20
0.65589756 2.9302828 -0.20545357 17 19
nan nan nan 0 18
0.64622164 2.8868606 -0.3346312 11 17
nan nan nan 0 16
0.58315134 2.6082077 -0.45987982 8 15
0.57005638 1.5459116 -0.46153727 6 13
0.40260544 1.798564 -0.41412896 25 14
0.54564291 1.4753281 -0.53201026 3 12
0.33824661 1.5251487 -0.61769754 3 11
0.54841268 1.4681574 -0.81373096 3 9
0.33912665 1.5366174 -0.72275072 3 10
0.55454612 1.4768208 -0.93239784 3 8
0.33031556 1.5275173 -1.0341122 3 7
0.55937368 1.4758631 -1.1753482 3 6
0.31092694 1.4637924 -1.2373275 22 5
0.48039222 1.252454 -1.248998 15 4
0.24867843 1.1939762 -1.2572274 21 3
nan nan nan 0 2
nan nan nan 0 1
nan nan nan 0 0
1.5008379 6.6973786 1.8220536 6 31
2.3750956 6.3962793 1.5709008 77 30
1.5099896 6.7109032 1.3203841 6 29
2.3752396 6.4034572 1.0628347 80 28
1.5120879 6.6930346 0.83339059 8 27
2.3784218 6.411993 0.65035582 80 26
1.5213816 6.723331 0.47718173 8 25
2.3831625 6.4247422 0.31793186 83 24
1.5187646 6.6954598 0.15858775 67 23
1.2707392 3.4268932 0 3 22
0.99566197 4.3820014 -0.10352014 32 21
nan nan nan 0 20
0.66777599 2.9352727 -0.20597152 17 19
nan nan nan 0 18
0.65569931 2.8796282 -0.33406258 12 17
nan nan nan 0 16
0.58563542 2.574826 -0.45429769 7 15
0.57066113 1.5303065 -0.45741025 8 13
0.40941858 1.7995247 -0.4146871 24 14
0.55187744 1.4755299 -0.5328275 3 12
0.3428216 1.5193756 -0.61582285 3 11
0.55196816 1.462105 -0.81138593 3 9
0.34180388 1.5221121 -0.7163735 3 10
0.55995518 1.4747783 -0.93239784 3 8
0.33635339 1.5283192 -1.0355135 3 7
0.56406462 1.471947 -1.1738335 3 6
0.31788847 1.4701059 -1.2437887 22 5
0.48235261 1.2439507 -1.242088 15 4
0.25340441 1.1947348 -1.2590469 21 3
nan nan nan 0 2
nan nan nan 0 1
nan nan nan 0 0
1.5243032 6.6871228 1.8207645 4 31
2.3993802 6.389811 1.5714645 78 30
1.5269215 6.6718206 1.3137538 4 29
2.3986936 6.3947086 1.0628347 80 28
1.5366091 6.6874475 0.83339059 5 27
2.4027817 6.4055624 0.65059364 79 26
1.5415459 6.6982646 0.47579357 5 25
2.4084499 6.4206409 0.3181648 84 24
1.5415663 6.6876822 0.15852971 40 23
1.2621902 3.3660455 0 3 22
1.0162072 4.3978066 -0.10398436 39 21
0.77464616 2.0671725 -0.10131895 3 20
0.67796969 2.9303753 -0.20579888 18 19
nan nan nan 0 18
0.66574711 2.8773217 -0.33406258 12 17
0.83634043 2.2254455 -0.3254652 9 16
0.58854389 2.546365 -0.44957435 7 15
0.56493962 1.4990824 -0.44846842 10 13
0.41655752 1.800387 -0.41524523 25 14
0.55786324 1.4758034 -0.53364468 3 12
0.34760883 1.5159098 -0.61488557 3 11
0.55969501 1.466257 -0.81490344 3 9
0.3496139 1.5319445 -0.72168791 3 10
0.56125206 1.4628329 -0.92593181 3 8
0.34123769 1.5251145 -1.0341122 3 7
0.56919914 1.469969 -1.1738335 3 6
0.32098737 1.4596655 -1.2357121 22 5
0.48934224 1.2489845 -1.248998 14 4
0.25864533 1.1988736 -1.2645051 20 3
nan nan nan 0 2
nan nan nan 0 1
nan nan nan 0 0
1.544371 6.6676407 1.8168974 4 31
2.4225349 6.3836737 1.5720282 76 30
1.5557524 6.690362 1.3184898 4 29
2.4227531 6.3909144 1.0636073 80 28
1.5582534 6.6747923 0.83248174 4 27
2.4248927 6.3998861 0.65083152 79 26
1.5660517 6.6976995 0.47614059 5 25
2.4299614 6.4098592 0.31804833 80 24
1.5631942 6.6749587 0.15835564 27 23
1.2641712 3.3359098 0 2 22
1.0296464 4.3895454 -0.1038683 50 21
0.77387589 2.0434451 -0.10027082 3 20
0.68876308 2.930419 -0.20597152 18 19
nan nan nan 0 18
0.6769194 2.8798172 -0.3346312 11 17
0.83666813 2.2041461 -0.32271287 10 16
0.59013945 2.5131187 -0.44399226 6 15
0.56158292 1.4746521 -0.44159007 30 13
0.42307952 1.8013686 -0.41580334 25 14
0.56216508 1.4716413 -0.5328275 3 12
0.35419911 1.5215231 -0.61769754 3 11
0.56455415 1.4643928 -0.81490344 3 9
0.3534368 1.5240992 -0.71849924 3 10
0.56920445 1.4689389 -0.9311046 3 8
0.34747028 1.5279534 -1.0369147 3 7
0.57188863 1.4625196 -1.1692896 3 6
0.32665077 1.4623191 -1.2389427 22 5
0.49147677 1.2423176 -1.2438154 15 4
0.26189369 1.1946579 -1.2608663 19 3
nan nan nan 0 2
nan nan nan 0 1
nan nan nan 0 0
1.5675772 6.6671863 1.8181864 4 31
2.4463081 6.3824277 1.5737191 76 30
1.5773668 6.6827769 1.3180163 5 29
2.4448166 6.3851514 1.0639937 80 28
1.5878061 6.7009816 0.83641994 4 27
2.4498897 6.3983541 0.65154517 79 26
1.5848033 6.6779094 0.47509947 2 25
2.4520979 6.404098 0.3181648 81 24
1.5870517 6.6770344 0.15852971 22 23
1.2591146 3.2896826 0 8 22
1.0478522 4.3980823 -0.10415843 74 21
0.77528077 2.0268784 -0.099572077 4 20
0.69905365 2.9305456 -0.20614417 16 19
nan nan nan 0 18
0.68474245 2.8703072 -0.33377826 12 17
0.84080094 2.1919677 -0.32133669 10 16
0.59392065 2.4919777 -0.44055712 6 15
0.56733602 1.4750236 -0.44227788 35 13
0.42992717 1.8022522 -0.41636148 26 14
0.56533486 1.4653629 -0.53119302 3 12
0.35950804 1.5202775 -0.61769754 3 11
0.56644422 1.4541886 -0.81021339 3 9
0.35900372 1.5251223 -0.71956217 3 10
0.57354546 1.4649519 -0.92981142 3 8
0.35207304 1.5247747 -1.0355135 3 7
0.57845783 1.4642119 -1.1723188 3 6
0.33133438 1.4593084 -1.2373275 22 5
0.49985448 1.2506547 -1.2541806 14 4
0.26790601 1.2021086 -1.2699635 20 3
nan nan nan 0 2
nan nan nan 0 1
nan nan nan 0 0
1.5885997 6.6522746 1.8156084 4 31
2.4694524 6.3761201 1.5742829 76 30
1.6006845 6.6772299 1.3180163 7 29
2.4679823 6.3788824 1.06438 80 28
1.6042305 6.6664438 0.83278471 4 27
2.4722092 6.3897634 0.65154517 81 26
1.6110213 6.6844602 0.47596711 2 25
2.4762409 6.400157 0.3183977 80 24
1.6091696 6.6614537 0.15829761 20 23
2.4972003 6.4509349 0 66 22
1.0590929 4.3773904 -0.10375224 80 21
0.77547979 2.0053968 -0.098640405 5 20
0.70927888 2.9280875 -0.20614417 18 19
nan nan nan 0 18
0.69642448 2.8726068 -0.33434689 12 17
0.84934419 2.1913271 -0.32168069 8 16
0.60305023 2.4897845 -0.44055712 6 15
0.57098991 1.4684566 -0.44090223 40 13
0.43621561 1.8007405 -0.41636148 26 14
0.57414865 1.4720806 -0.53446192 3 12
0.36615351 1.5234582 -0.61957216 3 11
0.5690816 1.4460425 -0.80669576 4 9
0.3640683 1.5215945 -0.71849924 3 10
0.5820725 1.4707927 -0.93498421 3 8
0.35859844 1.5275067 -1.038316 3 7
0.58308005 1.4602361 -1.1708043 3 6
0.33710644 1.4599442 -1.2389427 22 5
0.50307465 1.2454658 -1.2507255 14 4
0.27268505 1.2027917 -1.2717829 20 3
nan nan nan 0 2
nan nan nan 0 1
nan nan nan 0 0
1.6141084 6.6511025 1.8168974 5 31
2.4928055 6.3670268 1.5742829 77 30
1.625147 6.6713185 1.3180163 8 29
2.4931462 6.3743939 1.0651528 31 28
1.6345392 6.6846266 0.83581412 7 27
2.4983339 6.3876114 0.65225881 67 26
1.6597971 6.7778373 0.48308143 9 25
2.5005922 6.3933635 0.31851414 81 24
1.6431133 6.6994925 0.1593421 24 23
2.5007682 6.3905272 0 80 22
1.0769156 4.3807621 -0.10392633 65 21
0.77609676 1.9864019 -0.097825192 5 20
0.71941203 2.9230459 -0.20597152 17 19
nan nan nan 0 18
0.70585591 2.8677464 -0.33406258 12 17
0.85918128 2.1928091 -0.3223688 7 16
0.61056596 2.4828796 -0.43969834 6 15
0.57875848 1.4731621 -0.44296575 48 13
0.4439711 1.8038636 -0.41747773 26 14
0.57754499 1.4656737 -0.5328275 4 12
0.36983192 1.5154136 -0.61676025 3 11
nan nan nan 0 9
0.36937743 1.5203146 -0.71849924 3 10
0.5880003 1.4707375 -0.93627739 3 8
0.36249834 1.5202014 -1.0341122 3 7
0.59116173 1.4655652 -1.1768627 3 6
0.34220055 1.4587586 -1.2389427 21 5
0.50879109 1.2470458 -1.2541806 13 4
0.27612045 1.198489 -1.268144 17 3
nan nan nan 0 2
nan nan nan 0 1
nan nan nan 0 0
1.6419313 6.6641927 1.8220536 5 31
2.5320508 6.4013133 1.5849922 15 30
1.647836 6.6632218 1.3175427 5 29
2.5353677 6.4161825 1.0736524 8 28
1.6542809 6.6644282 0.83399642 7 27
2.5315995 6.4066224 0.65511334 11 26
1.6744338 6.7356944 0.48047861 17 25
2.5366716 6.4194298 0.32026106 17 24
1.6592535 6.6646109 0.15864578 39 23
2.5322592 6.4050055 0 18 22
1.0867667 4.3551488 -0.10340408 52 21
0.78486449 1.9883246 -0.098058112 6 20
0.72418839 2.8987355 -0.20441769 17 19
nan nan nan 0 18
0.71766198 2.8724954 -0.33491552 10 17
nan nan nan 0 16
0.61685246 2.4711728 -0.43798074 6 15
0.58211756 1.4666674 -0.44159007 58 13
0.45026505 1.8023028 -0.41747773 25 14
0.5835346 1.4658425 -0.53364468 4 12
0.37290499 1.5051113 -0.61301094 3 11
nan nan nan 0 9
0.37629676 1.5256095 -0.72168791 3 10
0.5915221 1.4647106 -0.93369097 3 8
0.36731893 1.5169137 -1.032711 3 7
0.59250665 1.4542891 -1.1692896 3 6
0.34816775 1.4612693 -1.2421734 22 5
0.5124492 1.243593 -1.2524531 13 4
0.28068882 1.1991882 -1.2699635 18 3
nan nan nan 0 2
nan nan nan 0 1
nan nan nan 0 0
1.6587467 6.6326418 1.8149639 5 31
2.5561893 6.3969584 1.5861195 8 30
1.6704881 6.6550479 1.3170691 13 29
2.5742455 6.4485788 1.0806066 2 28
1.6648209 6.6080747 0.82763469 20 27
2.5805209 6.4675269 0.66224968 4 26
1.6711283 6.6233988 0.47284374 21 25
2.5822294 6.4685111 0.32317251 5 24
1.6782273 6.6418138 0.15823957 17 23
2.5796578 6.4588037 0 6 22
1.1012028 4.3515205 -0.10340408 49 21
0.80200183 2.0110784 -0.09933915 6 20
0.72819287 2.8720098 -0.20269118 10 19
nan nan nan 0 18
0.71551555 2.821811 -0.32922935 2 17
nan nan nan 0 16
0.62366724 2.4618404 -0.4366926 6 15
0.58813125 1.466856 -0.44227788 62 13
0.45504862 1.7960738 -0.41636148 26 14
0.58687842 1.4594152 -0.53201026 3 12
0.37957725 1.5106124 -0.61582285 3 11
nan nan nan 0 9
0.37998214 1.5176988 -0.71849924 3 10
0.59313262 1.4548213 -0.92851818 3 8
0.37506524 1.5256793 -1.0397172 3 7
0.59732598 1.4523162 -1.1692896 3 6
0.35167721 1.45454 -1.2373275 23 5
0.51866239 1.246888 -1.2576356 13 4
0.28309557 1.1915745 -1.2626858 18 3
nan nan nan 0 2
nan nan nan 0 1
nan nan nan 0 0
1.6771744 6.6130543 1.8110967 10 31
2.5928926 6.4268398 1.5957016 7 30
1.6822687 6.6090269 1.3090179 11 29
2.6011598 6.4537501 1.0829246 1 28
1.688565 6.6097307 0.82854348 18 27
2.6105292 6.476943 0.66415268 3 26
1.6974039 6.6347351 0.47405836 18 25
2.6083369 6.4714918 0.32375479 2 24
1.6990044 6.6313701 0.15812354 20 23
2.6010618 6.4502144 0 3 22
1.1126641 4.3331232 -0.10305592 39 21
0.80679625 2.0037768 -0.099106237 6 20
0.73276097 2.850251 -0.20130998 7 19
nan nan nan 0 18
0.71993762 2.800174 -0.32695487 6 17
nan nan nan 0 16
0.62816513 2.4454427 -0.43411621 6 15
0.59208727 1.4626712 -0.44159007 69 13
0.46252242 1.7991962 -0.41747773 26 14
0.58903903 1.4508976 -0.5295586 3 12
0.38371012 1.5047847 -0.61394823 3 11
nan nan nan 0 9
0.38611931 1.5208186 -0.72062498 3 10
0.59902507 1.4547191 -0.92981142 3 8
0.3786304 1.5183979 -1.0355135 3 7
0.59320062 1.4281958 -1.1511141 3 6
0.35675237 1.4533036 -1.2373275 22 5
0.52230847 1.2434053 -1.255908 13 4
0.28804904 1.1939144 -1.2663246 16 3
nan nan nan 0 2
nan nan nan 0 1
nan nan nan 0 0
1.6984448 6.6001415 1.8091632 10 31
2.6180704 6.4245157 1.5973926 7 30
1.7102318 6.6221304 1.3128066 6 29
2.6320605 6.4652181 1.0864017 2 28
1.7190882 6.6326261 0.83217877 14 27
2.6359396 6.4747057 0.66486627 3 26
1.7180504 6.6191125 0.47336426 19 25
2.6318533 6.4646611 0.32387125 2 24
1.7201564 6.6130028 0.1578334 22 23
2.6292243 6.4549856 0 4 22
1.1233816 4.3122807 -0.10264974 40 21
0.82545793 2.0285521 -0.10050374 6 20
0.73705906 2.8259513 -0.19975613 3 19
nan nan nan 0 18
0.72769499 2.7879014 -0.32581764 5 17
nan nan nan 0 16
0.63278991 2.4264376 -0.43111047 6 15
0.59835744 1.4627143 -0.44227788 69 13
0.46757641 1.7928531 -0.41636148 26 14
0.59705269 1.4552826 -0.53201026 3 12
0.39268577 1.5168359 -0.61957216 3 11
nan nan nan 0 9
0.38944593 1.5106248 -0.7163735 3 10
0.59857804 1.4386951 -0.92075896 3 8
0.3831836 1.512984 -1.032711 3 7
0.60538518 1.4425066 -1.1647458 3 6
0.36116046 1.4482818 -1.2340969 23 5
0.52686232 1.2414826 -1.255908 12 4
0.29282704 1.1945169 -1.268144 17 3
nan nan nan 0 2
nan nan nan 0 1
nan nan nan 0 0
1.7305501 6.6242571 1.817542 4 31
2.6443841 6.4216323 1.5990835 7 30
1.7450601 6.6561875 1.3208578 3 29
2.6604412 6.4669471 1.0883335 3 28
1.7522143 6.6598821 0.83641994 5 27
2.6606004 6.4673018 0.66510415 2 26
1.9517002 7.4086967 0.53062612 24 25
2.6460211 6.4318795 0.32270667 2 24
1.9559058 7.4141865 0.1772144 8 23
2.6652446 6.4753551 0 2 22
1.1353538 4.2936344 -0.10230157 40 21
0.82872736 2.0164232 -0.10003791 6 20
0.74613929 2.8184078 -0.19941083 3 19
nan nan nan 0 18
0.73298669 2.768533 -0.32382748 3 17
nan nan nan 0 16
0.64376575 2.4337406 -0.43282804 6 15
0.60069674 1.4539565 -0.44021437 72 13
0.47352394 1.7887708 -0.41580334 25 14
0.6066668 1.4640965 -0.53609633 4 12
0.39622319 1.5087284 -0.61676025 3 11
nan nan nan 0 9
0.39528552 1.5114464 -0.71743643 3 10
0.59860522 1.4247696 -0.91299981 10 8
0.38999775 1.5176557 -1.0369147 3 7
0.57769626 1.3635237 -1.1011316 9 6
0.36807176 1.4544148 -1.240558 22 5
0.52976257 1.2363168 -1.2524531 12 4
0.29658508 1.1918226 -1.2663246 14 3
nan nan nan 0 2
nan nan nan 0 1
nan nan nan 0 0
1.7629302 6.6532025 1.8272097 4 31
2.6639757 6.4056172 1.5973926 7 30
1.7802527 6.6951337 1.3298562 3 29
2.7503352 6.6195459 1.1157639 5 28
1.7786454 6.6657147 0.83793467 5 27
2.7099154 6.5223165 0.67176473 4 26
1.9794782 7.4090681 0.53114665 24 25
2.6962645 6.4894738 0.32608399 4 24
1.9798388 7.4000702 0.17704032 24 23
2.6897523 6.4706287 0 3 22
1.1496884 4.2872305 -0.10224354 31 21
nan nan nan 0 20
0.75017089 2.7941027 -0.19785698 3 19
nan nan nan 0 18
0.73751014 2.7467625 -0.32155299 2 17
nan nan nan 0 16
0.66370112 2.4743073 -0.44055712 6 15
0.60855442 1.4585015 -0.44227788 69 13
0.47787905 1.7800436 -0.41412896 24 14
nan nan nan 0 12
0.40267286 1.5118171 -0.61863488 3 11
0.6148358 1.4559945 -0.82076609 3 9
0.40055901 1.5100574 -0.71743643 3 10
0.60189748 1.418735 -0.91041338 7 8
0.39425555 1.5122765 -1.0341122 3 7
0.59344852 1.3870809 -1.1223363 9 6
0.37173343 1.4475739 -1.2357121 22 5
0.53623748 1.2394313 -1.2576356 12 4
0.29991221 1.1874535 -1.2626858 13 3
nan nan nan 0 2
nan nan nan 0 1
nan nan nan 0 0
1.7817614 6.6306777 1.822698 4 31
2.6929262 6.4119959 1.6013381 7 30
1.7825508 6.6106582 1.3142275 3 29
2.7705557 6.6030731 1.1146048 5 28
1.7960768 6.6379046 0.83520824 3 27
2.7440507 6.5431252 0.67485714 5 26
1.9232559 7.0987802 0.50928301 1 25
2.75371 6.5629125 0.33027646 5 24
2.0056579 7.3931146 0.17704032 10 23
2.7113543 6.4588957 0 5 22
1.1573588 4.2592721 -0.10166328 33 21
0.90955806 2.1694367 -0.10807354 9 20
0.76187873 2.7986884 -0.19837493 3 19
nan nan nan 0 18
0.74384165 2.7321858 -0.32013145 3 17
nan nan nan 0 16
0.68199503 2.5076325 -0.446998 7 15
0.61083257 1.4497274 -0.44021437 64 13
0.48377922 1.7784492 -0.41412896 25 14
nan nan nan 0 12
0.40528306 1.5015192 -0.61488557 3 11
0.62313575 1.4620672 -0.82545614 3 9
0.40699595 1.5130221 -0.71956217 3 10
nan nan nan 0 8
0.40110913 1.5168988 -1.038316 3 7
0.5925045 1.3723326 -1.1117339 7 6
0.37748596 1.4500284 -1.2389427 21 5
0.5403446 1.2376462 -1.2576356 12 4
0.30426946 1.1881143 -1.2645051 14 3
nan nan nan 0 2
nan nan nan 0 1
nan nan nan 0 0
1.8069085 6.6363873 1.8259207 3 31
2.7122717 6.3985467 1.6002108 7 30
1.8148001 6.642602 1.321805 2 29
2.7249641 6.4346609 1.0875608 3 28
1.8206998 6.6414862 0.83641994 2 27
2.7387094 6.4670587 0.66795874 2 26
1.9309613 7.0346379 0.50511855 25 25
2.7432978 6.4778681 0.32643333 3 24
1.9315835 7.0273075 0.1683943 19 23
2.7288539 6.4406629 0 4 22
1.1708944 4.2503867 -0.10154723 34 21
0.91967326 2.1733057 -0.10842291 6 20
0.76388383 2.7696931 -0.19647577 3 19
nan nan nan 0 18
0.74697286 2.7081497 -0.31757268 3 17
nan nan nan 0 16
0.70790952 2.5694816 -0.45859158 9 15
0.61752427 1.4521149 -0.44159007 67 13
0.48869488 1.7720495 -0.41301271 25 14
nan nan nan 0 12
0.41295403 1.5090412 -0.61863488 3 11
0.62998712 1.4639369 -0.82780123 3 9
0.40964553 1.5029275 -0.71531069 3 10
nan nan nan 0 8
0.40613717 1.5155602 -1.038316 3 7
nan nan nan 0 6
0.38206166 1.4468561 -1.2373275 21 5
0.54612577 1.2390568 -1.2610906 11 4
0.30884185 1.1887056 -1.2663246 14 3
nan nan nan 0 2
nan nan nan 0 1
nan nan nan 0 0
1.8286508 6.6204062 1.8233426 3 31
2.7385838 6.3952789 1.6019019 7 30
1.8384795 6.6335402 1.3213314 2 29
2.752419 6.4337125 1.0891061 3 28
1.8377258 6.6084666 0.83308762 3 27
2.7584755 6.4478259 0.66700721 3 26
1.9627451 7.0491381 0.50668025 15 25
2.7611241 6.4539962 0.32573459 2 24
1.9606792 7.0322199 0.16868444 14 23
2.7573638 6.4421072 0 3 22
1.1857938 4.243659 -0.10148919 35 21
0.93845439 2.195169 -0.10970397 5 20
0.77603966 2.7740819 -0.19699372 3 19
nan nan nan 0 18
0.7555595 2.7006085 -0.31700405 3 17
nan nan nan 0 16
0.71203721 2.547889 -0.45515645 9 15
0.62474608 1.4542559 -0.44296575 70 13
0.49453321 1.7678986 -0.41245461 25 14
nan nan nan 0 12
0.41663346 1.5008149 -0.61582285 3 11
0.63358194 1.4575708 -0.82545614 3 9
0.41814819 1.5123259 -0.72062498 3 10
0.6313293 1.4456639 -0.93239784 3 8
0.41222897 1.5160604 -1.0397172 3 7
nan nan nan 0 6
0.38736206 1.445446 -1.2373275 22 5
0.54697257 1.2287996 -1.2524531 11 4
0.31189746 1.1825887 -1.2608663 12 3
nan nan nan 0 2
nan nan nan 0 1
nan nan nan 0 0
1.8530501 6.6186352 1.8246317 3 31
2.7599237 6.3834453 1.6013381 7 30
1.8609606 6.6247177 1.3208578 5 29
2.77388 6.4217982 1.0887198 4 28
1.8701953 6.6354542 0.83732879 4 27
2.7839284 6.4450107 0.66772085 3 26
nan nan nan 0 25
2.7816539 6.4397335 0.32550168 3 24
nan nan nan 0 23
2.7758641 6.4232645 0 3 22
1.2005997 4.2394943 -0.10148919 37 21
nan nan nan 0 20
0.77961409 2.7497559 -0.19543988 3 19
nan nan nan 0 18
0.76160449 2.6860037 -0.31558251 3 17
nan nan nan 0 16
0.73029166 2.5785718 -0.46116796 9 15
0.62789947 1.4476589 -0.44159007 62 13
0.49871689 1.7591255 -0.41078019 23 14
0.63307202 1.455451 -0.53691357 3 12
0.42249382 1.5015835 -0.61676025 3 11
0.63777566 1.4533298 -0.8242836 3 9
0.42160365 1.5043175 -0.71743643 3 10
0.64330083 1.4591024 -0.94274342 3 8
0.41697177 1.5126151 -1.038316 3 7
0.64681435 1.4549381 -1.1859505 3 6
0.39290202 1.4459273 -1.2389427 22 5
0.55423427 1.2334702 -1.2593631 11 4
0.31690121 1.1848075 -1.2645051 10 3
nan nan nan 0 2
nan nan nan 0 1
nan nan nan 0 0
1.8781177 6.6190987 1.8265653 5 31
2.7860894 6.3826995 1.6035928 7 30
1.8988416 6.6701279 1.3312769 7 29
2.8308611 6.4913068 1.1022419 5 28
1.9124053 6.6957045 0.84581119 7 27
2.8092661 6.4448671 0.66867232 4 26
2.0851955 7.2918582 0.52524692 3 25
2.8071127 6.436851 0.32585105 4 24
2.1038756 7.347569 0.17663413 2 23
2.8182783 6.4593582 0 3 22
1.2146517 4.2354894 -0.10148919 38 21
nan nan nan 0 20
0.78165507 2.7206435 -0.19354072 4 19
0.67840064 1.5568336 -0.1493244 4 18
0.76755691 2.6713901 -0.314161 4 17
nan nan nan 0 16
0.73996538 2.5783749 -0.46159738 9 15
0.63585061 1.4520593 -0.44365355 69 13
0.50387841 1.7551188 -0.41022208 23 14
0.63147718 1.4380989 -0.53119302 4 12
0.42620802 1.4957142 -0.61488557 3 11
0.64348865 1.4532244 -0.82545614 4 9
0.42562291 1.4984812 -0.71531069 3 10
0.64290011 1.4452401 -0.93498421 3 8
0.42169562 1.5091553 -1.0369147 3 7
0.65980452 1.4709195 -1.2010968 3 6
0.39870042 1.4482979 -1.2421734 21 5
0.55832154 1.2316257 -1.2593631 10 4
0.31949547 1.1787823 -1.2590469 10 3
nan nan nan 0 2
nan nan nan 0 1
nan nan nan 0 0
1.8987244 6.6081905 1.8252761 5 31
2.8092051 6.377883 1.60472 7 30
1.9060104 6.6118979 1.3208578 5 29
2.8802474 6.5451765 1.1130595 6 28
1.9160063 6.6249547 0.83763176 6 27
2.877888 6.5397892 0.67961466 6 26
2.1128292 7.2968822 0.52611452 3 25
2.8737385 6.5303526 0.3310917 7 24
2.133791 7.3597574 0.17709835 3 23
2.8316183 6.431675 0 1 22
1.2294289 4.2312236 -0.10148919 39 21
nan nan nan 0 20
0.78511637 2.6988735 -0.19215953 3 19
0.66774106 1.5180101 -0.14574777 4 18
0.77156931 2.6521313 -0.3121708 3 17
nan nan nan 0 16
0.74851143 2.575907 -0.46159738 9 15
0.64261132 1.4543368 -0.44502923 60 13
0.50932437 1.7510083 -0.40966395 22 14
0.64392436 1.4532669 -0.53773081 4 12
0.43270487 1.498673 -0.61676025 3 11
0.64946145 1.4529836 -0.82662868 4 9
0.43307701 1.5057644 -0.71956217 3 10
0.65145874 1.4507889 -0.940157 4 8
0.42781836 1.511735 -1.0397172 3 7
0.65834916 1.4541227 -1.1889797 3 6
0.4022257 1.4413806 -1.2373275 22 5
0.55884165 1.2214603 -1.2507255 10 4
0.32405832 1.1793144 -1.2608663 10 3
nan nan nan 0 2
nan nan nan 0 1
nan nan nan 0 0
1.9231286 6.6061611 1.8265653 5 31
2.8344216 6.3747139 1.6064111 6 30
1.9359517 6.6287699 1.3255937 3 29
2.8549113 6.4267488 1.094515 3 28
1.9363325 6.6086993 0.83641994 3 27
2.8744116 6.4705791 0.67342985 4 26
3.4993706 11.934975 0.86291808 1 25
2.8853559 6.4951797 0.32981065 5 24
3.5025554 11.922724 0.28769776 1 23
nan nan nan 0 22
1.2470088 4.2364979 -0.10172129 10 21
nan nan nan 0 20
nan nan nan 0 19
0.66290015 1.4929265 -0.14351238 6 18
nan nan nan 0 17
nan nan nan 0 16
0.75656021 2.5684199 -0.46073857 9 15
0.64302456 1.4410043 -0.44159007 60 13
0.51543349 1.7492198 -0.40966395 21 14
0.64827842 1.4487416 -0.53691357 4 12
0.4375475 1.4948516 -0.61582285 3 11
0.65088499 1.4426628 -0.82193857 5 9
0.43796325 1.5019934 -0.71849924 3 10
0.6585449 1.4522859 -0.94274342 4 8
0.43108606 1.5021925 -1.0341122 3 7
0.66118479 1.4462774 -1.1844358 4 6
0.40853789 1.4435706 -1.240558 22 5
0.56559825 1.2243209 -1.255908 10 4
0.3279224 1.176466 -1.2590469 10 3
nan nan nan 0 2
nan nan nan 0 1
nan nan nan 0 0
1.9473284 6.5990682 1.8265653 4 31
2.8617611 6.3731689 1.6086656 7 30
1.9546667 6.602798 1.321805 3 29
2.8733888 6.4049754 1.0925832 3 28
1.9654809 6.6182117 0.83854061 3 27
2.8848565 6.4304867 0.6703375 3 26
3.5374107 11.902941 0.86152989 2 25
2.8805015 6.4207721 0.3265498 3 24
3.5498509 11.929592 0.28816199 1 23
nan nan nan 0 22
nan nan nan 0 21
0.97969353 2.1852901 -0.11005334 3 20
nan nan nan 0 19
0.65406108 1.4586978 -0.14038281 6 18
nan nan nan 0 17
nan nan nan 0 16
0.75920337 2.5445173 -0.45687401 8 15
0.64805073 1.438751 -0.44159007 60 13
0.52045292 1.7426469 -0.4085477 20 14
0.65138024 1.4421663 -0.5352791 4 12
0.44472826 1.4999843 -0.61863488 3 11
0.65524977 1.4382596 -0.82076609 6 9
0.44320351 1.5004555 -0.71849924 3 10
0.65735674 1.4363695 -0.93369097 7 8
0.43632704 1.5006787 -1.0341122 3 7
0.66037607 1.4313281 -1.1738335 9 6
0.41357446 1.4421359 -1.240558 21 5
0.56680101 1.2157937 -1.248998 10 4
0.3334128 1.1802675 -1.2645051 10 3
nan nan nan 0 2
nan nan nan 0 1
nan nan nan 0 0
1.9717332 6.5968595 1.8278542 3 31
2.8819776 6.3587041 1.6075382 7 30
1.9798152 6.6029887 1.3232257 3 29
2.8855331 6.3724098 1.0887198 2 28
1.9885709 6.6113105 0.83854061 4 27
2.9052308 6.4158435 0.66986173 3 26
3.5760648 11.880968 0.86083585 1 25
2.9090817 6.4243259 0.32724854 3 24
3.5792193 11.876443 0.28717554 2 23
nan nan nan 0 22
nan nan nan 0 21
0.9708094 2.1454692 -0.10819001 4 20
nan nan nan 0 19
0.65194023 1.4405365 -0.13881804 9 18
nan nan nan 0 17
0.64069813 1.414492 -0.2108987 59 16
0.77163178 2.5536423 -0.459021 6 15
0.64907742 1.4277337 -0.43883869 48 13
0.52653271 1.7408197 -0.4085477 20 14
0.65149468 1.4291419 -0.53119302 60 12
0.44929856 1.496202 -0.61769754 3 11
0.65841544 1.4319543 -0.81842107 6 9
0.44456866 1.4858855 -0.71212202 3 10
0.66236663 1.4340663 -0.93369097 7 8
0.43981844 1.4931853 -1.0299087 3 7
0.66621077 1.4308158 -1.1753482 53 6
0.41807708 1.43885 -1.2389427 21 5
0.57335919 1.2187088 -1.2541806 10 4
0.3375307 1.1790965 -1.2645051 9 3
nan nan nan 0 2
nan nan nan 0 1
nan nan nan 0 0
1.9954475 6.5922489 1.8284987 3 31
2.9051702 6.3508205 1.608102 6 30
2.0170991 6.6430197 1.3326976 6 29
2.9344721 6.4206977 1.0987648 4 28
2.0159698 6.6185737 0.8403582 6 27
2.9306297 6.4152269 0.6708132 4 26
2.1852517 7.1660829 0.51882666 2 25
2.9346056 6.4209456 0.32759792 4 24
3.6315899 11.899737 0.28804594 2 23
1.0237011 2.242281 0 6 22
nan nan nan 0 21
0.97309476 2.1307142 -0.10760771 5 20
nan nan nan 0 19
0.65567625 1.4361031 -0.13859451 9 18
nan nan nan 0 17
0.64641762 1.4146104 -0.21124274 61 16
nan nan nan 0 15
0.65003526 1.4167269 -0.43608737 72 13
0.53159249 1.7367328 -0.40798959 20 14
0.65449798 1.4225692 -0.5295586 78 12
0.45559818 1.4991409 -0.61957216 4 11
0.66129619 1.4257599 -0.81607598 94 9
0.45432028 1.4994915 -0.71956217 3 10
0.66711849 1.4318619 -0.93369097 86 8
0.44502798 1.4916408 -1.0299087 3 7
0.66586137 1.4178052 -1.1662604 46 6
0.4228462 1.4374558 -1.2389427 21 5
0.57584143 1.2135386 -1.2507255 10 4
0.34001938 1.1730268 -1.2590469 9 3
nan nan nan 0 2
