# .PCD v0.7 - Point Cloud Data file format
VERSION 0.7
FIELDS x y z intensity ring
SIZE 4 4 4 4 2
TYPE F F F F U
COUNT 1 1 1 1 1
WIDTH 1202
HEIGHT 1
VIEWPOINT 0 0 0 1 0 0 0
POINTS 1202
DATA ascii
0.26265323 -0.58350033 -0.3212713 96 9
0.38215142 -0.61082417 -0.32204923 65 10
0.25841668 -0.57656819 -0.36080304 97 8
0.35558033 -0.56354171 -0.42737705 4 7
0.25579563 -0.5752818 -0.45287254 81 6
0.30611342 -0.4820542 -0.4539021 5 5
0.211574 -0.48005584 -0.4681583 11 4
0.22910485 -0.35887569 -0.41483048 5 3
0.16035092 -0.36638123 -0.43122634 5 2
0.21987164 -0.34131956 -0.4872275 5 1
0.08323843 -0.18817635 -0.24046269 4 0
0.37455601 -0.60461444 0.18046516 67 31
0.26495883 -0.58409798 0.1403496 93 30
0.37077305 -0.59967136 0.12929156 58 29
0.26460087 -0.58280104 0.094654493 93 28
0.37021002 -0.59988499 0.081794061 33 27
0.26452833 -0.58239734 0.057804115 88 26
0.37045583 -0.60073513 0.046677049 40 25
0.2673305 -0.58891368 0.028532349 84 24
0.36573747 -0.59359252 0.01537715 9 23
0.26442474 -0.5827263 0 83 22
0.3722246 -0.60427368 -0.015667286 8 21
0.26303011 -0.57989556 -0.028066512 84 20
0.36084002 -0.586173 -0.045234315 5 19
0.26415223 -0.58292252 -0.054320101 86 18
nan nan nan 0 17
0.26866531 -0.59351426 -0.08566685 84 16
nan nan nan 0 15
0.26038757 -0.57738763 -0.17127091 96 13
0.38932738 -0.6311816 -0.16185632 26 14
0.25567028 -0.56835264 -0.2034878 96 12
0.36867553 -0.59510368 -0.26901242 67 11
0.25536433 -0.57224953 -0.31423613 96 9
0.38001695 -0.61215436 -0.32204923 62 10
0.25392029 -0.57154608 -0.35692343 96 8
0.35471705 -0.56652963 -0.42877826 6 7
0.2546812 -0.57795018 -0.45438719 87 6
0.30656472 -0.48628446 -0.45713273 5 5
0.2128401 -0.48739374 -0.47506839 13 4
0.22884181 -0.36107495 -0.41664991 5 3
0.15660632 -0.36096513 -0.42359403 5 2
0.21873856 -0.34204683 -0.4872275 4 1
0.08205159 -0.1871168 -0.23842487 4 0
0.37382144 -0.60790628 0.18110968 64 31
0.26302043 -0.58497334 0.1403496 92 30
0.36749107 -0.59881002 0.12881798 56 29
0.26065513 -0.57916343 0.093881793 93 28
0.36170051 -0.59055144 0.08027935 32 27
0.26148036 -0.5810442 0.057566237 88 26
0.37108049 -0.60620552 0.047024094 47 25
0.26537612 -0.5897969 0.028532349 85 24
0.36901286 -0.60331249 0.015609259 27 23
0.26147324 -0.58131647 0 85 22
0.37404519 -0.6119535 -0.015841367 9 21
0.26313794 -0.58532703 -0.028299429 84 20
0.36543396 -0.59798414 -0.046097565 7 19
0.26312786 -0.58611619 -0.054543644 86 18
nan nan nan 0 17
0.26357517 -0.58765996 -0.084634714 88 16
nan nan nan 0 15
0.25749847 -0.57605016 -0.17058308 96 13
0.38072643 -0.62216556 -0.15906571 16 14
0.25473833 -0.57135874 -0.20430502 96 12
0.36903787 -0.60032684 -0.27088708 66 11
0.2515952 -0.56909174 -0.31189111 97 9
0.37917897 -0.61533332 -0.3231121 60 10
0.25534034 -0.58027548 -0.36209622 95 8
0.35943764 -0.57822609 -0.43718567 8 7
0.25108558 -0.57518351 -0.45135793 95 6
0.3007848 -0.48090172 -0.45067149 5 5
0.21113747 -0.48813373 -0.47506839 12 4
0.22388706 -0.35609257 -0.40937218 5 3
0.15785334 -0.36746421 -0.43122634 5 2
0.21918729 -0.34535339 -0.49120486 5 1
0.082513347 -0.19007508 -0.2425005 4 0
0.36537063 -0.59891975 0.17788708 67 31
0.25999361 -0.58365959 0.13978595 92 30
0.36539859 -0.60008913 0.12881798 53 29
0.25962985 -0.58232921 0.094268151 91 28
0.3570444 -0.58757818 0.079673469 33 27
0.25542864 -0.57284749 0.056614731 84 26
0.36635819 -0.60324287 0.046677049 46 25
0.26028877 -0.58386642 0.02818297 88 24
0.36810282 -0.60679334 0.015667286 34 23
0.25641349 -0.57536447 0 83 22
0.36669365 -0.60472488 -0.015609259 10 21
0.2589753 -0.58171767 -0.028066512 82 20
0.35684174 -0.5886156 -0.045234315 8 19
0.26007628 -0.5847525 -0.054320101 88 18
0.35792321 -0.59062815 -0.075057462 5 17
0.25952688 -0.5840438 -0.08394663 88 16
0.33724564 -0.55637884 -0.10734823 5 15
0.25442046 -0.57478881 -0.16989525 95 13
0.37600863 -0.61933339 -0.15794946 7 14
0.25264248 -0.57228857 -0.20430502 96 12
0.36562136 -0.59970099 -0.26994976 62 11
0.25048512 -0.5719924 -0.31306362 96 9
0.37810817 -0.61864543 -0.32417497 57 10
0.25067088 -0.57531315 -0.35821664 97 8
0.35512838 -0.57602382 -0.43438321 9 7
0.24975736 -0.5779289 -0.45287254 99 6
0.3020629 -0.48684955 -0.45551741 6 5
0.20723824 -0.48390988 -0.46988583 13 4
0.22533424 -0.36125514 -0.41483048 6 3
0.15656969 -0.36801296 -0.43122634 5 2
0.21792004 -0.34615442 -0.49120486 5 1
0.081816122 -0.19037622 -0.2425005 4 0
0.36317298 -0.60025483 0.17788708 65 31
0.25785264 -0.58460861 0.13978595 91 30
0.36319667 -0.6014244 0.12881798 52 29
0.25551447 -0.57875079 0.093495451 93 28
0.36004236 -0.59736627 0.080885231 38 27
0.25532159 -0.57834017 0.057090484 89 26
0.36155635 -0.60031772 0.046330005 39 25
0.25914767 -0.58710462 0.028299429 86 24
0.35950145 -0.59738994 0.01537715 38 23
0.25330171 -0.57400966 0 84 22
0.36577022 -0.60820222 -0.015667286 23 21
0.25494358 -0.57804132 -0.027833596 85 20
0.35597467 -0.5920524 -0.045406967 9 19
0.25494432 -0.57885498 -0.053649485 88 18
0.36615863 -0.60886663 -0.077331938 6 17
0.26035261 -0.59180099 -0.084978759 86 16
0.33146966 -0.55123544 -0.10606005 5 15
0.24954079 -0.56905937 -0.16783175 96 13
nan nan nan 0 14
0.25064328 -0.57316691 -0.20430502 95 12
0.36593941 -0.60493088 -0.27182442 60 11
0.24577543 -0.56681925 -0.30954605 96 9
0.37240547 -0.61416972 -0.32098636 50 10
0.24782103 -0.57421696 -0.35692343 97 8
0.35746604 -0.58430672 -0.43998814 9 7
0.24386233 -0.56963891 -0.44529942 100 6
0.30036163 -0.487901 -0.45551741 6 5
0.20624492 -0.48629761 -0.47161335 13 4
0.22407185 -0.36203951 -0.41483048 5 3
0.15768512 -0.37455678 -0.43885866 5 2
0.21914902 -0.3507483 -0.49717093 5 1
0.084439844 -0.19870345 -0.25472742 4 0
0.3598249 -0.59945226 0.17724258 67 31
0.2567777 -0.58774042 0.1403496 91 30
0.36236417 -0.60478973 0.12929156 49 29
0.25545615 -0.58417219 0.094268151 91 28
0.35154963 -0.58799279 0.079370528 48 27
0.25132293 -0.5746606 0.056614731 85 26
0.36331889 -0.60798538 0.046850573 44 25
0.25610411 -0.58571404 0.02818297 86 24
0.35999146 -0.60292399 0.015493204 39 23
0.25328302 -0.57947874 0 83 22
0.35720497 -0.59876591 -0.01537715 34 21
0.25292429 -0.57892776 -0.027833596 83 20
0.35776162 -0.59970337 -0.045924917 10 19
0.25292218 -0.57974142 -0.053649485 89 18
0.35507116 -0.59524107 -0.075341769 8 17
0.25337803 -0.581339 -0.083258539 89 16
0.34224278 -0.57349098 -0.11035398 6 15
0.24850242 -0.57213497 -0.16851957 97 13
nan nan nan 0 14
0.24770993 -0.57186693 -0.2034878 95 12
0.36142576 -0.60223889 -0.26994976 56 11
0.2446588 -0.5697059 -0.31071857 96 9
0.36791229 -0.61159641 -0.31886062 36 10
0.24414867 -0.57113731 -0.35433704 96 8
0.35434273 -0.58378541 -0.43858692 10 7
0.24341013 -0.57415545 -0.44832867 104 6
0.30266845 -0.49543941 -0.46197864 6 5
0.20454615 -0.48701456 -0.47161335 15 4
0.2209911 -0.35991049 -0.41119161 6 3
0.1551545 -0.37211448 -0.4350425 5 2
0.21711496 -0.35022986 -0.49518222 5 1
0.087006383 -0.20705122 -0.26695433 4 0
0.35773024 -0.60070467 0.17724258 67 31
0.25280556 -0.5841558 0.13922229 92 30
0.36151254 -0.60815662 0.12976517 46 29
0.25049403 -0.57825065 0.093109109 95 28
0.35076863 -0.59134609 0.079673469 61 27
0.24843433 -0.57320392 0.056376856 84 26
0.35735658 -0.60282719 0.046330005 49 25
0.25307345 -0.58430946 0.028066512 88 24
0.35788465 -0.60417694 0.015493204 48 23
0.24633245 -0.56887108 0 82 22
0.35521743 -0.59994715 -0.01537715 37 21
0.2499181 -0.57751167 -0.027717136 84 20
0.35311055 -0.59666497 -0.045579616 21 19
0.25099829 -0.5805769 -0.053649485 89 18
0.35299122 -0.59647679 -0.075341769 10 17
0.25047496 -0.57989937 -0.082914494 89 16
0.34150138 -0.57679677 -0.11078337 7 15
0.2446201 -0.56857628 -0.1671439 96 13
nan nan nan 0 14
0.24478868 -0.57055348 -0.20267057 95 12
0.35823339 -0.60144734 -0.26901242 54 11
0.24191155 -0.56847906 -0.30954605 96 9
0.36927551 -0.61869335 -0.32204923 24 10
0.24225336 -0.57194382 -0.35433704 96 8
0.35337812 -0.58678806 -0.43998814 11 7
0.24379304 -0.58047009 -0.45287254 104 6
0.30002627 -0.49481377 -0.46036333 7 5
0.20361577 -0.48936215 -0.47334087 14 4
0.22250532 -0.36501381 -0.41664991 5 3
0.15573812 -0.37711868 -0.44076675 5 2
0.21675649 -0.35223183 -0.49717093 5 1
0.085780315 -0.20599444 -0.26491651 4 0
0.35326332 -0.59773761 0.17595354 69 31
0.25086704 -0.58499092 0.13922229 91 30
0.35447499 -0.60091275 0.12787078 40 29
0.24760883 -0.576805 0.092722759 92 28
0.34500602 -0.58610398 0.078764647 82 27
0.24837914 -0.57864827 0.056852609 90 26
0.35535556 -0.60400891 0.046330005 50 25
0.25211141 -0.58744365 0.02818297 86 24
0.35460502 -0.60321021 0.015435177 54 23
0.24444465 -0.5696848 0 82 22
0.35184765 -0.59903276 -0.015319123 40 21
0.24507315 -0.57144153 -0.027367761 85 20
0.3498593 -0.59568661 -0.045406967 34 19
0.24799806 -0.57915717 -0.053425945 88 18
0.35607317 -0.60619307 -0.07647901 10 17
0.24844921 -0.58077025 -0.082914494 90 16
0.3458645 -0.58851993 -0.11293033 8 15
0.2427333 -0.56938434 -0.1671439 96 13
0.33750045 -0.57421309 -0.14455445 5 14
0.24014631 -0.56482887 -0.20021892 95 12
0.36087722 -0.61065793 -0.27276173 50 11
0.24162488 -0.57339603 -0.31189111 98 9
0.36258042 -0.61214393 -0.31779775 13 10
0.24107522 -0.57476211 -0.35563022 97 8
0.35143033 -0.58795667 -0.43998814 16 7
0.24100901 -0.57947803 -0.45135793 105 6
0.29730538 -0.49422804 -0.45874804 7 5
0.20190632 -0.49006993 -0.47334087 14 4
0.21853617 -0.36140639 -0.41119161 6 3
0.15261801 -0.37316194 -0.4350425 5 2
0.21392632 -0.35041288 -0.49319354 5 1
0.087732211 -0.21302283 -0.27510563 4 0
0.35117468 -0.59896708 0.17595354 68 31
0.24787928 -0.58361793 0.13865864 93 30
0.34988052 -0.59791803 0.12692358 36 29
0.24559389 -0.57766581 0.092722759 90 28
0.34673539 -0.59371996 0.079673469 89 27
0.24346098 -0.5726307 0.056138977 86 26
0.35324505 -0.60524571 0.046330005 55 25
0.24812141 -0.58371681 0.027950054 87 24
0.35239175 -0.6045059 0.015435177 60 23
0.24439377 -0.57514328 0 85 22
0.35228622 -0.60456741 -0.015435177 46 21
0.24588026 -0.57924235 -0.027717136 83 20
0.34272504 -0.58830225 -0.044716366 36 19
0.24790312 -0.58461088 -0.053873021 88 18
0.35259128 -0.60535216 -0.076194696 19 17
0.24450447 -0.57706708 -0.082226403 90 16
0.34495288 -0.59190702 -0.11335972 10 15
0.24157116 -0.57248807 -0.16783175 96 13
0.34167081 -0.58589053 -0.14734507 5 14
0.2398912 -0.57006747 -0.20185336 95 12
0.35509944 -0.60599059 -0.26994976 44 11
0.23709449 -0.56811309 -0.30837354 96 9
nan nan nan 0 10
0.2373419 -0.57168341 -0.35304382 97 8
0.34821007 -0.58746403 -0.43858692 21 7
0.23738435 -0.57667291 -0.44832867 106 6
0.29844952 -0.50021535 -0.46359396 8 5
0.19943504 -0.48912981 -0.47161335 14 4
0.22078019 -0.36806059 -0.41846934 5 3
0.15071881 -0.37219092 -0.43313444 5 2
0.20946075 -0.34603599 -0.48523882 5 1
0.088538922 -0.2173869 -0.28121909 4 0
0.34653383 -0.59608257 0.1746645 68 31
0.24480253 -0.5822739 0.13809499 93 30
0.34396788 -0.59284014 0.12550279 35 29
0.241575 -0.57400221 0.091950074 88 28
0.34455696 -0.5949868 0.079673469 88 27
0.24231774 -0.57581639 0.056376856 88 26
0.34976754 -0.6043821 0.046156485 59 25
0.24405931 -0.58001202 0.027717136 89 24
0.34272718 -0.59277695 0.015087015 63 23
0.23843956 -0.56680375 0 84 22
0.34881005 -0.60369486 -0.01537715 57 21
0.24193743 -0.57548606 -0.02748422 83 20
0.346843 -0.60032994 -0.045579616 39 19
0.24480307 -0.58321625 -0.053649485 89 18
0.34547552 -0.59799439 -0.075057462 33 17
0.24143817 -0.57567251 -0.081882365 88 16
0.34908643 -0.60374618 -0.11550669 13 15
0.23681544 -0.56666464 -0.16576822 96 13
0.33706582 -0.58292866 -0.14622882 6 14
0.23789981 -0.57090133 -0.20185336 95 12
0.34829357 -0.59922886 -0.26620045 37 11
0.23668063 -0.57306629 -0.31071857 96 9
nan nan nan 0 10
0.23373362 -0.56854427 -0.35045743 97 8
0.34615728 -0.58867598 -0.43858692 24 7
0.23536994 -0.57749802 -0.44832867 106 6
0.29768184 -0.50289118 -0.46520928 9 5
0.1957228 -0.4847855 -0.46643078 15 4
0.21860668 -0.36736202 -0.41664991 6 3
0.14876348 -0.37123719 -0.43122634 5 2
0.21220382 -0.35322714 -0.49518222 5 1
0.088828854 -0.2203943 -0.28529471 4 0
0.34323668 -0.59520054 0.17401998 69 31
0.24369667 -0.5853768 0.13865864 91 30
0.33819988 -0.587668 0.12408201 35 29
0.24051191 -0.57712519 0.092336416 89 28
0.34123421 -0.59403855 0.079370528 77 27
0.24040693 -0.57661676 0.056376856 91 26
0.34890497 -0.60775793 0.046330005 65 25
0.24298565 -0.58316892 0.027833596 89 24
0.34315822 -0.59829682 0.015203069 65 23
0.23741268 -0.56994379 0 84 22
0.34805697 -0.60701203 -0.015435177 59 21
0.23992713 -0.57632715 -0.02748422 81 20
0.34100205 -0.59505862 -0.045061667 44 19
0.24002352 -0.57711756 -0.052978866 88 18
0.34338602 -0.59919661 -0.075057462 36 17
0.23952784 -0.57646996 -0.081882365 89 16
0.34204513 -0.59643281 -0.11378911 23 15
0.23483595 -0.56748784 -0.16576822 96 13
0.34245485 -0.59669805 -0.14957757 8 14
0.23322628 -0.56516623 -0.19940171 94 12
0.35329732 -0.61240023 -0.27182442 26 11
0.23477896 -0.57384807 -0.31071857 96 9
nan nan nan 0 10
0.23184697 -0.56931627 -0.35045743 97 8
0.34620133 -0.59344888 -0.44138938 28 7
0.23492762 -0.58196998 -0.45135793 106 6
0.29893672 -0.50879657 -0.47005519 9 5
0.19676335 -0.4921574 -0.47334087 15 4
0.21738726 -0.36808491 -0.41664991 5 3
0.1469464 -0.37022287 -0.42931825 5 2
0.20867284 -0.35004377 -0.48921618 5 1
0.092258863 -0.23150015 -0.3015973 4 0
0.34005365 -0.59424329 0.17337546 70 31
0.23899212 -0.57941687 0.13696767 93 30
0.33624923 -0.58878624 0.12408201 34 29
0.23392451 -0.56648767 0.090404697 90 28
0.34049907 -0.59731835 0.079673469 71 27
0.23462661 -0.56823772 0.055425346 85 26
0.34937185 -0.61323696 0.046677049 68 25
0.24294004 -0.58859485 0.028066512 86 24
0.34117234 -0.59943151 0.015203069 66 23
0.23457597 -0.56841362 0 87 22
0.3446928 -0.60605514 -0.01537715 60 21
0.23801465 -0.57711953 -0.02748422 83 20
0.33530512 -0.58969545 -0.044543717 53 19
0.23988758 -0.58256328 -0.053425945 89 18
0.34386814 -0.60464138 -0.075626083 38 17
0.23751412 -0.57730258 -0.081882365 88 16
0.33883956 -0.59542769 -0.11335972 22 15
0.23295282 -0.56826341 -0.16576822 96 13
0.33794329 -0.59366304 -0.14846133 10 14
0.23046499 -0.56374615 -0.19858447 95 12
0.35347447 -0.61764443 -0.27369905 14 11
0.2344165 -0.57876337 -0.31306362 98 9
0.34493327 -0.60147732 -0.30929479 6 10
0.23065042 -0.57210964 -0.35175064 97 8
0.34318691 -0.59280616 -0.43998814 33 7
0.23289473 -0.58278656 -0.45135793 106 6
0.30006588 -0.51476812 -0.47490111 9 5
0.19373134 -0.48947385 -0.46988583 16 4
0.21434624 -0.36589542 -0.41301104 5 3
0.14391342 -0.36621073 -0.42359403 5 2
0.20823132 -0.35206783 -0.49120486 5 1
0.089903869 -0.22776066 -0.2954838 4 0
0.33797726 -0.59542668 0.17337546 70 31
0.23605533 -0.57798946 0.13640402 92 30
0.33540964 -0.59208781 0.12455561 33 29
0.23472506 -0.57416964 0.091563731 90 28
0.33841196 -0.59850329 0.079673469 69 27
0.23357514 -0.57136017 0.055663224 85 26
0.342291 -0.60578477 0.045982964 74 25
0.23994724 -0.58712429 0.027950054 86 24
0.3340289 -0.5919888 0.014970962 70 23
0.23446506 -0.57386422 0 88 22
0.34751782 -0.61594462 -0.015609259 65 21
0.2340268 -0.57335711 -0.027251303 83 20
0.33324465 -0.59086227 -0.044543717 59 19
0.23505673 -0.57647014 -0.052755326 88 18
0.33551174 -0.59510171 -0.074204542 45 17
0.23642352 -0.58042473 -0.082226403 90 16
0.33421895 -0.5923844 -0.11250094 35 15
0.23086846 -0.56911343 -0.16576822 96 13
0.3418985 -0.60542715 -0.15125196 15 14
0.2266416 -0.56019998 -0.19695002 95 12
nan nan nan 0 11
0.22913927 -0.5713681 -0.30837354 98 9
0.34047461 -0.59881192 -0.30716905 8 10
0.22776712 -0.5709607 -0.35045743 97 8
0.33789784 -0.58868587 -0.43578446 38 7
0.22713824 -0.5743733 -0.44378477 104 6
0.29721412 -0.51421714 -0.47328579 9 5
0.19388682 -0.49523881 -0.47506839 16 4
0.21474774 -0.36963105 -0.41664991 5 3
0.14493287 -0.37274936 -0.43122634 5 2
0.20616265 -0.35152802 -0.48921618 5 1
0.092641875 -0.2375754 -0.30974856 4 0
0.33460027 -0.59456074 0.17273092 69 31
0.23393533 -0.57885081 0.13640402 92 30
0.33202741 -0.59117734 0.12408201 33 29
0.23170099 -0.57273304 0.091177382 88 28
0.3374373 -0.60189986 0.07997641 67 27
0.23055442 -0.56990206 0.055425346 85 26
0.34374809 -0.61354977 0.046503525 70 25
0.23593728 -0.583363 0.027717136 88 24
0.33441731 -0.59750438 0.015087015 67 23
0.2305025 -0.5700776 0 85 22
0.3403472 -0.60850614 -0.01537715 62 21
0.23295142 -0.57648927 -0.027367761 82 20
0.32862663 -0.58773488 -0.044198416 65 19
0.23571272 -0.58426499 -0.053425945 88 18
0.33343241 -0.59626919 -0.074204542 50 17
0.23429456 -0.58128726 -0.082226403 88 16
0.32972807 -0.58925784 -0.11164215 36 15
0.22710544 -0.56544858 -0.16439256 96 13
0.33608279 -0.60031009 -0.14957757 19 14
0.2255549 -0.56318426 -0.19776724 96 12
nan nan nan 0 11
0.22704355 -0.57220411 -0.30837354 97 9
0.33838227 -0.59999675 -0.30716905 10 10
0.22266118 -0.56377983 -0.34528461 96 8
0.33480909 -0.5880667 -0.43438321 49 7
0.22656655 -0.57887292 -0.44681406 105 6
0.29637462 -0.51690215 -0.47490111 8 5
0.1902238 -0.49084762 -0.46988583 14 4
0.21085566 -0.36594057 -0.41119161 6 3
0.14072007 -0.36571944 -0.42168593 5 2
0.20570666 -0.35354888 -0.49120486 5 1
0.09535227 -0.24739647 -0.32401329 4 0
0.33133778 -0.59362024 0.17208642 72 31
0.23101671 -0.57739919 0.13584037 92 30
0.32755691 -0.58805257 0.12313482 37 29
0.22788027 -0.56894594 0.090404697 89 28
0.32926577 -0.59225148 0.078461707 72 27
0.22764672 -0.56838983 0.055187471 86 26
0.34038535 -0.61257017 0.046330005 69 25
0.23297942 -0.58186144 0.027600678 87 24
0.33110875 -0.59648716 0.015028988 67 23
0.2303526 -0.57552731 0 88 22
0.33700094 -0.60750914 -0.015319123 62 21
0.22726041 -0.56801128 -0.026901927 82 20
0.32900804 -0.59323174 -0.044543717 66 19
0.23092559 -0.5781374 -0.052755326 89 18
0.33256149 -0.59959722 -0.074488848 58 17
0.23135452 -0.57979852 -0.081882365 88 16
0.33127823 -0.5968523 -0.11293033 39 15
0.2268897 -0.57071131 -0.16576822 96 13
0.33398527 -0.60147959 -0.14957757 25 14
0.22186273 -0.55956894 -0.19613281 95 12
nan nan nan 0 11
0.22184809 -0.56475997 -0.30368343 97 9
0.33406144 -0.59723306 -0.30504331 18 10
0.22223371 -0.56854528 -0.34787104 97 8
0.33275434 -0.58923185 -0.43438321 61 7
0.22170117 -0.57222986 -0.44075555 105 6
0.29361704 -0.51627958 -0.47328579 8 5
0.18914774 -0.4931992 -0.47161335 14 4
0.20871533 -0.36519209 -0.40937218 5 3
0.141698 -0.37226322 -0.42931825 5 2
0.20370352 -0.35295877 -0.48921618 5 1
0.092985086 -0.24365146 -0.31789982 4 0
0.32926363 -0.59477323 0.17208642 70 31
0.23166592 -0.58500534 0.13753134 91 30
0.3266972 -0.59133661 0.12360842 40 29
0.22408882 -0.56513923 0.089632004 91 28
0.32840258 -0.59556592 0.078764647 71 27
0.22485137 -0.56682503 0.054949593 86 26
0.33582222 -0.60939461 0.045982964 67 25
0.23094693 -0.58267117 0.027600678 87 24
0.32781139 -0.59545422 0.014970962 68 23
0.22560443 -0.56934547 0 87 22
0.33498451 -0.60862339 -0.015319123 63 21
0.22436512 -0.56647605 -0.026785469 84 20
0.32572535 -0.59219569 -0.044371065 66 19
0.22809944 -0.5765813 -0.052531786 88 18
0.33046648 -0.60075438 -0.074488848 62 17
0.22943056 -0.58056247 -0.081882365 88 16
0.32441077 -0.58939219 -0.11121276 47 15
0.21966474 -0.55806112 -0.16164121 96 13
0.32843786 -0.59619349 -0.1479032 27 14
0.22076288 -0.56254262 -0.19695002 96 12
nan nan nan 0 11
0.2223511 -0.5716753 -0.307201 97 9
0.32976401 -0.59444654 -0.3029176 21 10
0.22034711 -0.56927907 -0.34787104 97 8
0.3296763 -0.58858764 -0.43298197 75 7
0.22121173 -0.57668173 -0.44378477 105 6
0.28906554 -0.51227915 -0.46843988 8 5
0.18687832 -0.49213105 -0.46988583 13 4
0.20835991 -0.36736736 -0.41119161 6 3
0.14102156 -0.37424663 -0.43122634 5 2
0.20329538 -0.35494086 -0.49120486 5 1
0.094659105 -0.25076064 -0.32808894 4 0
0.3261188 -0.59374899 0.1714419 70 31
0.2253188 -0.57441705 0.13471305 92 30
0.32235882 -0.58812034 0.12266123 43 29
0.2240023 -0.57048392 0.090404697 88 28
0.32762474 -0.59882444 0.079067588 69 27
0.22197023 -0.5652867 0.054711718 84 26
0.33139127 -0.60613686 0.045635924 72 25
0.22449194 -0.57179481 0.027018385 88 24
0.32462904 -0.59434891 0.014912935 68 23
0.22462004 -0.57242095 0 86 22
0.33165276 -0.60759944 -0.015261096 63 21
0.22248538 -0.56721693 -0.026785469 85 20
0.32135448 -0.58890277 -0.044025768 67 19
0.22698502 -0.57969588 -0.052755326 88 18
0.33206561 -0.60837477 -0.075341769 64 17
0.2247211 -0.57443213 -0.080850236 89 16
0.32364285 -0.59262192 -0.11164215 52 15
0.22040632 -0.56551445 -0.16370472 95 13
0.32753098 -0.5994705 -0.14846133 38 14
0.21974368 -0.56547701 -0.19776724 96 12
0.32466912 -0.59128338 -0.25870186 5 11
0.21799879 -0.566257 -0.30368343 96 9
0.32888973 -0.59751493 -0.30398044 28 10
0.21684398 -0.56604272 -0.34528461 97 8
0.32670945 -0.58787209 -0.43158075 76 7
0.21710287 -0.57186323 -0.4392409 105 6
0.28821573 -0.51494545 -0.47005519 8 5
0.18578629 -0.49447525 -0.47161335 13 4
0.20792785 -0.36958051 -0.41301104 5 3
0.13694671 -0.36714906 -0.42168593 5 2
0.2035729 -0.35827076 -0.49518222 5 1
0.094766721 -0.25381386 -0.33216459 4 0
0.32404429 -0.5948838 0.1714419 69 31
0.22331233 -0.57520008 0.13471305 91 30
0.32384488 -0.59569901 0.12408201 46 29
0.2193505 -0.56434602 0.089245662 89 28
0.32314977 -0.59561062 0.078461707 68 27
0.22178179 -0.5707038 0.055187471 84 26
0.3280769 -0.6051017 0.045462403 69 25
0.2260793 -0.58189869 0.02748422 85 24
0.3176567 -0.58676064 0.014680827 70 23
0.22172382 -0.5708679 0 88 22
0.32833225 -0.60655963 -0.015203069 62 21
0.21950997 -0.56569707 -0.026669011 84 20
0.31810185 -0.5878318 -0.043853115 67 19
0.22317711 -0.57583481 -0.052308246 88 18
0.32626441 -0.60304683 -0.074488848 64 17
0.22448614 -0.57983768 -0.08153832 89 16
0.32264906 -0.59596562 -0.11207154 58 15
0.21747589 -0.56407273 -0.16301689 95 13
0.32777396 -0.60488689 -0.14957757 38 14
0.21431211 -0.55744451 -0.19449836 95 12
0.32696304 -0.60059482 -0.26245117 8 11
0.21835467 -0.5732137 -0.307201 98 9
0.32233149 -0.59078771 -0.29972899 23 10
0.21476787 -0.56683373 -0.34528461 98 8
0.32253942 -0.58544713 -0.42877826 83 7
0.21638809 -0.57638496 -0.44227016 105 6
0.28352422 -0.51100689 -0.46520928 9 5
0.18273123 -0.49175858 -0.4681583 14 4
0.20487966 -0.36735767 -0.40937218 6 3
0.13676074 -0.37066376 -0.42550209 5 2
0.20301244 -0.36032847 -0.49717093 5 1
0.095296063 -0.25825134 -0.33827803 4 0
0.31955066 -0.59182519 0.17015286 71 31
0.22033772 -0.5737378 0.1341494 90 30
0.31696966 -0.58825535 0.12218763 55 29
0.21903642 -0.56976354 0.090018347 88 28
0.32096457 -0.59679097 0.078461707 68 27
0.21880405 -0.56918675 0.054949593 85 26
0.32466841 -0.60410756 0.045288883 67 25
0.22216979 -0.57805496 0.027251303 89 24
0.31917739 -0.59445894 0.014854908 68 23
0.21785365 -0.56700289 0 85 22
0.32610688 -0.607759 -0.015203069 64 21
0.21753399 -0.56645989 -0.026669011 83 20
0.31594518 -0.58899373 -0.043853115 67 19
0.22106506 -0.57664895 -0.052308246 88 18
0.32415739 -0.604182 -0.074488848 67 17
0.21885024 -0.57139426 -0.080162145 88 16
0.3170481 -0.59059143 -0.11078337 65 15
0.2138088 -0.56033081 -0.16164121 95 13
0.32439384 -0.60394156 -0.14901945 45 14
0.2140283 -0.56261212 -0.19613281 96 12
0.3182123 -0.58952117 -0.25682721 10 11
0.21625225 -0.57401013 -0.307201 97 9
0.32026732 -0.59190929 -0.29972899 27 10
0.21278796 -0.56757993 -0.34528461 97 8
0.32449493 -0.59382033 -0.43438321 88 7
0.21369001 -0.57526946 -0.44075555 105 6
0.28545174 -0.51866168 -0.47167051 9 5
0.18408759 -0.50088996 -0.47679591 14 4
0.2035961 -0.36807063 -0.40937218 5 3
0.13431595 -0.3681196 -0.42168593 5 2
0.20100395 -0.35971829 -0.49518222 5 1
0.093912028 -0.25721678 -0.3362402 4 0
0.31633469 -0.59081179 0.16950834 73 31
0.22004756 -0.57906324 0.13527671 92 30
0.3160792 -0.59151894 0.12266123 61 29
0.21704625 -0.57052469 0.090018347 88 28
0.31535226 -0.59135157 0.077552885 73 27
0.21506302 -0.5652886 0.05447384 89 26
0.31901523 -0.59864706 0.044768322 68 25
0.22190958 -0.58350158 0.02748422 88 24
0.31591782 -0.59336764 0.014796881 68 23
0.21675313 -0.57009989 0 86 22
0.32161978 -0.60448909 -0.015087015 65 21
0.21731265 -0.57189095 -0.026901927 83 20
0.31270799 -0.58789539 -0.043680467 67 19
0.2216754 -0.58441079 -0.052978866 89 18
0.31969747 -0.60093272 -0.073920228 67 17
0.21772359 -0.57447332 -0.080506191 88 16
0.31498462 -0.59169447 -0.11078337 67 15
0.21101102 -0.55882192 -0.16095339 96 13
0.31651655 -0.59433699 -0.14622882 56 14
0.21041523 -0.55892712 -0.19449836 96 12
0.3150509 -0.58858919 -0.25588989 22 11
0.21272102 -0.57061774 -0.30485597 97 9
0.31496629 -0.58705449 -0.29654038 26 10
0.20933348 -0.56430131 -0.34269822 96 8
0.32341409 -0.5967657 -0.43578446 89 7
0.21168064 -0.5760119 -0.44075555 105 6
0.28271711 -0.51798469 -0.47005519 10 5
0.18172917 -0.49982807 -0.47506839 14 4
0.2039814 -0.37177324 -0.41301104 5 3
0.13410485 -0.37163287 -0.42550209 5 2
0.19974709 -0.36041775 -0.49518222 5 1
0.093968034 -0.26027766 -0.34031585 4 0
0.31312975 -0.58978325 0.16886382 73 31
0.21462895 -0.57069635 0.1330221 92 30
0.31285518 -0.59045386 0.12218763 67 29
0.21160632 -0.56201977 0.08847297 89 28
0.31211802 -0.59025925 0.077249944 68 27
0.21405597 -0.56833076 0.054711718 84 26
0.31457728 -0.59535533 0.044421282 69 25
0.21725751 -0.57725161 0.027134845 88 24
0.31266975 -0.59226084 0.014738854 69 23
0.2130181 -0.56616688 0 86 22
0.31843895 -0.60334611 -0.015028988 65 21
0.21270362 -0.56562412 -0.026552552 82 20
0.31065392 -0.58898342 -0.043680467 67 19
0.2162677 -0.5758062 -0.052084707 88 18
0.31876469 -0.60423768 -0.074204542 64 17
0.21495584 -0.57287067 -0.080162145 90 16
0.31523278 -0.59713787 -0.11164215 69 15
0.20739371 -0.55504584 -0.15957771 97 13
0.31454393 -0.59538335 -0.14622882 67 14
0.20927913 -0.5618754 -0.19531558 96 12
0.31090769 -0.58554524 -0.25401524 25 11
0.21082762 -0.57132 -0.30485597 98 9
0.31291521 -0.58815032 -0.29654038 35 10
0.20746104 -0.56499237 -0.34269822 98 8
0.31836623 -0.59243196 -0.43158075 89 7
0.20708096 -0.56922287 -0.43469703 103 6
0.28558233 -0.52728611 -0.47813177 11 5
0.18127714 -0.5038349 -0.47852343 15 4
0.20191672 -0.37094778 -0.41119161 6 3
0.133404 -0.37360063 -0.42741019 6 2
0.19855081 -0.36107817 -0.49518222 5 1
0.093104415 -0.26058781 -0.34031585 4 0
0.3123059 -0.59295124 0.16950834 72 31
0.21441811 -0.57597625 0.1341494 92 30
0.31089544 -0.59148812 0.12218763 69 29
0.20888735 -0.56040084 0.088086627 88 28
0.30783731 -0.58690435 0.076644063 70 27
0.21034972 -0.56440425 0.054235961 87 26
0.314933 -0.60080463 0.044768322 68 25
0.21447855 -0.5756256 0.027018385 85 24
0.31070402 -0.59329444 0.014738854 67 23
0.20941134 -0.56217831 0 85 22
0.31399733 -0.60003358 -0.014912935 64 21
0.20910132 -0.56163931 -0.026319636 83 20
0.30520609 -0.58339363 -0.043162517 66 19
0.21339749 -0.57422048 -0.051861171 88 18
0.31559968 -0.60309494 -0.073920228 65 17
0.21124803 -0.56896853 -0.079474062 88 16
0.30749819 -0.58729208 -0.10949519 70 15
0.2088528 -0.56476015 -0.16232905 96 13
0.31018612 -0.59216881 -0.14511257 77 14
0.20660588 -0.56034642 -0.19449836 96 12
0.30886185 -0.58662695 -0.25401524 23 11
0.20658502 -0.56582129 -0.3013384 97 9
0.309899 -0.58718771 -0.29547751 40 10
0.20693216 -0.56974095 -0.34528461 98 8
0.31541836 -0.59166151 -0.43017951 91 7
0.20509271 -0.5699423 -0.43469703 104 6
0.28009585 -0.52157354 -0.47167051 16 5
0.17712821 -0.49764234 -0.47161335 15 4
0.19979519 -0.37014759 -0.40937218 6 3
0.13262606 -0.37559092 -0.42931825 5 2
0.19655332 -0.36044475 -0.49319354 5 1
0.096873254 -0.27461657 -0.36069405 4 0
0.30798185 -0.58976406 0.1682193 72 31
0.21157284 -0.57443255 0.13358575 95 30
0.30654371 -0.58822453 0.12124044 71 29
0.20523794 -0.55648547 0.087313943 90 28
0.30117413 -0.5791859 0.075432301 73 27
0.20752591 -0.56279695 0.053998087 86 26
0.31283391 -0.60190028 0.044768322 66 25
0.21332331 -0.57871699 0.027134845 86 24
0.30747128 -0.59216148 0.014680827 69 23
0.2100153 -0.56995267 0 85 22
0.31421909 -0.60555458 -0.015028988 65 21
0.20884863 -0.5670588 -0.026552552 82 20
0.30663767 -0.5910843 -0.043680467 69 19
0.21054098 -0.5726217 -0.051637631 88 18
0.31118879 -0.59979182 -0.073351614 65 17
0.21010594 -0.57202989 -0.079818107 89 16
0.30887508 -0.59490657 -0.11078337 70 15
0.20524549 -0.56096512 -0.16095339 95 13
0.30924845 -0.59540629 -0.1456707 78 14
0.20384754 -0.55884147 -0.19368115 96 12
0.30897334 -0.59180212 -0.25588989 27 11
0.20609218 -0.5706982 -0.30368343 98 9
0.30784744 -0.58826596 -0.29547751 52 10
0.20351161 -0.56642693 -0.34269822 98 8
0.31237596 -0.59093255 -0.42877826 90 7
0.20112498 -0.56502491 -0.43015319 102 6
0.27827349 -0.52254814 -0.47167051 16 5
0.17716399 -0.50338054 -0.47679591 15 4
0.1976817 -0.36933714 -0.40755275 5 3
0.13131417 -0.37605163 -0.42931825 6 2
0.19383149 -0.35847506 -0.48921618 5 1
0.095914073 -0.27495304 -0.36069405 4 0
0.30927747 -0.59725797 0.17015286 71 31
0.20791551 -0.57058465 0.13245845 91 30
0.30448857 -0.58929098 0.12124044 70 29
0.20413207 -0.55952197 0.087700285 89 28
0.30144155 -0.58463645 0.076038182 71 27
0.20471588 -0.56117678 0.053760208 88 26
0.30727965 -0.59635025 0.044247761 72 25
0.20791328 -0.57006133 0.026669011 87 24
0.30414709 -0.5910663 0.0146228 67 23
0.20802452 -0.57068229 0 86 22
0.30864933 -0.59999275 -0.014854908 67 21
0.20507701 -0.5631212 -0.026319636 84 20
0.30112582 -0.58551019 -0.043162517 70 19
0.21106878 -0.58038241 -0.052308246 88 18
0.31013218 -0.60313308 -0.073635921 68 17
0.20727076 -0.5704295 -0.079474062 88 16
0.30215284 -0.58729166 -0.10906579 70 15
0.20399712 -0.56397694 -0.16164121 97 13
0.30267331 -0.58783281 -0.14343821 79 14
0.20021206 -0.5551337 -0.1920467 96 12
0.30251011 -0.58471352 -0.25214058 29 11
0.20409882 -0.57141411 -0.30368343 98 9
0.30463955 -0.58738571 -0.29441464 63 10
0.20072635 -0.56514996 -0.341405 99 8
0.31020799 -0.5920735 -0.42877826 89 7
0.19970483 -0.56763726 -0.4316678 102 6
0.27545735 -0.52188152 -0.47005519 19 5
0.17531782 -0.50402647 -0.47679591 15 4
0.19795606 -0.37307644 -0.41119161 5 3
0.1310333 -0.37956887 -0.43313444 5 2
0.1925163 -0.35918307 -0.48921618 5 1
0.099028409 -0.28766733 -0.37903443 4 0
0.30486462 -0.59409767 0.16886382 72 31
0.20500576 -0.56904829 0.1318948 90 30
0.30232662 -0.59040302 0.12124044 71 29
0.20456803 -0.56724608 0.08885932 88 28
0.30043408 -0.58794284 0.076341122 69 27
0.20432897 -0.56661177 0.054235961 86 26
0.30509186 -0.59747255 0.044247761 66 25
0.20749958 -0.57552409 0.026901927 86 24
0.29979408 -0.58768004 0.014506746 68 23
0.20257531 -0.5620209 0 86 22
0.30759138 -0.60334247 -0.014912935 63 21
0.20227237 -0.561481 -0.026203176 84 20
0.29783702 -0.58439207 -0.042989869 71 19
0.20643802 -0.57411361 -0.051637631 85 18
0.30575275 -0.59979451 -0.073067307 66 17
0.20517862 -0.57118529 -0.079474062 88 16
0.30122828 -0.59053248 -0.10949519 73 15
0.20122609 -0.56241947 -0.16095339 97 13
0.30274838 -0.59327114 -0.14455445 79 14
0.19905823 -0.55805749 -0.19286393 95 12
0.29940134 -0.58370793 -0.25120324 35 11
0.20054939 -0.56798857 -0.3013384 97 9
0.30571556 -0.5944702 -0.29760325 71 10
0.20155558 -0.57393318 -0.34657779 99 8
0.30525315 -0.58765286 -0.42457455 90 7
0.19707662 -0.56644964 -0.43015319 102 6
0.27631342 -0.52789831 -0.47490111 19 5
0.17413646 -0.50634718 -0.47852343 14 4
0.19503376 -0.37074223 -0.40755275 5 3
0.12913056 -0.37851411 -0.43122634 5 2
0.18909618 -0.35585684 -0.48325008 5 1
0.096210524 -0.28250951 -0.37088314 4 0
0.30058223 -0.59086072 0.16757479 72 31
0.20463623 -0.57435519 0.1330221 94 30
0.29914454 -0.58927011 0.12076685 71 29
0.19930178 -0.55863893 0.087313943 89 28
0.30063936 -0.59340703 0.076947004 68 27
0.1999653 -0.56024539 0.053522334 87 26
0.30073529 -0.59409195 0.043900721 68 25
0.2029984 -0.56917936 0.026552552 88 24
0.29660463 -0.58649683 0.014448719 68 23
0.20144306 -0.56508249 0 84 22
0.3044531 -0.60213286 -0.014854908 65 21
0.19948171 -0.55982816 -0.026086718 84 20
0.29579526 -0.58542818 -0.042989869 65 19
0.20535932 -0.57714397 -0.051861171 88 18
0.30140048 -0.59643286 -0.072498687 66 17
0.20164165 -0.56719017 -0.078785971 88 16
0.30028474 -0.59377402 -0.10992458 72 15
0.20005488 -0.56538737 -0.16164121 97 13
0.29856214 -0.58993155 -0.14343821 77 14
0.19477685 -0.55205566 -0.19041227 95 12
0.30064115 -0.59088218 -0.25401524 39 11
0.19866478 -0.56865048 -0.3013384 98 9
0.30053145 -0.58949816 -0.29441464 81 10
0.19687486 -0.56650317 -0.341405 98 8
0.30606702 -0.59422469 -0.42877826 89 7
0.19647577 -0.57086688 -0.43318242 104 6
0.2727862 -0.52543348 -0.47167051 19 5
0.16958937 -0.49835321 -0.46988583 15 4
0.19541204 -0.37441522 -0.41119161 5 3
0.12534669 -0.37126952 -0.42168593 6 2
0.19078428 -0.36181957 -0.49120486 5 1
0.095721878 -0.28420392 -0.37292096 4 0
0.29642877 -0.58754945 0.16628575 74 31
0.20032626 -0.56813055 0.13133115 94 30
0.29941306 -0.59463555 0.12171403 69 29
0.19907521 -0.56396103 0.088086627 88 28
0.29418045 -0.58554775 0.075735241 69 27
0.19800846 -0.56093991 0.053522334 88 26
0.30101797 -0.59953529 0.044247761 68 25
0.20275484 -0.57456523 0.026785469 89 24
0.29578698 -0.58970708 0.014506746 67 23
0.20039105 -0.56810808 0 86 22
0.30009332 -0.5987314 -0.014738854 66 21
0.19926752 -0.56520307 -0.026319636 85 20
0.29497799 -0.58863139 -0.043162517 70 19
0.2008893 -0.57080197 -0.051190551 85 18
0.29942095 -0.59742904 -0.072498687 67 17
0.20047326 -0.57022959 -0.079130016 90 16
0.29942641 -0.59696382 -0.11035398 71 15
0.19582184 -0.55923319 -0.15957771 97 13
0.29540002 -0.58879608 -0.14288007 79 14
0.19525506 -0.55939955 -0.19286393 97 12
0.29226577 -0.57953668 -0.24839127 48 11
0.19525331 -0.56516087 -0.29899335 98 9
0.29857492 -0.59049147 -0.29441464 83 10
0.19352216 -0.56313443 -0.33881861 99 8
0.30314523 -0.5933966 -0.42737705 89 7
0.19258364 -0.56589234 -0.42863855 102 6
0.27006882 -0.52469033 -0.47005519 18 5
0.16898359 -0.50237364 -0.47334087 15 4
0.19250569 -0.37206119 -0.40755275 5 3
0.12455019 -0.37324068 -0.42359403 5 2
0.18952014 -0.36248329 -0.49120486 5 1
0.092953593 -0.2790224 -0.36476967 4 0
0.29219857 -0.58426815 0.16499671 74 31
0.19992866 -0.57343203 0.13245845 91 30
0.29291764 -0.58690822 0.11981966 71 29
0.1946893 -0.55764765 0.086927593 89 28
0.28990546 -0.58213669 0.07512936 70 27
0.19686067 -0.5639804 0.053760208 86 26
0.29892337 -0.60058248 0.044247761 68 25
0.200748 -0.57526952 0.026785469 87 24
0.29250291 -0.58855319 0.014448719 68 23
0.19596253 -0.56171358 0 87 22
0.29800153 -0.59977525 -0.014738854 66 21
0.19556855 -0.56120712 -0.026086718 88 20
0.29180357 -0.58742797 -0.042989869 66 19
0.20051527 -0.57620901 -0.051637631 89 18
0.29500341 -0.59408152 -0.071930073 67 17
0.19526342 -0.56155843 -0.077753842 90 16
0.29171494 -0.58705032 -0.10820701 71 15
0.19532552 -0.56449586 -0.16095339 97 13
0.29224953 -0.58764589 -0.14232194 80 14
0.19320345 -0.5601114 -0.19286393 97 12
0.29222822 -0.58474207 -0.25026593 60 11
0.19398467 -0.56793123 -0.30016586 97 9
0.29334369 -0.5855248 -0.29122603 85 10
0.19077727 -0.56181127 -0.3375254 99 8
0.29813978 -0.588974 -0.42317334 89 7
0.19113408 -0.56848234 -0.43015319 102 6
0.27252111 -0.5341537 -0.47813177 19 5
0.16489665 -0.4961184 -0.46643078 15 4
0.19193426 -0.37428412 -0.40937218 5 3
0.12423631 -0.37674844 -0.42741019 5 2
0.19031349 -0.367194 -0.49717093 5 1
0.093685724 -0.28488162 -0.37292096 4 0
0.29221678 -0.58965564 0.16628575 74 31
0.19468588 -0.56493813 0.13020384 95 30
0.29076451 -0.58797783 0.11981966 73 29
0.19423772 -0.56303322 0.087700285 88 28
0.28445035 -0.57653165 0.074220538 72 27
0.19398943 -0.56234246 0.053522334 87 26
0.29449761 -0.59720856 0.043900721 67 25
0.19622134 -0.56891006 0.026436094 87 24
0.288221 -0.58509487 0.014332665 68 23
0.19470851 -0.56479448 0 85 22
0.29357708 -0.59638691 -0.0146228 68 21
0.19199878 -0.55715835 -0.025853802 83 20
0.28853884 -0.58626008 -0.042817216 70 19
0.19840203 -0.57694006 -0.051637631 88 18
0.29624334 -0.60178071 -0.072782993 69 17
0.19161198 -0.55758077 -0.077065758 88 16
0.29185718 -0.59247547 -0.10906579 73 15
0.19104567 -0.55834317 -0.15888987 95 13
0.29335004 -0.59525853 -0.14399633 77 14
0.19049314 -0.55854332 -0.1920467 97 12
0.2891483 -0.58368587 -0.24932858 68 11
0.19120412 -0.56654358 -0.29899335 97 9
0.29129806 -0.58654517 -0.29122603 85 10
0.18747 -0.55841154 -0.334939 98 8
0.29327288 -0.5844714 -0.41896963 90 7
0.18791005 -0.56536585 -0.42712393 102 6
0.26891586 -0.53170478 -0.47490111 18 5
0.16482925 -0.50185025 -0.47161335 15 4
0.19377954 -0.38104224 -0.41664991 5 3
0.12138694 -0.37258294 -0.42168593 6 2
0.18692142 -0.36383021 -0.49120486 5 1
0.091388628 -0.28106201 -0.36680749 4 0
0.28908345 -0.58850807 0.16564123 73 31
0.19348955 -0.56792271 0.13076749 94 30
0.28762156 -0.58678913 0.11934606 73 29
0.18990529 -0.55668581 0.08654125 89 28
0.28573239 -0.58419627 0.07512936 69 27
0.19043609 -0.55829948 0.05304658 87 26
0.28799739 -0.58928663 0.043206636 70 25
0.19582899 -0.57432467 0.026669011 87 24
0.28396681 -0.58161384 0.014216611 68 23
0.19193803 -0.56310141 0 86 22
0.28928503 -0.5929237 -0.014506746 69 21
0.19164583 -0.56255877 -0.026086718 88 20
0.28428689 -0.58278883 -0.042471919 72 19
0.19321506 -0.56818771 -0.050743472 85 18
0.29084882 -0.59612656 -0.071930073 68 17
0.18966447 -0.5582462 -0.077065758 89 16
0.28869835 -0.59128159 -0.1086364 74 15
0.18909553 -0.55900663 -0.15888987 97 13
0.28588137 -0.58535093 -0.1412057 80 14
0.18854231 -0.55920482 -0.1920467 97 12
0.28710908 -0.5846917 -0.24932858 74 11
0.18922536 -0.56720757 -0.29899335 97 9
0.28924885 -0.58755845 -0.29122603 84 10
0.18485422 -0.55702907 -0.33364582 99 8
0.290301 -0.58364177 -0.41756839 90 7
0.18593542 -0.56601834 -0.42712393 101 6
0.26619464 -0.53093874 -0.47328579 19 5
0.16252734 -0.50070083 -0.46988583 15 4
0.19166535 -0.380191 -0.41483048 5 3
0.1215372 -0.37762779 -0.42741019 5 2
0.18634865 -0.36582485 -0.49319354 5 1
0.091694608 -0.28552872 -0.37292096 4 0
0.28702742 -0.5895136 0.16564123 74 31
0.19227475 -0.57090575 0.13133115 92 30
0.28665259 -0.58999342 0.11981966 76 29
0.18796092 -0.55734533 0.08654125 89 28
0.28041852 -0.57850343 0.074220538 73 27
0.19015722 -0.56364995 0.053522334 88 26
0.28922555 -0.5970096 0.0437272 68 25
0.19224483 -0.57026607 0.026436094 88 24
0.28412926 -0.58709276 0.014332665 68 23
0.18997127 -0.56376803 0 86 22
0.28841403 -0.5961256 -0.014564773 67 21
0.18731616 -0.55611545 -0.025737343 83 20
0.28115669 -0.58153641 -0.042299267 71 19
0.19211495 -0.57118827 -0.050967012 87 18
0.28985578 -0.59937018 -0.07221438 70 17
0.18937218 -0.56357241 -0.077753842 89 16
0.28771386 -0.59449857 -0.10906579 75 15
0.18563609 -0.55509853 -0.15751421 97 13
0.28500926 -0.58848488 -0.14176382 81 14
0.18511248 -0.55537087 -0.19041227 97 12
0.28516862 -0.58564055 -0.24932858 78 11
0.18597656 -0.56363279 -0.29664832 98 9
0.28619567 -0.58653492 -0.29016316 85 10
0.18432337 -0.56171036 -0.33623222 99 8
0.2891854 -0.58650464 -0.41896963 90 7
0.18345104 -0.56473756 -0.42560932 101 6
0.26443255 -0.53181857 -0.47328579 19 5
0.16358311 -0.50985444 -0.47852343 14 4
0.19040354 -0.38082451 -0.41483048 5 3
0.11980554 -0.37648603 -0.42550209 5 2
0.18235889 -0.36105397 -0.48523882 5 1
0.089048773 -0.28029302 -0.36476967 4 0
0.28295392 -0.58611971 0.16435219 76 31
0.18961939 -0.56922656 0.13076749 94 30
0.282547 -0.58652592 0.11887246 73 29
0.18456627 -0.5532735 0.085768558 89 28
0.28066573 -0.58389515 0.074826419 70 27
0.18741003 -0.56194651 0.053284455 88 26
0.28397962 -0.59123325 0.043206636 69 25
0.19035271 -0.57090044 0.026436094 88 24
0.28000134 -0.58353323 0.014216611 70 23
0.18888235 -0.5667696 0 88 22
0.28633142 -0.59712869 -0.014564773 69 21
0.1862514 -0.55910581 -0.025853802 84 20
0.27814007 -0.5802207 -0.042126618 72 19
0.19011994 -0.57185537 -0.050967012 83 18
0.2857022 -0.59585685 -0.071645766 67 17
0.18663202 -0.56187713 -0.077409804 89 16
0.28251931 -0.58880019 -0.10777762 75 15
0.1845402 -0.55799592 -0.15820205 97 13
0.28082749 -0.58509046 -0.14064758 82 14
0.18400069 -0.55822849 -0.19122949 97 12
0.2790601 -0.5782994 -0.24557929 82 11
0.18265587 -0.56007475 -0.29430327 98 9
0.28226164 -0.58341491 -0.28803745 87 10
0.18236151 -0.56235027 -0.33623222 99 8
0.28540421 -0.58374822 -0.41616717 89 7
0.18267812 -0.56916726 -0.42863855 102 6
0.26598245 -0.53956759 -0.47974709 20 5
0.1618024 -0.51042235 -0.47852343 14 4
0.18830054 -0.37995616 -0.41301104 5 3
0.11943732 -0.3799907 -0.42931825 5 2
0.18178667 -0.36303747 -0.4872275 5 1
0.088069834 -0.28060216 -0.36476967 4 0
0.28090629 -0.58710384 0.16435219 75 31
0.18763125 -0.56988502 0.13076749 94 30
0.27943188 -0.58529752 0.11839887 72 29
0.18339838 -0.55626315 0.086154908 89 28
0.27755007 -0.58263505 0.074523479 70 27
0.18544732 -0.56259727 0.053284455 86 26
0.28083372 -0.58997309 0.043033116 69 25
0.18681283 -0.5668121 0.026203176 87 24
0.28002372 -0.58906204 0.014332665 70 23
0.18612945 -0.56504804 0 86 22
0.28316417 -0.59587115 -0.014506746 69 21
0.18342921 -0.55740958 -0.025737343 83 20
0.28042829 -0.59018254 -0.042817216 70 19
0.18965989 -0.57725227 -0.051414091 89 18
0.28244239 -0.5946604 -0.071361452 70 17
0.18619666 -0.5672363 -0.078097887 88 16
0.27609649 -0.58095038 -0.10606005 75 15
0.18101875 -0.55409348 -0.15682638 97 13
0.28089395 -0.59046024 -0.14176382 80 14
0.1797855 -0.55215085 -0.18877783 97 12
0.27996257 -0.58557916 -0.24839127 84 11
0.18270591 -0.56702173 -0.29782084 98 9
0.28110763 -0.58648199 -0.28910032 89 10
0.17836691 -0.55689406 -0.33235261 99 8
0.28417328 -0.58664984 -0.41756839 91 7
0.17762683 -0.56034017 -0.42106545 102 6
0.26062018 -0.53369719 -0.47328579 17 5
0.16046157 -0.51273924 -0.48025095 14 4
0.18767357 -0.38217723 -0.41483048 5 3
0.11717428 -0.37731329 -0.42550209 6 2
0.17977062 -0.36234963 -0.48523882 5 1
0.086211383 -0.27814797 -0.36069405 4 0
0.2777096 -0.58595079 0.16370767 75 31
0.18628581 -0.5728879 0.13133115 92 30
0.27516887 -0.5818876 0.11745168 73 29
0.17984658 -0.55222857 0.085382216 92 28
0.27114245 -0.57468754 0.073311709 74 27
0.18109927 -0.55616546 0.052570824 87 26
0.27759737 -0.58874667 0.042859595 72 25
0.18396989 -0.56511557 0.026086718 86 24
0.27689213 -0.58777893 0.014274638 68 23
0.18252787 -0.56096607 0 87 22
0.27883264 -0.5923903 -0.014390692 67 21
0.18224579 -0.56042427 -0.025853802 86 20
0.273981 -0.58219612 -0.042126618 69 19
0.18374321 -0.5660876 -0.050296392 86 18
0.2803649 -0.59564263 -0.071361452 68 17
0.18336147 -0.56555659 -0.077753842 89 16
0.27406693 -0.58191061 -0.10606005 73 15
0.1790835 -0.55472195 -0.15682638 97 13
0.27453914 -0.5826841 -0.13953133 81 14
0.17642745 -0.54827112 -0.18714339 98 12
0.27691615 -0.58446246 -0.24745394 84 11
0.17864341 -0.56136745 -0.29430327 98 9
0.2780796 -0.58541977 -0.28803745 88 10
0.17705886 -0.55955577 -0.33364582 100 8
0.27850762 -0.58018774 -0.41196343 91 7
0.17566982 -0.56095678 -0.42106545 101 6
0.25791591 -0.53289032 -0.47167051 14 5
0.1570957 -0.50810874 -0.47506839 15 4
0.18557684 -0.38129386 -0.41301104 5 3
0.11671513 -0.38083565 -0.42931825 5 2
0.17986372 -0.36568299 -0.48921618 5 1
0.087699071 -0.28678113 -0.37292096 4 0
0.27462724 -0.5847342 0.16306317 75 31
0.17986616 -0.55960494 0.12794922 93 30
0.27523646 -0.58728206 0.11839887 72 29
0.17717019 -0.55049896 0.084995873 88 28
0.2701945 -0.57787442 0.073614649 68 27
0.17991011 -0.55916607 0.052808702 88 26
0.27554056 -0.58971208 0.042859595 70 25
0.18501988 -0.57527483 0.026552552 88 24
0.27377298 -0.58648115 0.014216611 70 23
0.18132497 -0.56398267 0 84 22
0.27356824 -0.58657664 -0.014216611 71 21
0.17953332 -0.5586766 -0.025737343 86 20
0.2698217 -0.57863635 -0.041781314 68 19
0.18251772 -0.56909937 -0.050519932 85 18
0.27722567 -0.5943706 -0.071077146 66 17
0.17914619 -0.55911028 -0.076721713 89 16
0.26993364 -0.5784083 -0.10520127 76 15
0.17570294 -0.55075836 -0.1554507 96 13
0.27354303 -0.58584291 -0.14008945 82 14
0.17380562 -0.54662919 -0.18632618 97 12
0.2748743 -0.58542544 -0.24745394 83 11
0.17602913 -0.55987859 -0.29313076 98 9
0.27409035 -0.58230001 -0.28591171 86 10
0.17447476 -0.55812573 -0.33235261 99 8
0.27737826 -0.58302218 -0.41336468 91 7
0.17197207 -0.55585861 -0.41652158 100 6
0.25772172 -0.53721994 -0.47490111 15 5
0.1568781 -0.51384699 -0.48025095 15 4
0.1857571 -0.38501689 -0.41664991 5 3
0.1144713 -0.37814206 -0.42550209 5 2
0.17926095 -0.36766499 -0.49120486 5 1
0.085482463 -0.28291428 -0.36680749 4 0
0.27463984 -0.59006119 0.16435219 76 31
0.18009675 -0.56720191 0.12964019 94 30
0.27005741 -0.58157206 0.11697809 73 29
0.17820528 -0.5605408 0.08654125 87 28
0.26607192 -0.57431883 0.073008768 73 27
0.17805484 -0.55975962 0.052808702 88 26
0.27242407 -0.58841115 0.042686075 70 25
0.1807678 -0.56876886 0.026203176 86 24
0.26960841 -0.58290434 0.014100556 68 23
0.17935519 -0.56461215 0 86 22
0.27373651 -0.5920099 -0.014332665 67 21
0.17608851 -0.5545339 -0.025504425 86 20
0.26885507 -0.58183467 -0.041953962 69 19
0.18062952 -0.56970143 -0.050519932 86 18
0.27830067 -0.60208684 -0.071930073 68 17
0.1787688 -0.56442815 -0.077409804 88 16
0.26999778 -0.58380973 -0.10606005 78 15
0.17592001 -0.55825382 -0.15751421 98 13
0.26953441 -0.58233178 -0.13897321 83 14
0.17399365 -0.55400318 -0.18877783 97 12
0.2709586 -0.58213925 -0.24557929 84 11
0.17417154 -0.56045926 -0.29313076 98 9
0.27302098 -0.58529997 -0.28697458 88 10
0.17075385 -0.55256069 -0.328473 99 8
0.27534145 -0.58398688 -0.41336468 91 7
0.17184746 -0.56213951 -0.42106545 100 6
0.25511071 -0.53635257 -0.47328579 16 5
0.15414676 -0.51089901 -0.47679591 15 4
0.18598147 -0.38871333 -0.42028877 6 3
0.11231322 -0.37541789 -0.42168593 5 2
0.17871103 -0.36961603 -0.49319354 5 1
0.084944218 -0.28458795 -0.36884531 4 0
0.2696203 -0.58440059 0.16241865 76 31
0.1774942 -0.56546944 0.12907654 93 30
0.26709229 -0.58023858 0.11650449 74 29
0.17341898 -0.55169213 0.084995873 91 28
0.26521036 -0.57744908 0.073311709 71 27
0.17536269 -0.5580008 0.052570824 87 26
0.27152017 -0.59157395 0.042859595 70 25
0.17740127 -0.56459481 0.02597026 86 24
0.26767397 -0.58379525 0.014100556 71 23
0.17674179 -0.56281585 0 86 22
0.26956925 -0.58842522 -0.014216611 71 21
0.17498752 -0.55750024 -0.025620885 86 20
0.26797146 -0.58498651 -0.042126618 71 19
0.17790431 -0.56794965 -0.050296392 86 18
0.27421653 -0.59849805 -0.071361452 70 17
0.1753363 -0.56031674 -0.076721713 90 16
0.26495531 -0.57799745 -0.10477187 76 15
0.17336188 -0.55653661 -0.15682638 97 13
0.26750004 -0.58326906 -0.13897321 82 14
0.17146398 -0.55231792 -0.18796061 97 12
0.26892489 -0.5830816 -0.24557929 84 11
0.17285341 -0.56317723 -0.29430327 98 9
0.27107853 -0.58620214 -0.28697458 88 10
0.17190349 -0.5633983 -0.334939 99 8
0.26986411 -0.57740939 -0.40775973 91 7
0.16818452 -0.55701625 -0.41652158 100 6
0.25488108 -0.54068369 -0.47651646 16 5
0.15337685 -0.51490289 -0.48025095 15 4
0.18611482 -0.39244795 -0.42392763 6 3
0.11234106 -0.38046491 -0.42741019 5 2
0.17608866 -0.36751568 -0.48921618 5 1
0.08355476 -0.28348958 -0.36680749 4 0
0.26757869 -0.58533823 0.16241865 77 31
0.17409424 -0.56142747 0.12794922 92 30
0.26506525 -0.5811674 0.11650449 75 29
0.17076878 -0.54993248 0.084609531 87 28
0.26008335 -0.57160717 0.072402887 75 27
0.17341384 -0.55860955 0.052570824 87 26
0.26633069 -0.58571917 0.042339034 71 25
0.17689216 -0.5699861 0.026203176 89 24
0.2665745 -0.58704418 0.014158584 70 23
0.17477612 -0.56342936 0 86 22
0.26647201 -0.58709067 -0.014158584 72 21
0.17075258 -0.55097324 -0.025271507 87 20
0.2628096 -0.57911694 -0.041608665 70 19
0.17592071 -0.56856722 -0.050296392 86 18
0.26891688 -0.59272516 -0.070508532 70 17
0.17193475 -0.55618834 -0.076033629 90 16
0.26488867 -0.58344185 -0.10563066 79 15
0.17062339 -0.55486822 -0.15613854 97 13
0.2685127 -0.59084332 -0.14064758 83 14
0.16943848 -0.55294269 -0.18796061 97 12
0.2648432 -0.57985479 -0.24370465 85 11
0.17025457 -0.56166148 -0.29313076 98 9
0.26702702 -0.58308476 -0.28484881 88 10
0.16862062 -0.55992216 -0.33235261 99 8
0.26950186 -0.58214468 -0.41056219 91 7
0.16670139 -0.55953759 -0.41803619 101 6
0.25126618 -0.53816432 -0.47328579 15 5
0.15198945 -0.51719797 -0.48197848 15 4
0.18615523 -0.39622071 -0.4275665 6 3
0.1101305 -0.37774679 -0.42359403 5 2
0.17540102 -0.36952204 -0.49120486 5 1
0.083296008 -0.28658307 -0.37088314 4 0
0.26342204 -0.58192182 0.16112961 77 31
0.17273931 -0.56439346 0.12851289 93 30
0.26497164 -0.58660132 0.11745168 73 29
0.16946673 -0.55291897 0.084995873 91 28
0.26004317 -0.57707351 0.073008768 75 27
0.16992499 -0.55447698 0.05209507 87 26
0.26624742 -0.59123164 0.042686075 72 25
