# .PCD v0.7 - Point Cloud Data file format
VERSION 0.7
FIELDS x y z intensity ring
SIZE 4 4 4 4 2
TYPE F F F F U
COUNT 1 1 1 1 1
WIDTH 1265
HEIGHT 1
VIEWPOINT 0 0 0 1 0 0 0
POINTS 1265
DATA ascii
1.1076339 0.52885574 0 77 22
1.129208 0.53862554 -0.056715317 37 20
1.1531769 0.54951996 -0.11154622 22 18
1.1023241 0.52162576 0.11322946 107 26
1.1150799 0.52762681 0.055900108 75 24
1.1186124 0.52905196 0 38 22
1.1310813 0.5346806 -0.056715317 36 20
1.1551832 0.5452897 -0.11154622 24 18
1.099628 0.51566964 0.11275371 119 26
1.1169149 0.52373123 0.055900108 76 24
1.1136557 0.52197313 0 9 22
1.1329408 0.53072917 -0.056715317 36 20
1.1525651 0.53915179 -0.11109914 26 18
1.1035906 0.5130654 0.11299159 115 26
1.1164695 0.51878101 0.055783652 79 24
1.1200093 0.52018064 0 8 22
1.1347865 0.52677119 -0.056715317 37 20
1.152086 0.5342831 -0.11087561 26 18
1.1685522 0.54139614 -0.17408603 9 16
1.107637 0.51024717 0.11322946 117 26
1.1181839 0.5150758 0.055783652 81 24
1.1194555 0.51542222 0 8 22
1.1365271 0.52300525 -0.056715317 34 20
1.1516796 0.52922255 -0.11065206 26 18
1.1681827 0.53628463 -0.17374198 21 16
1.1071455 0.50534844 0.11299159 115 26
1.1177012 0.51013666 0.055667192 80 24
1.1235241 0.51254499 0 8 22
1.0945451 0.68185937 -0.029129546 2 21
1.1338878 0.51677287 -0.056482401 34 20
1.151252 0.52417141 -0.11042853 27 18
1.1700475 0.53220361 -0.17374198 19 16
1.1112599 0.50230807 0.11322946 115 26
1.1127311 0.50296319 0.055317819 77 24
1.1253952 0.50842363 0 25 22
1.0906658 0.67388982 -0.028955463 9 21
1.1425184 0.51588285 -0.056831781 36 20
1.1577089 0.52198738 -0.11087561 27 18
1.1652118 0.52487236 -0.17270987 17 16
1.1106466 0.49760687 0.11299159 112 26
1.11448 0.49907598 0.055317819 83 24
1.1225955 0.50245774 0 73 22
1.0865104 0.66633725 -0.028781384 20 21
1.1420307 0.51087576 -0.056715317 50 20
1.1617086 0.51915735 -0.11109914 26 18
1.1737345 0.52402222 -0.17374198 21 16
1.1101003 0.49272144 0.11275371 112 26
1.1184131 0.49638641 0.055434272 82 24
1.1173947 0.49570334 0 78 22
1.086697 0.66123712 -0.028723355 31 21
1.1345797 0.50305319 -0.056249484 65 20
1.1589564 0.51309103 -0.11065206 26 18
1.1755565 0.51992196 -0.17374198 19 16
1.1118133 0.48884347 0.11275371 113 26
1.122427 0.49348038 0.055550735 80 24
1.1236992 0.49380323 0 77 22
1.0932728 0.66003156 -0.028839409 36 21
1.1364157 0.49889138 -0.056249484 68 20
1.1721509 0.51402271 -0.11176977 24 18
1.1728246 0.51383579 -0.17305391 18 16
1.1158813 0.48575437 0.11299159 110 26
1.1219366 0.4883706 0.055434272 78 24
1.1255016 0.4896813 0 78 22
1.0935428 0.65473205 -0.028781384 38 21
1.1358584 0.49392971 -0.056133024 73 20
1.1648841 0.50577235 -0.11087561 26 18
1.1724266 0.50855231 -0.17270987 17 16
1.11757 0.48185629 0.11299159 111 26
1.1259295 0.48543593 0.055550735 80 24
1.1226087 0.48377913 0 77 22
1.0958216 0.65091097 -0.028781384 48 21
1.1375756 0.4899618 -0.056133024 74 20
1.17351 0.50464219 -0.11154622 24 18
1.1764715 0.50543016 -0.17305391 16 16
1.1122909 0.47522682 0.11227795 110 26
1.1276171 0.48150271 0.055550735 81 24
1.1265916 0.48083472 0 77 22
1.0979741 0.64727348 -0.028781384 50 21
1.139279 0.48598793 -0.056133024 75 20
1.1705922 0.4988037 -0.11109914 24 18
1.1781411 0.50152606 -0.17305391 16 16
1.1162367 0.47230694 0.11251584 104 26
1.1223028 0.47485396 0.055201355 78 24
1.12818 0.47709617 0 78 22
1.0959166 0.64090508 -0.02866533 51 21
1.1408843 0.48220727 -0.056133024 73 20
1.1746219 0.49567863 -0.11132269 24 18
1.1798846 0.49741051 -0.17305391 16 16
1.1086903 0.46457732 0.11156433 96 26
1.1262584 0.47189441 0.055317819 80 24
1.1298385 0.4731552 0 76 22
1.1003065 0.63833404 -0.028723355 46 21
1.1472549 0.47994184 -0.056365941 37 20
1.1740459 0.4906193 -0.11109914 25 18
1.1816137 0.49328896 -0.17305391 18 16
1.1103857 0.46051067 0.11156433 94 26
1.130289 0.4687157 0.055434272 80 24
1.1338762 0.46996403 0 31 22
1.1004748 0.63304657 -0.02866533 35 21
1.1535411 0.47783756 -0.056598857 9 20
1.1689285 0.48346999 -0.11042853 25 18
1.1857039 0.48989642 -0.17339796 16 16
1.116514 0.45870897 0.11204008 89 26
1.13423 0.46571183 0.055550735 35 24
1.0937862 0.62461168 0.028433222 7 23
1.1355098 0.46600321 0 9 22
1.1047361 0.63063699 -0.028723355 35 21
1.155202 0.47380805 -0.056598857 8 20
1.1751368 0.48147109 -0.11087561 24 18
1.1850287 0.48502776 -0.17305391 16 16
1.1076531 0.45059139 0.18158208 49 28
1.1181084 0.45480877 0.11204008 89 26
1.1288233 0.45913789 0.055201355 10 24
1.0849912 0.61479908 0.028143087 50 23
1.1440017 0.46504712 0 8 22
1.1004133 0.62306994 -0.028549276 35 21
1.1521363 0.46810281 -0.056365941 8 20
1.1133267 0.63040769 -0.086152382 6 19
1.1745012 0.47643417 -0.11065206 26 18
1.1867145 0.48088828 -0.17305391 17 16
1.1023408 0.44396687 0.18042305 134 28
1.117379 0.44997773 0.1118022 92 26
1.1420102 0.45983791 0.055783652 9 24
1.0828841 0.6083613 0.028027033 97 23
1.1409763 0.45919251 0 8 22
1.1047584 0.62045306 -0.028607301 33 21
1.1608003 0.46665919 -0.056715317 8 20
1.1176927 0.62774312 -0.086325034 10 19
1.1784694 0.4732554 -0.11087561 34 18
1.1860861 0.47582498 -0.17270987 17 16
1.1039606 0.43992358 0.18042305 147 28
1.11208 0.44312847 0.11108857 93 26
1.1390446 0.45380887 0.055550735 9 24
1.0871818 0.60579848 0.028085059 99 23
1.144976 0.45592827 0 8 22
1.107025 0.61639971 -0.028607301 36 21
1.1577784 0.46076572 -0.056482401 8 20
1.1134559 0.61998981 -0.085807078 19 19
1.1778803 0.46801746 -0.11065206 36 18
1.185519 0.47056499 -0.17236581 18 16
1.1077888 0.43696937 0.18080939 144 28
1.1113032 0.438335 0.11085069 94 26
1.1406218 0.44983009 0.055550735 55 24
1.0892898 0.60199982 0.028085059 98 23
1.148888 0.45284137 0 10 22
1.1113554 0.61374426 -0.02866533 40 21
1.1593796 0.45672151 -0.056482401 8 20
1.1090707 0.61246973 -0.085289136 22 19
1.1771882 0.46299577 -0.11042853 62 18
1.1917669 0.46822691 -0.17305391 19 16
1.1093073 0.43309981 0.18080939 143 28
1.1197101 0.43735093 0.11156433 94 26
1.1398571 0.44494191 0.055434272 80 24
1.087006 0.59578264 0.027969005 98 23
1.1434698 0.44611487 0 62 22
1.111195 0.6088503 -0.028607301 44 21
1.1563104 0.4508656 -0.056249484 35 20
1.1112016 0.60859466 -0.085289136 26 19
1.1694299 0.45549098 -0.10953437 65 18
1.1863854 0.46159074 -0.17202178 17 16
1.1084321 0.42853245 0.18042305 137 28
1.1258756 0.43522584 0.11204008 91 26
1.1389954 0.44026342 0.055317819 80 24
1.0868855 0.59078676 0.027910979 97 23
1.1426091 0.44142377 0 78 22
1.1111197 0.6037702 -0.028549276 41 21
1.1532142 0.44503668 -0.056016568 70 20
1.1132138 0.60490644 -0.085289136 27 19
1.1733375 0.45229766 -0.10975791 72 18
1.1926141 0.45921826 -0.17270987 18 16
1.1099952 0.42446703 0.18042305 135 28
1.1204847 0.42844275 0.11132645 94 26
1.1382673 0.43519822 0.055201355 84 24
1.0889412 0.58698916 0.027910979 70 23
1.1418825 0.43634477 0 78 22
1.1133252 0.59969366 -0.028549276 41 21
1.1570952 0.44189528 -0.056133024 75 20
1.1132299 0.59963512 -0.085116483 27 19
1.1726593 0.44711113 -0.10953437 72 18
1.1942891 0.45484403 -0.17270987 17 16
1.1137819 0.42145965 0.18080939 133 28
1.1289612 0.42715821 0.11204008 95 26
1.1374422 0.43034285 0.055084899 80 24
1.0953872 0.58554977 0.028027033 55 23
1.1433988 0.43235618 0 78 22
1.1132095 0.59462196 -0.028491249 41 21
1.156293 0.43697494 -0.056016568 78 20
1.1131188 0.59456629 -0.084943838 27 19
1.1765442 0.44388989 -0.10975791 72 18
1.1935509 0.44980317 -0.17236581 16 16
1.1129316 0.41670749 0.18042305 134 28
1.1257073 0.4216747 0.11156433 94 26
1.1412777 0.42724109 0.055201355 80 24
1.0952184 0.58054763 0.027969005 52 23
1.1425577 0.4274905 0 80 22
1.1173813 0.59210163 -0.028549276 40 21
1.160152 0.43380657 -0.056133024 76 20
1.1195908 0.59302044 -0.085289136 25 19
1.1756755 0.4391188 -0.10953437 72 18
1.199679 0.44756576 -0.17305391 17 16
1.1119896 0.41216052 0.18003669 129 28
1.1248372 0.41688213 0.11132645 93 26
1.1450315 0.42431766 0.055317819 81 24
1.0905081 0.57340986 0.027794925 52 23
1.1510071 0.42629153 0 77 22
1.1194413 0.58819765 -0.028549276 41 21
1.1592406 0.42909425 -0.056016568 76 20
1.1149343 0.5858115 -0.084771179 26 19
1.1795382 0.43587121 -0.10975791 64 18
1.1989094 0.44252199 -0.17270987 16 16
1.1180626 0.40996841 0.18080939 128 28
1.1262854 0.41295317 0.11132645 93 26
1.0922432 0.5699423 0.083289899 6 25
1.1441593 0.41946283 0.055201355 80 24
1.0926025 0.56940907 0.027794925 64 23
1.1454412 0.41970348 0 79 22
1.1170592 0.58196831 -0.028433222 40 21
1.1608056 0.42484254 -0.056016568 74 20
1.1169724 0.58191609 -0.084771179 24 19
1.190413 0.43515444 -0.11065206 20 18
1.2027743 0.4391796 -0.17305391 16 16
1.1218815 0.40670523 0.18119575 127 28
1.1277915 0.40882233 0.11132645 93 26
1.0987509 0.56823528 0.08363694 7 25
1.1433398 0.41441974 0.055084899 76 24
1.0945834 0.56559169 0.027794925 69 23
1.1516758 0.41719693 0 76 22
1.1236217 0.58017212 -0.028549276 39 21
1.1693305 0.42332575 -0.056365941 31 20
1.1213117 0.5789668 -0.084943838 26 19
1.1943431 0.43163067 -0.11087561 8 18
1.204376 0.43476826 -0.17305391 16 16
1.1163146 0.40029854 0.18003669 129 28
1.1315559 0.40571877 0.11156433 94 26
1.1051617 0.56668109 0.08398398 23 25
1.1471317 0.41126472 0.055201355 78 24
1.0965511 0.56176746 0.027794925 60 23
1.1578352 0.41485241 0 29 22
1.1189724 0.57281679 -0.028375195 39 21
1.1684484 0.41840374 -0.056249484 9 20
1.1211079 0.57390833 -0.084771179 25 19
1.1934963 0.42662492 -0.11065206 8 18
1.2035527 0.42973289 -0.17270987 18 16
1.1177051 0.39639944 0.18003669 126 28
1.1305481 0.40113628 0.11132645 92 26
1.0938073 0.55601251 0.082942858 99 25
1.1532706 0.40891859 0.055434272 42 24
1.1029575 0.5602088 0.027910979 55 23
1.1569183 0.4099775 0 9 22
1.1208658 0.56910294 -0.028375195 38 21
1.1699018 0.41432256 -0.056249484 8 20
1.1231043 0.56999147 -0.084771179 26 19
1.1925558 0.42183858 -0.11042853 8 18
1.2049712 0.42573944 -0.17270987 17 16
1.1190134 0.39269084 0.18003669 120 28
1.136641 0.39882684 0.1118022 37 26
1.0889709 0.54900068 0.082422301 110 25
1.1522623 0.40426952 0.055317819 10 24
1.104809 0.55654818 0.027910979 56 23
1.1606321 0.40696171 0 8 22
1.1250758 0.566315 -0.028433222 38 21
1.1759857 0.4120841 -0.056482401 8 20
1.1249884 0.56626403 -0.084771179 26 19
1.1987245 0.41930932 -0.11087561 8 18
1.211128 0.42315611 -0.17339796 25 16
1.1203774 0.38878235 0.18003669 105 28
1.1427314 0.3964797 0.11227795 10 26
1.0931094 0.54631555 0.082595818 111 25
1.1583881 0.40187341 0.055550735 9 24
1.106745 0.55268824 0.027910979 60 23
1.1596822 0.40209314 0 9 22
1.1248114 0.56126398 -0.028375195 38 21
1.1726948 0.40634978 -0.056249484 8 20
1.1291876 0.56345147 -0.084943838 28 19
1.2001809 0.41512242 -0.11087561 8 18
1.1690878 0.58345133 -0.14556599 7 17
1.2032303 0.41570777 -0.17202178 33 16
1.119457 0.38387656 0.17965037 99 28
1.1418215 0.3914859 0.11204008 10 26
1.0951045 0.54230541 0.082595818 109 25
1.1645808 0.39923626 0.055783652 9 24
1.1020496 0.54528958 0.027736897 61 23
1.1587816 0.3970339 0 9 22
1.1268611 0.55713761 -0.028375195 36 21
1.1765403 0.40285364 -0.056365941 8 20
1.1245446 0.55597985 -0.084425882 29 19
1.2016943 0.41072077 -0.11087561 8 18
1.1578723 0.57253158 -0.14386015 10 17
1.2000563 0.40970305 -0.1713337 38 16
1.1207901 0.37996659 0.17965037 99 28
1.1407552 0.3869023 0.1118022 38 26
1.0947541 0.53737611 0.082422301 107 25
1.1565011 0.39197928 0.055317819 26 24
1.1129135 0.54585952 0.027969005 59 23
1.1601604 0.3929866 0 9 22
1.1264606 0.55229318 -0.028317168 37 21
1.1826731 0.40033734 -0.056598857 8 20
1.1264783 0.55205107 -0.084425882 30 19
1.2030497 0.40673354 -0.11087561 8 18
1.153179 0.56519419 -0.1430072 19 17
1.2084506 0.40808576 -0.17236581 65 16
1.131417 0.37937132 0.18119575 107 28
1.1326547 0.37977085 0.11085069 88 26
1.0987704 0.5348388 0.082595818 106 25
1.1601638 0.38893148 0.055434272 81 24
1.1102266 0.53997076 0.027852951 38 23
1.168573 0.39150703 0 36 22
1.1283815 0.54835773 -0.028317168 37 21
1.1863637 0.39720196 -0.056715317 25 20
1.1327851 0.55050147 -0.084771179 29 19
1.2044622 0.40253162 -0.11087561 8 18
1.1617426 0.56463701 -0.14386015 20 17
1.2028173 0.40152511 -0.1713337 73 16
1.1256964 0.3731015 0.18003669 102 28
1.1339734 0.37581483 0.11085069 95 26
1.0961425 0.52882373 0.082248777 104 25
1.1543986 0.38253573 0.055084899 84 24
1.1076994 0.53371924 0.027736897 14 23
1.1604339 0.38429895 0 80 22
1.1325383 0.54550451 -0.028375195 39 21
1.1735774 0.38817111 -0.056016568 69 20
1.1324549 0.54545736 -0.084598534 28 19
1.1987628 0.39599413 -0.11020498 41 18
1.1593326 0.55821162 -0.14329153 17 17
1.2089173 0.39886755 -0.17202178 73 16
1.1374412 0.37193134 0.26886249 92 30
1.1247076 0.36820909 0.17965037 97 28
1.1377099 0.37242597 0.11108857 92 26
1.0980732 0.52480263 0.082248777 103 25
1.1605424 0.37984714 0.055317819 83 24
1.111809 0.53093094 0.027794925 8 23
1.1618347 0.38004312 0 85 22
1.1322767 0.5402692 -0.028317168 49 21
1.1749253 0.38407221 -0.056016568 78 20
1.1344465 0.54130298 -0.084598534 28 19
1.1978376 0.39082962 -0.10998145 70 18
1.1612741 0.55416143 -0.14329153 13 17
1.2056597 0.39290768 -0.1713337 71 16
1.1294564 0.36498043 0.26660788 89 30
1.1259861 0.36428088 0.17965037 97 28
1.1390029 0.36845237 0.11108857 93 26
1.0998986 0.52096641 0.082248777 102 25
1.1594837 0.3750295 0.055201355 85 24
1.1113985 0.52597308 0.027736897 8 23
1.1655344 0.3767499 0 83 22
1.1273835 0.533095 -0.028143087 56 21
1.1762587 0.37996858 -0.056016568 79 20
1.1363291 0.53733975 -0.084598534 26 19
1.1968234 0.38588607 -0.10975791 73 18
1.1654446 0.55117059 -0.14357583 13 17
1.2140987 0.39096147 -0.17236581 72 16
1.1214371 0.3580898 0.26435325 105 30
1.1272508 0.36034825 0.17965037 97 28
1.144962 0.36618075 0.11156433 89 26
1.0994549 0.51605958 0.082075261 103 25
1.1607857 0.37097988 0.055201355 79 24
1.117749 0.5242219 0.027852951 8 23
1.1644595 0.37192282 0 84 22
1.1268841 0.52828813 -0.028085059 60 21
1.177578 0.37586036 -0.056016568 79 20
1.1359414 0.53230727 -0.084425882 24 19
1.209965 0.38567549 -0.11087561 72 18
1.1583734 0.54286569 -0.14243859 17 17
1.2177495 0.38768032 -0.17270987 74 16
1.110998 0.3507252 0.26153499 142 30
1.1260829 0.35586828 0.17926401 97 28
1.1414845 0.36069095 0.11108857 92 26
1.1079372 0.51558113 0.082595818 103 25
1.1620096 0.36712855 0.055201355 84 24
1.1172171 0.51945424 0.027794925 8 23
1.1704571 0.36955613 0 82 22
1.1287212 0.52435136 -0.028085059 63 21
1.1788177 0.37195331 -0.056016568 78 20
1.1467396 0.53275824 -0.085116483 21 19
1.2065512 0.37996203 -0.11042853 61 18
1.1646683 0.54112315 -0.1430072 17 17
1.2167318 0.38268834 -0.17236581 70 16
1.1029092 0.3439624 0.25928038 156 30
1.1296775 0.352667 0.17965037 97 28
1.1474906 0.35817853 0.11156433 92 26
1.1029421 0.508564 0.082075261 100 25
1.1632841 0.36307013 0.055201355 82 24
1.1213816 0.51640582 0.027852951 8 23
1.1741279 0.36620834 0 81 22
1.1305448 0.52040815 -0.028085059 64 21
1.1801732 0.36763027 -0.056016568 74 20
1.1485924 0.52875209 -0.085116483 17 19
1.2031124 0.37427709 -0.10998145 10 18
1.1711524 0.53893608 -0.14357583 16 17
1.2227921 0.37990001 -0.17305391 15 16
1.1134793 0.34276617 0.26153499 148 30
1.1309624 0.34852415 0.17965037 97 28
1.1535548 0.35542724 0.11204008 90 26
1.1093317 0.50659925 0.082422301 96 25
1.162219 0.35807312 0.055084899 80 24
1.1209056 0.5114463 0.027794925 8 23
1.1706809 0.36043978 0 79 22
1.1324445 0.51626104 -0.028085059 64 21
1.19339 0.3671591 -0.056598857 27 20
1.1437207 0.52142173 -0.084598534 22 19
1.2187655 0.3742255 -0.11132269 8 18
1.1685106 0.53277516 -0.1430072 17 17
1.2170705 0.37324998 -0.17202178 8 16
1.1170008 0.33958131 0.26209864 139 30
1.1345364 0.34528893 0.18003669 97 28
1.1523452 0.35087943 0.1118022 89 26
1.106553 0.50065857 0.082075261 76 25
1.1682427 0.35545924 0.055317819 79 24
1.1204085 0.50649637 0.027736897 8 23
1.1767182 0.35779715 0 32 22
1.1295992 0.51043552 -0.027969005 65 21
1.1946645 0.36299118 -0.056598857 8 20
1.1432629 0.51639509 -0.084425882 24 19
1.2152319 0.36874413 -0.11087561 8 18
1.1726248 0.52971995 -0.14329153 18 17
1.2254146 0.37135413 -0.17305391 7 16
1.1157867 0.33517906 0.26153499 137 30
1.1356751 0.34152478 0.18003669 97 28
1.0913831 0.48985201 0.14177637 96 27
1.1607167 0.34899151 0.11251584 90 26
1.1104807 0.49801144 0.082248777 66 25
1.1765935 0.35372734 0.055667192 48 24
1.1311972 0.50688434 0.027969005 9 23
1.1707118 0.35174787 0 9 22
1.1336533 0.50751513 -0.028027033 65 21
1.1958616 0.35902753 -0.056598857 8 20
1.1426948 0.51157755 -0.084253237 25 19
1.2236708 0.36663151 -0.11154622 8 18
1.169845 0.52378982 -0.1427229 18 17
1.2267034 0.36707437 -0.17305391 7 16
1.1239592 0.33334646 0.26322594 136 30
1.1344912 0.33685985 0.17965037 97 28
1.1021483 0.490091 0.14298813 118 27
1.1571537 0.34352994 0.11204008 54 26
1.1122124 0.4941321 0.082248777 62 25
1.1706352 0.3474991 0.055317819 10 24
1.1239173 0.4986622 0.027736897 37 23
1.1839225 0.35119262 0 8 22
1.1331352 0.50253707 -0.027969005 66 21
1.2019609 0.35605225 -0.056831781 8 20
1.1467514 0.50860131 -0.084425882 26 19
1.2177765 0.36025131 -0.11087561 8 18
1.1694883 0.51848751 -0.14243859 17 17
1.2279773 0.36279017 -0.17305391 8 16
1.2741821 0.37422433 -0.37005523 21 13
1.1251733 0.32922471 0.26322594 131 30
1.13809 0.33338937 0.18003669 96 28
1.1062062 0.48705274 0.14329107 129 27
1.1655738 0.34137186 0.11275371 12 26
1.1094544 0.4880347 0.081901737 66 25
1.1814926 0.34599638 0.055783652 9 24
1.1233652 0.49372578 0.027678872 59 23
1.1852018 0.34685099 0 8 22
1.1349696 0.49838057 -0.027969005 65 21
1.1984003 0.35046101 -0.056598857 8 20
1.1463263 0.50338757 -0.084253237 26 19
1.2214801 0.3564789 -0.11109914 8 18
1.1667465 0.51239586 -0.14186998 15 17
1.2292987 0.35828695 -0.17305391 8 16
1.2731709 0.36910897 -0.36936739 23 13
1.1309983 0.32663783 0.26435325 128 30
1.1392468 0.32941467 0.18003669 95 28
1.1056269 0.48219174 0.14298813 129 27
1.1619742 0.33592758 0.11227795 10 26
1.1157197 0.4861607 0.082248777 67 25
1.1802928 0.34118092 0.055667192 9 24
1.129661 0.49180594 0.027794925 67 23
1.1912113 0.34409076 0 8 22
1.1412821 0.49641854 -0.028085059 63 21
1.2044173 0.34765238 -0.056831781 8 20
1.1480764 0.49938309 -0.084253237 28 19
1.2179292 0.35084283 -0.11065206 8 18
1.168528 0.50832003 -0.14186998 14 17
1.2281611 0.35331327 -0.17270987 8 16
1.2836993 0.36729157 -0.37211871 22 13
1.1321316 0.32268792 0.26435325 124 30
1.1380134 0.32476264 0.17965037 96 28
1.1073034 0.47832942 0.14298813 125 27
1.1654762 0.33275136 0.11251584 13 26
1.1242734 0.4852418 0.082769342 47 25
1.1838793 0.33773968 0.055783652 9 24
1.1221983 0.48388281 0.027562818 65 23
1.1875944 0.3385683 0 8 22
1.1406288 0.49163738 -0.028027033 64 21
1.2008176 0.34208611 -0.056598857 8 20
1.1521012 0.49636379 -0.084425882 30 19
1.2142937 0.34544781 -0.11020498 8 18
1.1748536 0.50621247 -0.14243859 15 17
1.2364752 0.35125625 -0.17374198 9 16
1.1331954 0.31893185 0.26435325 122 30
1.1414627 0.32165247 0.18003669 98 28
1.1111628 0.47563601 0.14329107 123 27
1.1618372 0.32734004 0.11204008 73 26
1.1235852 0.48052561 0.082595818 24 25
1.1801828 0.33246624 0.055550735 57 24
1.1237968 0.48015887 0.027562818 56 23
1.1935259 0.33597454 0 24 22
1.1446346 0.48863864 -0.028085059 63 21
1.2043506 0.33877417 -0.056715317 17 20
1.151449 0.49155688 -0.084253237 35 19
1.2202892 0.34254459 -0.11065206 8 18
1.1833732 0.50525272 -0.14329153 20 17
1.228152 0.34428108 -0.17236581 59 16
1.1343018 0.31497434 0.26435325 119 30
1.1354357 0.31569463 0.17887768 101 28
1.108251 0.46980798 0.14268519 120 27
1.1605738 0.32262039 0.1118022 95 26
1.1252557 0.47660065 0.082595818 9 25
1.1765217 0.32701579 0.055317819 81 24
1.137049 0.48092753 0.027852951 24 23
1.1802315 0.32781789 0 73 22
1.1486335 0.48561797 -0.028143087 46 21
1.1983612 0.3323682 -0.056365941 65 20
1.1531578 0.48753458 -0.084253237 47 19
1.2214775 0.33828288 -0.11065206 44 18
1.1829309 0.49994075 -0.1430072 22 17
1.2269585 0.33933601 -0.17202178 73 16
1.137799 0.31145337 0.2649169 119 30
1.1461184 0.31412464 0.18042305 105 28
1.1122516 0.46670777 0.14298813 118 27
1.1617486 0.31836447 0.1118022 95 26
1.1338893 0.47537977 0.083116382 8 25
1.172893 0.32139021 0.055084899 83 24
1.1295074 0.47307503 0.027620843 9 23
1.1838374 0.32414585 0 82 22
1.1550131 0.48334336 -0.028259141 16 21
1.1946943 0.3268736 -0.056133024 78 20
1.1526383 0.4823375 -0.084080584 52 19
1.2154995 0.33184892 -0.10998145 71 18
1.1869583 0.49677181 -0.14329153 21 17
1.2258039 0.33418953 -0.17167772 72 16
1.1974956 0.50167745 -0.22027856 13 15
1.1365266 0.30684942 0.26435325 116 30
1.1448224 0.30948189 0.18003669 105 28
1.1115843 0.46186557 0.14268519 118 27
1.1627979 0.31451023 0.1118022 95 26
1.1332403 0.470458 0.082942858 8 25
1.1836555 0.31988281 0.055550735 81 24
1.1403787 0.47297779 0.027852951 8 23
1.1825469 0.31936404 0 84 22
1.1566094 0.47951055 -0.028259141 8 21
1.1982403 0.32334772 -0.056249484 78 20
1.1497105 0.4763926 -0.08373528 60 19
1.2165933 0.32781637 -0.10998145 71 18
1.1840997 0.49071494 -0.1427229 18 17
1.2269052 0.3301228 -0.17167772 73 16
1.1992394 0.49749437 -0.22027856 13 15
1.1398927 0.30370149 0.2649169 113 30
1.1434548 0.30505162 0.17965037 104 28
1.110817 0.45722759 0.14238225 115 27
1.1638887 0.31044939 0.1118022 95 26
1.1394033 0.46860382 0.083289899 8 25
1.1798816 0.31467754 0.055317819 83 24
1.1327012 0.46537578 0.027620843 8 23
1.1835995 0.3154408 0 84 22
1.1513455 0.47260943 -0.028085059 8 21
1.199306 0.31937242 -0.056249484 76 20
1.1535892 0.47352898 -0.083907925 63 19
1.2177302 0.32356769 -0.10998145 71 18
1.1857204 0.48678565 -0.1427229 17 17
1.2328391 0.32709983 -0.17236581 73 16
1.1986063 0.4925743 -0.21984917 12 15
1.1409458 0.29972067 0.2649169 114 30
1.1469023 0.30168223 0.18003669 103 28
1.1169984 0.45522985 0.14298813 113 27
1.1649653 0.3063848 0.1118022 95 26
1.1318005 0.46084315 0.082595818 8 25
1.1809728 0.3105571 0.055317819 83 24
1.1413395 0.46405905 0.027794925 8 23
1.1871126 0.31193838 0 83 22
1.1576154 0.47047868 -0.028201113 8 21
1.2004685 0.31497461 -0.056249484 76 20
1.1529267 0.46855581 -0.08373528 65 19
1.2236719 0.32056862 -0.11042853 49 18
1.182898 0.48055792 -0.14215429 18 17
1.2363702 0.32341695 -0.17270987 47 16
1.2004037 0.4881779 -0.21984917 11 15
1.1420368 0.29553688 0.2649169 111 30
1.1432161 0.29624641 0.17926401 101 28
1.1163599 0.45019999 0.14268519 113 27
1.1684906 0.30273265 0.11204008 95 26
1.1334819 0.4566918 0.082595818 8 25
1.1821032 0.30622652 0.055317819 82 24
1.1360023 0.45725852 0.027620843 8 23
1.1906691 0.30820742 0 83 22
1.161649 0.46716979 -0.028259141 8 21
1.2015606 0.31078228 -0.056249484 67 20
1.1592604 0.46619716 -0.084080584 63 19
1.2224264 0.31546351 -0.11020498 9 18
1.1868708 0.47735715 -0.14243859 18 17
1.2399461 0.31949696 -0.17305391 9 16
1.2021004 0.48398471 -0.21984917 11 15
1.1383389 0.29035366 0.26378959 109 30
1.1394547 0.2910406 0.17849132 102 28
1.1202275 0.44722518 0.14298813 110 27
1.174365 0.29987466 0.11251584 95 26
1.1350693 0.45273241 0.082595818 8 25
1.1855855 0.30271178 0.055434272 80 24
1.1399117 0.45422018 0.027678872 8 23
1.1941612 0.30466306 0 80 22
1.1609523 0.462183 -0.028201113 8 21
1.214743 0.30964917 -0.056831781 23 20
1.1562499 0.46029371 -0.08373528 64 19
1.2331769 0.31363273 -0.11109914 8 18
1.1908357 0.4741345 -0.1427229 17 17
1.245856 0.31637746 -0.17374198 7 16
1.2037826 0.47978565 -0.21984917 11 15
1.1392955 0.28657719 0.26378959 109 30
1.1428099 0.2878592 0.17887768 100 28
1.1217043 0.44350794 0.14298813 106 27
1.1656955 0.29356542 0.11156433 90 26
1.138882 0.44988683 0.082769342 8 25
1.1865829 0.29877856 0.055434272 81 24
1.1414115 0.45043758 0.027678872 8 23
1.2024416 0.30251834 0 32 22
1.1624786 0.4583306 -0.028201113 10 21
1.218186 0.30622375 -0.056948237 8 20
1.1624068 0.45829558 -0.084080584 63 19
1.2269616 0.30773705 -0.11042853 8 18
1.1900926 0.46926737 -0.14243859 18 17
1.2396892 0.31045219 -0.17270987 7 16
1.2099451 0.47760838 -0.22070795 11 15
1.1402888 0.28259856 0.26378959 109 30
1.1486045 0.28504914 0.17965037 102 28
1.1186274 0.43777153 0.14238225 100 27
1.171546 0.29068434 0.11204008 89 26
1.1450872 0.44773433 0.083116382 8 25
1.1948934 0.29642567 0.055783652 60 24
1.1477076 0.44807824 0.027794925 10 23
1.1962074 0.29652768 0 9 22
1.161745 0.45335686 -0.028143087 39 21
1.2314264 0.30473527 -0.05753053 8 20
1.1593562 0.45241275 -0.08373528 64 19
1.2425383 0.30701086 -0.11176977 8 18
1.1894923 0.46399525 -0.14215429 18 17
1.2455754 0.30730096 -0.17339796 8 16
1.2071028 0.47137004 -0.21984917 12 15
1.1413169 0.27841729 0.26378959 107 30
1.1520419 0.28141904 0.18003669 101 28
1.1109749 0.43006611 0.14117049 87 27
1.1726036 0.28638846 0.11204008 87 26
1.1420722 0.4417257 0.082769342 8 25
1.1911175 0.29086807 0.055550735 10 24
1.1422759 0.4413529 0.027620843 38 23
1.2021457 0.29331791 0 8 22
1.1564093 0.4463819 -0.027969005 60 21
1.2324826 0.30043495 -0.05753053 8 20
1.1610067 0.44816047 -0.08373528 64 19
1.2388142 0.30128622 -0.11132269 8 18
1.1934201 0.46073928 -0.14243859 18 17
1.2466935 0.30273363 -0.17339796 8 16
1.2087407 0.46715358 -0.21984917 11 15
1.1422819 0.27443168 0.26378959 107 30
1.1530173 0.27739593 0.18003669 102 28
1.1171005 0.42797056 0.14177637 80 27
1.1760168 0.28287113 0.11227795 88 26
1.1436071 0.43773645 0.082769342 24 25
1.2091293 0.29076561 0.056365941 8 24
1.1391442 0.4355683 0.027504789 62 23
1.2031623 0.28911984 0 8 22
1.1556273 0.4414461 -0.027910979 65 21
1.2383825 0.29728848 -0.057763446 8 20
1.1625639 0.44410509 -0.08373528 62 19
1.2422808 0.2975359 -0.11154622 8 18
1.1996582 0.45835251 -0.1430072 21 17
1.250152 0.29895175 -0.17374198 8 16
1.2126627 0.46381569 -0.22027856 10 15
1.1456043 0.27099887 0.26435325 107 30
1.156383 0.27393433 0.18042305 101 28
1.1185875 0.42406857 0.14177637 73 27
1.1721032 0.27783069 0.1118022 90 26
1.1427976 0.43285379 0.082595818 58 25
1.2052747 0.28540099 0.056133024 8 24
1.1406577 0.43158928 0.027504789 67 23
1.2041641 0.28491828 0 8 22
1.1594208 0.43850023 -0.027969005 65 21
1.23455 0.29182336 -0.05753053 8 20
1.1641071 0.44004422 -0.08373528 62 19
1.2408364 0.29284695 -0.11132269 8 18
1.1966075 0.45239648 -0.14243859 26 17
1.2583699 0.29649574 -0.17477413 8 16
1.2142743 0.45957986 -0.22027856 10 15
1.1488698 0.26774672 0.2649169 107 30
1.1548786 0.2695412 0.18003669 102 28
1.1176661 0.41948009 0.14147343 72 27
1.1754904 0.27429867 0.11204008 89 26
1.1395599 0.42730108 0.082248777 60 25
1.2135134 0.28309169 0.056482401 8 24
1.1420826 0.42780435 0.027504789 66 23
1.2051024 0.28092355 0 8 22
1.1609443 0.43445042 -0.027969005 65 21
1.2282114 0.28604126 -0.057181153 8 20
1.1655599 0.43618152 -0.08373528 62 19
1.2394245 0.28795454 -0.11109914 8 18
1.1981012 0.44842592 -0.14243859 31 17
1.2545711 0.29099074 -0.17408603 27 16
1.2134871 0.45468211 -0.21984917 11 15
1.1474222 0.26319477 0.26435325 105 30
1.1323128 0.42160439 0.22637863 97 29
1.1534042 0.26495984 0.17965037 101 28
1.116799 0.41470748 0.14117049 49 27
1.1837202 0.27185166 0.11275371 87 26
1.1480539 0.42593724 0.082769342 34 25
1.2096244 0.27774495 0.056249484 33 24
1.1436429 0.42361552 0.027504789 60 23
1.2036378 0.27616048 0 15 22
1.1624538 0.43039533 -0.027969005 65 21
1.2292514 0.28153771 -0.057181153 18 20
1.1694124 0.43298087 -0.083907925 62 19
1.2404221 0.28362641 -0.11109914 9 18
1.1950812 0.44229844 -0.14186998 39 17
1.2531639 0.28606275 -0.17374198 70 16
1.2128376 0.44937125 -0.21941976 10 15
1.1507562 0.2595188 0.2649169 105 30
1.1200395 0.41233438 0.22353706 126 29
1.1519573 0.26019096 0.17926401 102 28
1.1206392 0.41147158 0.14147343 28 27
1.1847087 0.26751128 0.11275371 84 26
1.151947 0.42259014 0.082942858 13 25
1.2008864 0.2711271 0.055783652 75 24
1.1521497 0.42221487 0.027678872 36 23
1.2046421 0.27174711 0 68 22
1.1616782 0.42526799 -0.027910979 56 21
1.2156038 0.2739765 -0.056482401 66 20
1.1780125 0.43127784 -0.084425882 62 19
1.2438837 0.27962005 -0.11132269 56 18
1.1989486 0.43898267 -0.14215429 52 17
1.2445359 0.27931553 -0.17236581 73 16
1.212088 0.44428295 -0.21899037 10 15
1.1683068 0.25916147 0.26886249 98 30
1.112253 0.40504298 0.22164267 159 29
1.1528586 0.25616831 0.17926401 102 28
1.1220688 0.40755728 0.14147343 10 27
1.19045 0.26465252 0.11322946 60 26
1.1534151 0.41856652 0.082942858 8 25
1.1993866 0.26639649 0.055667192 80 24
1.1489204 0.41647765 0.027562818 11 23
1.2031417 0.26700321 0 83 22
1.1701263 0.42398152 -0.028085059 27 21
1.2189918 0.27026784 -0.056598857 77 20
1.1771674 0.42630935 -0.084253237 40 19
1.2399399 0.27442595 -0.11087561 70 18
1.2028072 0.43564513 -0.14243859 64 17
1.250293 0.27624702 -0.17305391 72 16
1.2113178 0.43920532 -0.21856098 10 15
1.1182051 0.40302673 0.22258987 178 29
1.1537017 0.25234389 0.17926401 101 28
1.1210804 0.40298989 0.14117049 9 27
1.1889343 0.25996831 0.11299159 61 26
1.1501058 0.41304404 0.082595818 8 25
1.2027041 0.26294672 0.055783652 81 24
1.1526461 0.41351405 0.027620843 8 23
1.2064638 0.26354113 0 81 22
1.1763015 0.42159012 -0.028201113 9 21
1.2174406 0.26569587 -0.056482401 78 20
1.183267 0.42409548 -0.084598534 12 19
1.2433242 0.27062142 -0.11109914 70 18
1.1972358 0.42912638 -0.14158568 63 17
1.2488289 0.27135941 -0.17270987 71 16
1.2174004 0.43685853 -0.21941976 11 15
1.1172948 0.39829198 0.22211629 175 29
1.1642385 0.25037435 0.18080939 98 28
1.1178074 0.39740187 0.14056461 9 27
1.1947025 0.25685394 0.11346734 65 26
1.1515406 0.40902689 0.082595818 8 25
1.2011722 0.25822639 0.055667192 86 24
1.1518 0.40844655 0.027562818 8 23
1.2049313 0.25880757 0 82 22
1.1754121 0.41664186 -0.028143087 8 21
1.2159634 0.26071271 -0.056365941 77 20
1.1776929 0.41744897 -0.084080584 8 19
1.2418256 0.2657629 -0.11087561 69 18
1.2011402 0.42556939 -0.14186998 62 17
1.2643033 0.27007741 -0.17477413 70 16
1.2189934 0.43239361 -0.21941976 11 15
1.2270159 0.43571976 -0.29022515 10 14
1.123374 0.3958354 0.22306347 167 29
1.1627307 0.2455996 0.18042305 99 28
1.1239355 0.39495736 0.14117049 9 27
1.1932 0.25196365 0.11322946 68 26
1.1530319 0.40480351 0.082595818 8 25
1.2069992 0.25484523 0.055900108 83 24
1.1532187 0.40442353 0.027562818 8 23
1.2058718 0.25438952 0 80 22
1.1816453 0.41399297 -0.028259141 8 21
1.2241997 0.2579987 -0.056715317 74 20
1.1815672 0.41395894 -0.084253237 8 19
1.2476665 0.26222545 -0.11132269 33 18
1.2049608 0.4221999 -0.14215429 66 17
1.2580117 0.26392892 -0.17374198 31 16
1.2228179 0.42895561 -0.21984917 10 15
1.2354981 0.43365395 -0.29189953 9 14
1.1224325 0.39109913 0.22258987 163 29
1.1684195 0.24253441 0.18119575 96 28
1.1346769 0.39430922 0.14238225 8 27
1.1891969 0.24679452 0.11275371 57 26
1.1567924 0.40159887 0.082769342 8 25
1.2029892 0.24962446 0.055667192 83 24
1.1617026 0.4028663 0.027736897 8 23
1.2092012 0.25068182 0 78 22
1.1783633 0.4082202 -0.028143087 8 21
1.2275392 0.25422603 -0.056831781 65 20
1.1877149 0.41147402 -0.084598534 8 19
1.2558925 0.2593669 -0.1119933 8 18
1.2017367 0.41635594 -0.14158568 63 17
1.2710557 0.26201499 -0.17546222 8 16
1.2243079 0.42468455 -0.21984917 10 15
1.2347037 0.42853516 -0.29134139 9 14
1.1214716 0.38637432 0.22211629 159 29
1.1692591 0.2384544 0.18119575 97 28
1.1290107 0.38791242 0.14147343 8 27
1.199766 0.24482235 0.11370522 39 26
1.1581873 0.39755845 0.082769342 8 25
1.2038532 0.24542373 0.055667192 86 24
1.1607392 0.39799345 0.027678872 8 23
1.2100688 0.24645938 0 72 22
1.1820731 0.40512529 -0.028201113 8 21
1.2406591 0.25240761 -0.05741407 13 20
1.1773548 0.40326163 -0.08373528 17 19
1.2543046 0.25470948 -0.11176977 7 18
1.2055308 0.41296798 -0.14186998 66 17
1.2719176 0.25779858 -0.17546222 8 16
1.2304389 0.42201522 -0.22070795 11 15
1.2338148 0.42364264 -0.29078329 9 14
1.1250687 0.38345 0.22258987 153 29
1.1700433 0.23457567 0.18119575 97 28
1.1302909 0.38416636 0.14147343 8 27
1.1981723 0.24014825 0.11346734 39 26
1.1642191 0.39532885 0.083116382 8 25
1.2046605 0.24143025 0.055667192 82 24
1.1644179 0.39494962 0.027736897 8 23
1.2133317 0.24293174 0 23 22
1.1882113 0.40261003 -0.028317168 12 21
1.23659 0.24732105 -0.057181153 8 20
1.1857672 0.40177009 -0.084253237 40 19
1.2600715 0.25129515 -0.11221685 7 18
1.2092445 0.40976971 -0.14215429 64 17
1.2752391 0.25383645 -0.17580625 7 16
1.2295009 0.41713694 -0.22027856 11 15
1.2398982 0.42090872 -0.29189953 9 14
1.1264002 0.37952045 0.22258987 151 29
1.1732794 0.23096259 0.18158208 85 28
1.1339756 0.38101378 0.14177637 9 27
1.1990033 0.23596439 0.11346734 38 26
1.156141 0.38806906 0.082422301 8 25
1.2103982 0.2381793 0.055900108 81 24
1.1658577 0.39067915 0.027736897 9 23
1.221534 0.24012856 0 8 22
1.1848726 0.39686304 -0.028201113 39 21
1.2374882 0.24278706 -0.057181153 8 20
1.1777089 0.3944416 -0.083562627 58 19
1.260941 0.24689515 -0.11221685 7 18
1.2107382 0.40533486 -0.14215429 62 17
1.2761173 0.24938349 -0.17580625 7 16
1.2216868 0.40947905 -0.21856098 10 15
1.2413598 0.41657808 -0.29189953 9 14
1.1254562 0.37460932 0.22211629 143 29
1.1741179 0.22666074 0.18158208 78 28
1.1306572 0.37528181 0.14117049 10 27
1.2023045 0.2320354 0.11370522 36 26
1.1646525 0.38619807 0.082942858 8 25
1.2112629 0.23374137 0.055900108 79 24
1.1648433 0.38581663 0.027678872 33 23
1.2297728 0.23705646 0 8 22
1.1792055 0.3901484 -0.028027033 60 21
1.2383281 0.23846595 -0.057181153 8 20
1.1791468 0.39012241 -0.083562627 64 19
1.254499 0.24087602 -0.11154622 8 18
1.2097892 0.40032125 -0.14186998 63 17
1.2697246 0.243319 -0.17477413 7 16
1.2231088 0.40521207 -0.21856098 10 15
1.2475015 0.41356793 -0.29301578 9 14
1.1314174 0.37222242 0.22306347 133 29
1.174902 0.22256093 0.18158208 88 28
1.1390294 0.37366796 0.14207931 11 27
1.2030673 0.22804713 0.11370522 36 26
1.1612567 0.38056746 0.082595818 21 25
1.2120715 0.22951186 0.055900108 79 24
1.156688 0.3786191 0.027446764 57 23
1.230593 0.23276232 0 8 22
1.1804929 0.38623589 -0.028027033 64 21
1.2342436 0.23322316 -0.056948237 8 20
1.1805013 0.38600409 -0.083562627 63 19
1.2577387 0.23717181 -0.11176977 8 18
1.2111791 0.3960959 -0.14186998 64 17
1.275393 0.24001472 -0.17546222 7 16
1.2245158 0.40094015 -0.21856098 10 15
1.2465519 0.40866524 -0.29245764 9 14
1.1303127 0.36770421 0.22258987 120 29
1.1780628 0.21911074 0.18196844 85 28
1.1331855 0.36757702 0.14117049 45 27
1.203856 0.22384626 0.11370522 37 26
1.1601413 0.37594095 0.082422301 57 25
1.2103701 0.22503914 0.055783652 79 24
1.1603135 0.37555566 0.027504789 64 23
1.2313579 0.22868024 0 8 22
1.1818337 0.38211283 -0.028027033 64 21
1.2374665 0.22958024 -0.057064697 8 20
1.1841465 0.3828592 -0.08373528 62 19
1.2561096 0.23233138 -0.11154622 8 18
1.2148479 0.39284608 -0.14215429 64 17
1.2713513 0.23467068 -0.17477413 10 16
1.2305218 0.39840347 -0.21941976 10 15
1.2526045 0.4058224 -0.29357389 9 14
1.1292541 0.36300036 0.22211629 119 29
1.1788205 0.2149972 0.18196844 82 28
1.139185 0.36514387 0.14177637 76 27
1.202181 0.21920067 0.11346734 36 26
1.1495783 0.3680625 0.081554696 64 25
1.2209784 0.22258686 0.056249484 75 24
1.1616821 0.3713004 0.027504789 64 23
1.2296883 0.22393702 0 8 22
1.1807811 0.37721989 -0.027969005 64 21
1.2407573 0.22548538 -0.057181153 8 20
1.1854757 0.37872344 -0.08373528 62 19
1.2569128 0.22794534 -0.11154622 8 18
1.2186443 0.38915092 -0.14243859 63 17
1.2721628 0.2302314 -0.17477413 59 16
1.2296295 0.39313626 -0.21899037 10 15
1.2493746 0.3999528 -0.29245764 9 14
1.132915 0.35960653 0.22258987 115 29
1.1796005 0.21067518 0.18196844 67 28
1.1405156 0.36096612 0.14177637 70 27
1.2078778 0.21565901 0.1139431 36 26
1.1556726 0.36535981 0.081901737 52 25
1.2217861 0.21811025 0.056249484 67 24
1.1629711 0.36724311 0.027504789 63 23
1.2329628 0.21986306 0 17 22
1.1821558 0.37288955 -0.027969005 64 21
1.2390777 0.22071932 -0.057064697 29 20
1.1868559 0.37437591 -0.08373528 61 19
1.2650971 0.22463028 -0.11221685 30 18
1.2152606 0.38339096 -0.14186998 63 17
1.2705591 0.2251393 -0.17443007 69 16
1.2309942 0.38884163 -0.21899037 16 15
1.2554765 0.39684862 -0.29357389 9 14
1.1271412 0.35343158 0.2211691 109 29
1.1876299 0.20782009 0.18312746 64 28
1.1394017 0.35623735 0.14147343 39 27
1.2135274 0.21229032 0.11441885 39 26
1.1593199 0.36207181 0.082075261 25 25
1.2323828 0.21554777 0.056715317 39 24
1.1666304 0.3639304 0.027562818 50 23
1.223869 0.21385406 0 69 22
1.1810656 0.36801255 -0.027910979 60 21
1.2398406 0.21639277 -0.057064697 71 20
1.1952944 0.37247065 -0.084253237 62 19
1.2658736 0.22021291 -0.11221685 63 18
1.2189615 0.37989017 -0.14215429 64 17
1.2786586 0.22196089 -0.17546222 68 16
1.2299944 0.38380417 -0.21856098 24 15
1.2522045 0.39100227 -0.29245764 9 14
1.1330547 0.35095739 0.22211629 113 29
1.1834776 0.20284769 0.18235476 64 28
1.1477469 0.35446933 0.14238225 19 27
1.206864 0.20701599 0.11370522 36 26
1.1605767 0.35802284 0.082075261 9 25
1.220817 0.209158 0.056133024 36 24
1.1750548 0.36207807 0.027736897 22 23
1.2295378 0.21041536 0 81 22
1.1846666 0.36483431 -0.027969005 34 21
1.2405884 0.21206361 -0.057064697 75 20
1.1918228 0.36681935 -0.083907925 47 19
1.2592311 0.2147707 -0.11154622 68 18
1.2179075 0.37489757 -0.14186998 39 17
1.2769458 0.21730822 -0.17511816 70 16
1.2289745 0.3787784 -0.21813159 32 15
1.2534943 0.38684767 -0.29245764 9 14
1.1271751 0.34502783 0.2206955 104 29
1.1890171 0.19973138 0.18312746 56 28
1.1418 0.34847349 0.14147343 9 27
1.2075793 0.20280199 0.11370522 38 26
1.173678 0.35783267 0.082942858 8 25
1.2264308 0.20592679 0.056365941 33 24
1.17147 0.35671386 0.027620843 8 23
1.2228299 0.20510937 0 82 22
1.1954918 0.36362475 -0.028201113 10 21
1.238821 0.20754018 -0.056948237 74 20
1.2049559 0.36651728 -0.084771179 16 19
1.2624298 0.2107797 -0.11176977 69 18
1.2333934 0.3752214 -0.14357583 10 17
1.2752533 0.21244679 -0.17477413 70 16
1.2231599 0.37253451 -0.21684341 40 15
1.2548369 0.3824698 -0.29245764 9 14
1.1260837 0.34017935 0.22022191 102 29
1.1873031 0.19497633 0.18274112 57 28
1.140695 0.3435657 0.14117049 9 27
1.2181406 0.1999696 0.11465672 34 26
1.1725949 0.35280517 0.082769342 8 25
1.2321073 0.20223057 0.056598857 34 24
1.1751617 0.35314187 0.027678872 8 23
1.2309769 0.20182651 0 80 22
1.1968164 0.35924059 -0.028201113 8 21
1.2395732 0.20299828 -0.056948237 72 20
1.2015164 0.36065504 -0.084425882 8 19
1.2656519 0.20654804 -0.1119933 61 18
1.2276278 0.36854208 -0.1427229 8 17
1.2784681 0.20816511 -0.17511816 56 16
1.2315888 0.37018937 -0.21813159 57 15
1.2515658 0.37645525 -0.29134139 9 14
1.1319659 0.33765981 0.2211691 105 29
1.1442645 0.34029412 0.14147343 9 27
1.2188312 0.19571631 0.11465672 34 26
1.1738193 0.34870991 0.082769342 8 25
1.2402049 0.19910306 0.056948237 29 24
1.1787819 0.34975332 0.027736897 8 23
1.2267355 0.19674534 0 81 22
1.1956685 0.35434592 -0.028143087 8 21
1.2427411 0.1990608 -0.057064697 71 20
1.2075479 0.35788548 -0.084771179 8 19
1.2737439 0.20329353 -0.11266392 18 18
1.2336669 0.36567548 -0.14329153 8 17
1.281633 0.20408639 -0.17546222 32 16
1.2352333 0.36659336 -0.21856098 64 15
1.2552071 0.37278244 -0.29189953 9 14
1.1401975 0.33580163 0.22258987 112 29
1.1478249 0.33700177 0.14177637 9 27
1.2170477 0.19107902 0.11441885 34 26
1.1702458 0.34319708 0.082422301 8 25
1.2458279 0.19553855 0.057181153 26 24
1.1847899 0.34705114 0.027852951 8 23
1.2323558 0.19322781 0 77 22
1.1968979 0.35017008 -0.028143087 8 21
1.2508318 0.19586775 -0.05741407 41 20
1.204005 0.35225818 -0.084425882 8 19
1.2719848 0.19846646 -0.11244038 7 18
1.2373182 0.36206904 -0.14357583 11 17
1.2872324 0.2003648 -0.17615029 24 16
1.2341431 0.36158231 -0.21813159 69 15
1.2565006 0.36839867 -0.29189953 9 14
1.1413628 0.33181959 0.22258987 112 29
1.1513762 0.33368874 0.14207931 9 27
1.2250559 0.18816236 0.11513247 34 26
1.1786193 0.34120497 0.082942858 8 25
1.246503 0.1911886 0.057181153 25 24
1.1787953 0.34081647 0.027678872 8 23
1.230551 0.18855064 0 78 22
1.1980526 0.3461991 -0.028143087 8 21
1.2589157 0.19262065 -0.057763446 9 20
1.2028327 0.34735662 -0.084253237 21 19
1.2800224 0.19536176 -0.113111 7 18
1.2290348 0.35497263 -0.14243859 33 17
1.2952356 0.1972008 -0.17718244 10 16
1.2377625 0.35796094 -0.21856098 68 15
1.2623942 0.36559457 -0.29301578 9 14
1.140099 0.3273505 0.22211629 112 29
1.1453234 0.32780552 0.14117049 9 27
1.2232437 0.18352015 0.11489461 33 26
1.1797444 0.33729464 0.082942858 8 25
1.2446599 0.1866879 0.057064697 26 24
1.1871247 0.33897856 0.027852951 8 23
1.2361156 0.18520109 0 77 22
1.1968515 0.34132481 -0.028085059 14 21
1.2644883 0.18917535 -0.057996366 7 20
1.206375 0.34405464 -0.084425882 44 19
1.2856233 0.19161823 -0.11355808 7 18
1.2349796 0.35226679 -0.1430072 56 17
1.2861166 0.19123827 -0.17580625 9 16
1.2413095 0.35453534 -0.21899037 65 15
1.2636627 0.36118579 -0.29301578 9 14
1.1325533 0.32193255 0.30485722 111 31
1.143595 0.32404292 0.22258987 113 29
1.1607814 0.3278822 0.14298813 8 27
1.2238768 0.17924911 0.11489461 32 26
1.1833135 0.33385652 0.083116382 8 25
1.2453039 0.18234208 0.057064697 27 24
1.1835502 0.33326083 0.027736897 9 23
1.2342802 0.18052769 0 80 22
1.1980357 0.33714494 -0.028085059 41 21
1.2602297 0.18382713 -0.057763446 7 20
1.1955713 0.33643985 -0.083562627 58 19
1.2862844 0.18712941 -0.11355808 7 18
1.2338728 0.34706089 -0.1427229 61 17
1.299032 0.18850508 -0.17752647 10 16
1.2449698 0.35065553 -0.21941976 65 15
1.2696041 0.35810453 -0.29413202 9 14
1.1314012 0.31712249 0.30421269 121 31
1.1447749 0.31984928 0.22258987 112 29
1.1548076 0.32161346 0.14207931 8 27
1.2245257 0.17476217 0.11489461 33 26
1.1845292 0.32951725 0.083116382 8 25
1.2484366 0.17812502 0.057181153 26 24
1.1822996 0.32845369 0.027678872 31 23
1.239885 0.17669934 0 77 22
1.1968564 0.33207875 -0.028027033 61 21
1.2707556 0.18081722 -0.058229282 7 20
1.2016003 0.33339873 -0.083907925 61 19
1.2820296 0.18172319 -0.113111 7 18
1.2326846 0.34208298 -0.14243859 64 17
1.2997142 0.18374261 -0.17752647 10 16
1.2390715 0.34431577 -0.21813159 66 15
1.2615218 0.35081923 -0.29189953 9 14
1.134828 0.31382003 0.30485722 125 31
1.1435194 0.31519413 0.22211629 109 29
1.1559231 0.31758049 0.14207931 9 27
1.2275637 0.17103957 0.11513247 32 26
1.1904796 0.32671002 0.083463423 13 25
1.2490509 0.17376606 0.057181153 26 24
1.1810299 0.32365933 0.027620843 55 23
1.2404941 0.17237025 0 72 22
1.197951 0.32810798 -0.028027033 64 21
1.2738532 0.17671925 -0.058345739 7 20
1.2027566 0.32920229 -0.083907925 61 19
1.2900263 0.17848203 -0.11378161 7 18
1.2290825 0.33645716 -0.14186998 58 17
1.2929559 0.17842858 -0.17649435 9 16
1.2402658 0.3399885 -0.21813159 64 15
1.2650269 0.34728357 -0.29245764 9 14
1.1358625 0.31005505 0.30485722 124 31
1.1421909 0.3107509 0.22164267 107 29
1.1569699 0.31374553 0.14207931 34 27
1.2256868 0.1664231 0.11489461 31 26
1.1819328 0.32013315 0.082769342 47 25
1.2471451 0.16929153 0.057064697 26 24
1.1796852 0.31908366 0.027562818 65 23
1.2484927 0.16925021 0 62 22
1.2015004 0.32458085 -0.028085059 63 21
1.264531 0.17117119 -0.057879902 8 20
1.1966225 0.32324648 -0.083389983 62 19
1.2807686 0.17266409 -0.11288746 7 18
1.2325881 0.33303201 -0.14215429 63 17
1.2935708 0.17391422 -0.17649435 9 16
1.2413863 0.33587375 -0.21813159 31 15
1.2568276 0.34030014 -0.29022515 10 14
1.1346067 0.30545536 0.30421269 123 31
1.1432688 0.30676198 0.22164267 107 29
1.160454 0.3103511 0.14238225 74 27
1.2287279 0.16246544 0.11513247 30 26
1.1758184 0.31406015 0.082248777 61 25
1.2551572 0.16590595 0.05741407 25 24
1.1832607 0.31540632 0.027620843 62 23
1.2441177 0.16424543 0 32 22
1.2026261 0.32038486 -0.028085059 63 21
1.270103 0.16717857 -0.058112819 10 20
1.202561 0.32036108 -0.08373528 61 19
1.2863023 0.16883197 -0.11333454 18 18
1.2385982 0.3297995 -0.1427229 65 17
1.2892582 0.16876331 -0.17580625 9 16
1.2473661 0.33259979 -0.21899037 8 15
1.2603611 0.3365441 -0.29078329 18 14
1.1380521 0.30191913 0.30485722 120 31
1.1420135 0.30193725 0.2211691 105 29
1.1615838 0.30609575 0.14238225 79 27
1.234253 0.15858638 0.11560823 30 26
1.1745511 0.30910888 0.082075261 59 25
1.2557569 0.16130446 0.05741407 26 24
1.1843544 0.31127402 0.027620843 61 23
1.252152 0.16062568 0 26 22
1.2013762 0.31533563 -0.028027033 65 21
1.2582908 0.1611791 -0.05753053 58 20
1.2061381 0.31658924 -0.083907925 58 19
1.2770305 0.16287318 -0.11244038 55 18
1.2373407 0.3248387 -0.14243859 62 17
1.2972389 0.16496146 -0.17683838 9 16
1.2509 0.32887438 -0.21941976 7 15
1.2733635 0.3350451 -0.29357389 26 14
1.1414346 0.29856095 0.30550173 120 31
1.1454345 0.2985732 0.22164267 105 29
1.1650457 0.30266809 0.14268519 76 27
1.237269 0.15458125 0.11584611 29 26
1.1804484 0.30626941 0.082422301 34 25
1.2513552 0.15630965 0.057181153 30 24
1.1926883 0.3090331 0.027794925 56 23
1.2626302 0.15747429 0 17 22
1.2024697 0.31114009 -0.028027033 61 21
1.2588457 0.15678586 -0.05753053 75 20
1.2048227 0.31174761 -0.08373528 56 19
1.2800628 0.15871669 -0.11266392 61 18
1.2456772 0.32239836 -0.14329153 62 17
1.2448918 0.32263854 -0.21813159 7 15
1.2721677 0.32998186 -0.29301578 27 14
1.1424698 0.29457477 0.30550173 119 31
1.1440936 0.2939572 0.2211691 105 29
1.166095 0.29859948 0.14268519 69 27
1.2303617 0.14958957 0.11513247 30 26
1.1887553 0.30401528 0.082942858 11 25
1.2568524 0.15253377 0.05741407 25 24
1.1937598 0.30486795 0.027794925 26 23
1.2631723 0.15306593 0 17 22
1.2131766 0.30964217 -0.028259141 37 21
1.2618651 0.15268642 -0.057646986 76 20
1.2179809 0.31064549 -0.084598534 44 19
1.2805821 0.15447097 -0.11266392 61 18
1.2371728 0.31557402 -0.14215429 32 17
1.2436254 0.31767693 -0.2177022 7 15
1.2779745 0.32697845 -0.29413202 28 14
1.1450621 0.29016164 0.2211691 104 29
1.164674 0.2941184 0.14238225 67 27
1.2284048 0.14500658 0.11489461 28 26
1.1945908 0.301301 0.083289899 8 25
1.2573514 0.14836505 0.05741407 22 24
1.1996089 0.30213803 0.027910979 9 23
1.2636729 0.14887626 0 14 22
1.2190955 0.30663425 -0.028375195 11 21
1.2623645 0.14850107 -0.057646986 76 20
1.2238393 0.30783096 -0.084943838 15 19
1.2811135 0.14999998 -0.11266392 60 18
1.2430277 0.31269076 -0.1427229 9 17
1.2518332 0.3153699 -0.21899037 7 15
1.2791079 0.32251549 -0.29413202 25 14
1.1436877 0.28556317 0.2206955 102 29
1.1656936 0.29005113 0.14238225 64 27
1.2387953 0.14183256 0.11584611 28 26
1.1907971 0.29591668 0.082942858 8 25
1.2603432 0.14425483 0.05753053 23 24
1.2007083 0.29773921 0.027910979 8 23
1.264185 0.14446431 0 13 22
1.2128841 0.30055919 -0.028201113 8 21
1.2629004 0.14387327 -0.057646986 74 20
1.2176474 0.30174321 -0.084425882 8 19
1.2816293 0.14552714 -0.11266392 54 18
1.2538044 0.31053966 -0.14386015 8 17
1.2505914 0.31018209 -0.21856098 7 15
1.277862 0.31745657 -0.29357389 25 14
1.1447266 0.28136945 0.2206955 101 29
1.1667489 0.2857767 0.14238225 81 27
1.2442548 0.13783048 0.11632187 28 26
1.1991378 0.2933425 0.083463423 8 25
1.2658286 0.14017564 0.057763446 20 24
1.2017403 0.29354614 0.027910979 8 23
1.2746472 0.14091161 0 15 22
1.2188317 0.29730582 -0.028317168 8 21
1.2658775 0.13973376 -0.057763446 69 20
1.2284325 0.29966131 -0.085116483 8 19
1.2945317 0.14216685 -0.11378161 45 18
1.2524689 0.30556786 -0.14357583 8 17
1.2540579 0.30640396 -0.21899037 7 15
1.2837491 0.31393752 -0.29469013 23 14
1.150471 0.27853709 0.22164267 101 29
1.1629169 0.28052846 0.14177637 83 27
1.1953075 0.28797701 0.083116382 8 25
1.2638267 0.13549431 0.057646986 23 24
1.2051865 0.2899389 0.027969005 8 23
1.2676725 0.13567613 0 17 22
1.2173817 0.29267338 -0.028259141 8 21
1.2663577 0.13531418 -0.057763446 66 20
1.2246232 0.29419684 -0.084771179 8 19
1.2900432 0.13735442 -0.11333454 29 18
1.2487001 0.3000243 -0.1430072 18 17
1.2527264 0.30144382 -0.21856098 7 15
1.2966229 0.31255624 -0.29748079 13 14
1.1466154 0.27357107 0.2206955 100 29
1.1638409 0.27667055 0.14177637 82 27
1.203532 0.28575444 0.08363694 8 25
1.2642691 0.13130255 0.057646986 23 24
1.2037106 0.28535944 0.027910979 8 23
1.2730898 0.13197866 0 15 22
1.22812 0.2907441 -0.028491249 8 21
1.2643149 0.13086124 -0.057646986 68 20
1.2231662 0.28955498 -0.084598534 24 19
1.2929921 0.13310125 -0.11355808 26 18
1.2472723 0.29530492 -0.1427229 38 17
1.2609051 0.29900655 -0.21984917 8 15
1.297706 0.30802828 -0.29748079 9 14
1.1475632 0.26956695 0.2206955 99 29
1.172045 0.27431768 0.14268519 80 27
1.2045221 0.28155157 0.08363694 8 25
1.2696902 0.12737861 0.057879902 22 24
1.2096142 0.28209054 0.028027033 8 23
1.2735428 0.12753394 0 12 22
1.2169622 0.28359538 -0.028201113 15 21
1.2697567 0.12671378 -0.057879902 67 20
1.2290252 0.28642514 -0.084943838 47 19
1.3008835 0.12931341 -0.11422869 13 18
1.2580181 0.29300356 -0.14386015 61 17
