# .PCD v0.7 - Point Cloud Data file format
VERSION 0.7
FIELDS x y z intensity ring
SIZE 4 4 4 4 2
TYPE F F F F U
COUNT 1 1 1 1 1
WIDTH 1240
HEIGHT 1
VIEWPOINT 0 0 0 1 0 0 0
POINTS 1240
DATA ascii
1.4133964 -0.13587363 0 8 22
1.3812506 0.046510745 -0.031276543 74 21
1.394455 -0.13451444 -0.063702829 8 20
1.3684283 0.046050161 -0.092367783 72 19
1.3879563 -0.13436018 -0.12205258 76 18
1.3555088 0.04534927 -0.15125217 80 17
1.3443631 0.045407712 -0.22843701 100 15
1.3305523 0.045362514 -0.29692265 97 14
1.4431722 0.046147317 0.27184379 22 29
1.4090093 0.04378961 0.16782929 7 27
1.4438019 -0.14392699 0.13535203 28 26
1.4034237 0.043121975 0.095262825 37 25
1.4337788 -0.14291856 0.065566167 70 24
1.3888915 0.042170845 0.031450626 65 23
1.4153761 -0.14130528 0 7 22
1.3839098 0.041527271 -0.031334572 72 21
1.4039149 -0.14039063 -0.064168662 8 20
1.3710805 0.041113514 -0.092540428 71 19
1.3948857 -0.14020517 -0.12272319 74 18
1.3631064 0.040854044 -0.15210509 76 17
1.3395902 0.040556572 -0.22757822 98 15
1.3355811 0.040642835 -0.2980389 97 14
1.4384172 0.040961213 0.27089661 26 29
1.4165951 0.039089236 0.16873811 7 27
1.448267 -0.1492317 0.13582778 29 26
1.4160304 0.038584083 0.096130431 12 25
1.4307876 -0.14766234 0.065449715 67 24
1.3915284 0.03739398 0.031508651 36 23
1.4148741 -0.146245 0 7 22
1.3815416 0.036866743 -0.031276543 53 21
1.4009328 -0.14502932 -0.064052209 8 20
1.3637366 0.03611578 -0.092022486 52 19
1.394413 -0.14483 -0.12272319 69 18
1.3607579 0.036025446 -0.15182078 65 17
1.3397237 0.035880283 -0.22757822 97 15
1.3308368 0.036072474 -0.29692265 96 14
1.4434528 0.036322966 0.27184379 26 29
1.4191976 0.034455948 0.16904105 7 27
1.4477372 -0.15428619 0.13582778 29 26
1.4161506 0.033888143 0.096130431 8 25
1.4352558 -0.152943 0.065682627 65 24
1.3991405 0.032969035 0.031682733 11 23
1.4168669 -0.15120523 0 7 22
1.391656 0.032293525 -0.031508651 37 21
1.4054095 -0.15021273 -0.064285129 8 20
1.3638489 0.031593271 -0.092022486 41 19
1.393899 -0.14969653 -0.12272319 55 18
1.3633529 0.031574797 -0.15210509 69 17
1.3422973 0.031499725 -0.22800763 97 15
1.3309544 0.031426769 -0.29692265 91 14
1.4460249 0.031341556 0.27231741 18 29
1.4168283 0.029445948 0.16873811 7 27
1.449663 -0.15961491 0.13606566 29 26
1.4162602 0.028944649 0.096130431 9 25
1.4297493 -0.1573979 0.065449715 44 24
1.3967531 0.027786622 0.031624705 24 23
1.418815 -0.1564279 0 7 22
1.3842641 0.02727459 -0.031334572 50 21
1.4048495 -0.1553628 -0.064285129 8 20
1.3739247 0.027046503 -0.092713088 60 19
1.400791 -0.15539651 -0.12339382 36 18
1.3634596 0.026577648 -0.15210509 76 17
1.3399415 0.026526451 -0.22757822 96 15
1.32862 0.026727095 -0.29636455 89 14
1.4436758 0.025992991 0.27184379 10 29
1.419408 0.024299588 0.16904105 7 27
1.4490683 -0.1649271 0.13606566 29 26
1.4113697 0.023661327 0.09578339 27 25
1.4440478 -0.16435415 0.06614846 41 24
1.3893448 0.022774784 0.031450626 50 23
1.4182322 -0.16162707 0 7 22
1.381856 0.022156334 -0.031276543 73 21
1.4117408 -0.16112678 -0.064634502 8 20
1.3765084 0.022055034 -0.09288574 72 19
1.4026855 -0.1608171 -0.12361735 29 18
1.3610606 0.021773908 -0.15182078 80 17
1.3375634 0.02180432 -0.22714885 87 15
1.3384551 0.022035906 -0.29859704 89 14
1.4486666 0.021033147 0.272791 10 29
1.4219652 0.019382896 0.16934399 7 27
1.4484837 -0.1699843 0.13606566 30 26
1.4089497 0.01869715 0.095609866 46 25
1.4409857 -0.16909899 0.066032007 38 24
1.3944139 0.017998205 0.031566679 67 23
1.4176593 -0.16657664 0 8 22
1.3894221 0.017439928 -0.031450626 76 21
1.4136496 -0.1663494 -0.064750962 8 20
1.3765769 0.017249987 -0.09288574 72 19
1.4021155 -0.16571239 -0.12361735 26 18
1.3660953 0.017093878 -0.15238939 79 17
1.3425566 0.017207429 -0.22800763 83 15
1.3433969 0.01743599 -0.29971328 83 14
1.4560947 0.016070053 0.27421179 10 29
1.4195429 0.014389739 0.16904105 8 27
1.4503824 -0.17508872 0.13630354 31 26
1.4090065 0.013778883 0.095609866 67 25
1.4478228 -0.17503835 0.06638138 38 24
1.3919691 0.013102766 0.031508651 69 23
1.4195507 -0.17182842 0 38 22
1.3844739 0.01277738 -0.031334572 75 21
1.4105815 -0.17097859 -0.064634502 8 20
1.3766288 0.012444733 -0.09288574 74 19
1.4040296 -0.1706654 -0.1238409 26 18
1.3661467 0.012325211 -0.15238939 81 17
1.3376831 0.012465909 -0.22714885 76 15
1.3385739 0.01292489 -0.29859704 84 14
1.4487761 0.011171975 0.272791 10 29
1.4171014 0.0096610654 0.16873811 22 27
1.4522315 -0.18046103 0.13654141 34 26
1.4115385 0.0091268318 0.09578339 66 25
1.4472343 -0.17983854 0.06638138 36 24
1.3970034 0.0085260179 0.031624705 70 23
1.4140123 -0.17590994 0 67 22
1.38451 0.0079445858 -0.031334572 74 21
1.4100068 -0.17565529 -0.064634502 25 20
1.3766625 0.0078795981 -0.09288574 73 19
1.4058955 -0.17587827 -0.12406443 25 18
1.3636963 0.007776198 -0.15210509 80 17
1.3377171 0.0080299238 -0.22714885 78 15
1.3410476 0.0082718795 -0.29915515 85 14
1.4561704 0.0061584357 0.27421179 10 29
1.414645 0.0047018388 0.16843517 41 27
1.4515927 -0.18552919 0.13654141 34 26
1.4115617 0.0041995882 0.09578339 67 25
1.4441212 -0.18456891 0.06626492 31 24
1.399524 0.0036604186 0.031682733 70 23
1.4208275 -0.18180804 0 69 22
1.3845294 0.0031116956 -0.031334572 75 21
1.4044318 -0.17993365 -0.064401582 66 20
1.3766816 0.0030741023 -0.09288574 73 19
1.4028039 -0.18046314 -0.1238409 25 18
1.3661989 0.003025932 -0.15238939 80 17
1.337737 0.0033603699 -0.22714885 74 15
1.3361945 0.0035685839 -0.2980389 86 14
1.4537284 0.00081569306 0.27373818 10 29
1.4196157 -0.00047619559 0.16904105 64 27
1.4583038 -0.19183311 0.13725504 35 26
1.4065797 -0.00097929582 0.09543635 66 25
1.4384841 -0.1892018 0.066032007 31 24
1.3970286 -0.001470862 0.031624705 70 23
1.4176735 -0.18668422 0 61 22
1.3920293 -0.001960262 -0.031508651 75 21
1.3988123 -0.18441938 -0.064168662 71 20
1.3791776 -0.0019708381 -0.093058385 73 19
1.404601 -0.18593405 -0.12406443 23 18
1.3686846 -0.0019805911 -0.15267371 79 17
1.3402032 -0.001540984 -0.22757822 65 15
1.3386357 -0.0013267117 -0.29859704 84 14
1.458632 -0.0042647691 0.27468535 10 29
1.4171238 -0.0054263789 0.16873811 65 27
1.465057 -0.19767734 0.13796867 43 26
1.4115556 -0.0059013572 0.09578339 65 25
1.4402891 -0.19455995 0.06614846 29 24
1.3970151 -0.0063473936 0.031624705 71 23
1.4170132 -0.19163167 0 43 22
1.389516 -0.0065689716 -0.031450626 74 21
1.4055825 -0.19031779 -0.064518042 70 20
1.3791622 -0.0067850542 -0.093058385 74 19
1.4064436 -0.19092965 -0.12428798 21 18
1.3661857 -0.0067503769 -0.15238939 79 17
1.3426524 -0.0062260339 -0.22800763 63 15
1.4561551 -0.0090906043 0.27421179 10 29
1.4195796 -0.010139128 0.16904105 61 27
1.4115283 -0.010582212 0.09578339 64 25
1.4421092 -0.1996813 0.06626492 28 24
1.4019847 -0.011010561 0.031740759 67 23
1.4237971 -0.19737083 0 30 22
1.3894846 -0.011419247 -0.031450626 74 21
1.4024707 -0.1946307 -0.064401582 70 20
1.3816262 -0.01137459 -0.093231037 72 19
1.4156311 -0.19722749 -0.12518214 24 18
1.3686396 -0.011296814 -0.15267371 79 17
1.3450873 -0.01069344 -0.22843701 64 15
1.4634784 -0.014232602 0.27563256 10 29
1.4195356 -0.015094323 0.16904105 58 27
1.4164705 -0.01555544 0.096130431 36 25
1.4389315 -0.20435911 0.06614846 31 24
1.3969367 -0.016100165 0.031624705 64 23
1.4255743 -0.20269531 0 24 22
1.3919353 -0.016294248 -0.031508651 73 21
1.4091632 -0.20083827 -0.064750962 67 20
1.3790841 -0.016172485 -0.093058385 73 19
1.3735561 -0.016363338 -0.15324232 76 17
1.3401135 -0.015575218 -0.22757822 71 15
1.4560528 -0.01951031 0.27421179 10 29
1.4194708 -0.02029708 0.16904105 52 27
1.4288727 -0.020908007 0.096998028 10 25
1.4455847 -0.2107235 0.06649784 28 24
1.399371 -0.021009436 0.031682733 36 23
1.427295 -0.20828372 0 22 22
1.3868681 -0.021327788 -0.031392597 60 21
1.4109241 -0.20612074 -0.064867415 64 20
1.3790156 -0.021226972 -0.093058385 66 19
1.3685236 -0.021090221 -0.15267371 74 17
1.3425137 -0.02028566 -0.22800763 76 15
1.4682481 -0.024779124 0.27657974 10 29
1.4268349 -0.025371369 0.16994987 39 27
1.4213102 -0.025772834 0.096477471 8 25
1.4522482 -0.21688597 0.066847213 25 24
1.4117839 -0.0261034 0.031972867 10 23
1.4265592 -0.21326463 0 23 22
1.3967811 -0.026339719 -0.031624705 31 21
1.4052575 -0.21029767 -0.064634502 49 20
1.3739458 -0.025955193 -0.092713088 39 19
1.3734084 -0.025952093 -0.15324232 50 17
1.3473597 -0.025054311 -0.22886641 79 15
1.4607898 -0.029766597 0.27515897 10 29
1.4267378 -0.030351799 0.16994987 28 27
1.4237049 -0.03078359 0.096650988 8 25
1.4490144 -0.22157276 0.06673076 24 24
1.4016891 -0.030828893 0.031740759 9 23
1.4307475 -0.21900705 0 22 22
1.4016836 -0.031073533 -0.031740759 29 21
1.4193223 -0.21749395 -0.065333247 33 20
1.3713533 -0.030699639 -0.092540428 39 19
1.3733095 -0.030746026 -0.15324232 55 17
1.3423394 -0.029657602 -0.22800763 73 15
1.463137 -0.03466456 0.27563256 10 29
1.4266293 -0.035082866 0.16994987 23 27
1.4260883 -0.035562485 0.096824512 10 25
1.4458048 -0.22598727 0.066614293 23 24
1.4115735 -0.035712428 0.031972867 34 23
1.427544 -0.22336014 0 21 22
1.3965695 -0.035846625 -0.031624705 58 21
1.4161266 -0.22180918 -0.065216795 29 20
1.3837105 -0.035545185 -0.093403682 67 19
1.3732001 -0.035299916 -0.15324232 74 17
1.3446957 -0.03416682 -0.22843701 70 15
1.4605533 -0.039709114 0.27515897 10 29
1.4314595 -0.040193301 0.17055576 21 27
1.4209695 -0.040407069 0.096477471 34 25
1.4524034 -0.23222663 0.066963673 22 24
1.4039382 -0.040681746 0.031798787 59 23
1.4316915 -0.22913949 0 21 22
1.3964359 -0.040721342 -0.031624705 73 21
1.4153041 -0.22699805 -0.065216795 21 20
1.3785919 -0.040238358 -0.093058385 74 19
1.3780271 -0.04046968 -0.15381095 78 17
1.3470235 -0.039162196 -0.22886641 59 15
1.4653052 -0.045205113 0.27610618 10 29
1.4263417 -0.045290623 0.16994987 20 27
1.4183189 -0.045539182 0.096303947 58 25
1.4564704 -0.23836243 0.067196593 20 24
1.4037876 -0.045582153 0.031798787 71 23
1.430842 -0.23438537 0 20 22
1.393779 -0.045761626 -0.031566679 75 21
1.4243581 -0.23356849 -0.065682627 19 20
1.3809279 -0.045368351 -0.093231037 73 19
1.3753949 -0.045202494 -0.15352663 78 17
1.3542635 -0.044090871 -0.23015459 52 15
1.467592 -0.05039981 0.27657974 10 29
1.426175 -0.050269209 0.16994987 19 27
1.4231364 -0.050658621 0.096650988 68 25
1.4580917 -0.2438606 0.067313045 20 24
1.4036199 -0.050482009 0.031798787 70 23
1.4349453 -0.2402115 0 24 22
1.3986064 -0.050799251 -0.031682733 75 21
1.4210718 -0.23812252 -0.065566167 18 20
1.3857464 -0.050360754 -0.093576342 73 19
1.3727465 -0.049917426 -0.15324232 78 17
1.3541013 -0.048817866 -0.23015459 52 15
1.4698602 -0.055611022 0.27705336 10 29
1.4259908 -0.055247188 0.16994987 21 27
1.4229509 -0.055625983 0.096650988 71 25
1.4572316 -0.24894881 0.067313045 20 24
1.4034351 -0.055381246 0.031798787 70 23
1.4291708 -0.24436875 0 21 22
1.3984207 -0.055680994 -0.031682733 74 21
1.4226929 -0.24350661 -0.065682627 18 20
1.3830699 -0.055102732 -0.093403682 73 19
1.3750459 -0.054803383 -0.15352663 79 17
1.3563838 -0.053637087 -0.23058398 48 15
1.4941959 -0.061452951 0.2817893 17 29
1.4307588 -0.060175683 0.17055576 23 27
1.4252504 -0.060445745 0.096824512 70 25
1.4637769 -0.25507692 0.067662425 19 24
1.4082277 -0.060485646 0.031914841 69 23
1.4308149 -0.24953999 0 21 22
1.3932339 -0.060111307 -0.031566679 76 21
1.4218342 -0.24847126 -0.065682627 18 20
1.3853714 -0.059791986 -0.093576342 74 19
1.3773278 -0.059705999 -0.15381095 78 17
1.3611099 -0.058574256 -0.23144276 49 15
1.4305286 -0.065419272 0.17055576 23 27
1.4250194 -0.065669142 0.096824512 69 25
1.46529 -0.26088154 0.067778878 19 24
1.4030142 -0.065177649 0.031798787 69 23
1.4323512 -0.25522479 0 20 22
1.397998 -0.065442376 -0.031682733 75 21
1.4258738 -0.25431731 -0.065915547 17 20
1.3876345 -0.06498149 -0.093748987 75 19
1.377111 -0.0645134 -0.15381095 79 17
1.3608971 -0.063325062 -0.23144276 47 15
1.4302917 -0.070412353 0.17055576 21 27
1.4247816 -0.070642985 0.096824512 67 25
1.4889348 -0.27049428 0.068943471 21 24
1.4102674 -0.070435725 0.031972867 67 23
1.4314514 -0.26022306 0 19 22
1.3952644 -0.070200674 -0.031624705 76 21
1.4323462 -0.26064542 -0.06626492 18 20
1.3824168 -0.069582924 -0.093403682 73 19
1.3793583 -0.069440499 -0.15409526 78 17
1.3606677 -0.068075083 -0.23144276 46 15
1.430037 -0.07540457 0.17055576 21 27
1.4245262 -0.075615972 0.096824512 65 25
1.412509 -0.075487107 0.032030895 58 23
1.4354494 -0.26613706 0 18 22
1.3975201 -0.074956656 -0.031682733 74 21
1.3846563 -0.074537694 -0.093576342 73 19
1.3791075 -0.07425493 -0.15409526 78 17
1.3604219 -0.072824284 -0.23144276 39 15
1.4347352 -0.080415599 0.17116165 21 27
1.4267579 -0.080475628 0.096998028 65 25
1.4172421 -0.080445424 0.032146949 30 23
1.432103 -0.27042815 0 18 22
1.4047363 -0.080249079 -0.031856813 61 21
1.3844016 -0.079128966 -0.093576342 69 19
1.3813336 -0.078965157 -0.15437956 75 17
1.362632 -0.077470548 -0.23187217 38 15
1.4344456 -0.085423268 0.17116165 21 27
1.4239784 -0.085310586 0.096824512 63 25
1.4219278 -0.085932299 0.032263003 9 23
1.4360588 -0.2763778 0 20 22
1.4069427 -0.085298955 -0.031914841 31 21
1.3816271 -0.083814338 -0.093403682 42 19
1.3785555 -0.083881035 -0.15409526 59 17
1.3672562 -0.082753018 -0.23273095 37 15
1.4365999 -0.090832554 0.17146458 21 27
1.4236562 -0.090529151 0.096824512 58 25
1.41663 -0.090584844 0.032146949 8 23
1.4350362 -0.28163937 0 19 22
1.4091151 -0.090611145 -0.031972867 13 21
1.3887783 -0.089344889 -0.093921639 32 19
1.3807333 -0.088847667 -0.15437956 49 17
1.3792495 -0.088289768 -0.23487791 39 15
1.4362739 -0.095846668 0.17146458 20 27
1.4283088 -0.095823452 0.097171552 40 25
1.4138113 -0.09536536 0.03208892 18 23
1.4364951 -0.28714055 0 18 22
1.4013087 -0.095035017 -0.031798787 36 21
1.3834808 -0.093863249 -0.093576342 53 19
1.3779364 -0.093503043 -0.15409526 68 17
1.4408821 -0.10119893 0.17207046 18 27
1.4329419 -0.10115132 0.097518593 35 25
1.4159632 -0.1004725 0.032146949 43 23
1.440382 -0.29315764 0 16 22
1.4084656 -0.10020052 -0.031972867 68 21
1.3881207 -0.099038139 -0.093921639 73 19
1.3825572 -0.098657154 -0.15466388 75 17
1.4380636 -0.10579865 0.17176753 18 27
1.4325986 -0.10590258 0.097518593 36 25
1.4180964 -0.10559583 0.032204974 67 23
1.4418494 -0.29844293 0 15 22
1.4056145 -0.10493463 -0.031914841 72 21
1.3877846 -0.10364077 -0.093921639 74 19
1.3822043 -0.10348258 -0.15466388 76 17
1.4401406 -0.11125563 0.17207046 19 27
1.4346876 -0.11134134 0.09769211 36 25
1.4152273 -0.11035527 0.032146949 68 23
1.4456367 -0.30476424 0 15 22
1.4077126 -0.11027663 -0.031972867 72 21
1.3849087 -0.10853607 -0.093748987 72 19
1.3843112 -0.10849642 -0.15494817 69 17
1.4446911 -0.11667311 0.17267634 19 27
1.4342903 -0.11634865 0.09769211 35 25
1.4198163 -0.11569206 0.032263003 69 23
1.4470078 -0.3103365 0 14 22
1.4123018 -0.11558895 -0.03208892 72 21
1.3870074 -0.11356881 -0.093921639 73 19
1.383924 -0.11332791 -0.15494817 61 17
1.4393288 -0.12130692 0.17207046 19 27
1.4388463 -0.12176672 0.098039158 36 25
1.416913 -0.12044003 0.032204974 68 23
1.4483575 -0.31592202 0 14 22
1.40942 -0.12006383 -0.032030895 73 21
1.3890878 -0.1186175 -0.094094284 73 19
1.3934203 -0.11898591 -0.1560854 40 17
1.4438635 -0.12650403 0.17267634 19 27
1.4309803 -0.12589446 0.097518593 34 25
1.4214858 -0.12556934 0.032321028 66 23
1.4424219 -0.31963417 0 16 22
1.4089923 -0.12498289 -0.032030895 71 21
1.3886869 -0.12322323 -0.094094284 73 19
1.3954928 -0.12382118 -0.15636972 34 17
1.4434133 -0.13154328 0.17267634 19 27
1.4355001 -0.13133475 0.097865634 35 25
1.4185269 -0.13055374 0.032263003 68 23
1.465678 -0.33019742 0 9 22
1.4135258 -0.13035087 -0.032146949 74 21
1.3882483 -0.12806991 -0.094094284 73 19
1.3999768 -0.12938358 -0.15693834 31 17
1.4453921 -0.13706286 0.1729793 18 27
1.4374923 -0.13682733 0.098039158 35 25
1.4205508 -0.13573799 0.032321028 68 23
1.4130385 -0.13553081 -0.032146949 73 21
1.3927355 -0.13362488 -0.094439581 73 19
1.3970437 -0.13403675 -0.15665403 29 17
1.4424349 -0.14186867 0.17267634 19 27
1.4370058 -0.14184429 0.098039158 36 25
1.4250436 -0.1411801 0.032437082 68 23
1.4100693 -0.14021939 -0.03208892 56 21
1.3922607 -0.13848564 -0.094439581 68 19
1.4015114 -0.13939553 -0.15722264 27 17
1.4444002 -0.14715019 0.1729793 20 27
1.436502 -0.1468595 0.098039158 38 25
1.4220554 -0.14590274 0.032379057 68 23
1.4195431 -0.14589967 -0.032321028 25 21
1.3892875 -0.14309353 -0.094266936 40 19
1.3960739 -0.14378661 -0.15665403 26 17
1.4562463 -0.15321676 0.17449398 20 27
1.4360071 -0.15162233 0.098039158 43 25
1.4240496 -0.15087673 0.032437082 63 23
1.4140537 -0.15033402 -0.032204974 9 21
1.3937663 -0.14821859 -0.094612241 26 19
1.3931193 -0.14815705 -0.15636972 27 17
1.4705073 -0.15988387 0.17631163 28 27
1.4404285 -0.15716663 0.098386198 46 25
1.4259719 -0.15636331 0.032495111 53 23
1.4184901 -0.1558063 -0.032321028 33 21
1.3932405 -0.15308283 -0.094612241 39 19
1.3975055 -0.15379684 -0.15693834 26 17
1.4423215 -0.16272041 0.098559715 51 25
1.4229336 -0.16106306 0.032437082 35 23
1.4154257 -0.16072658 -0.032263003 63 21
1.3951485 -0.15846542 -0.094784886 65 19
1.4043654 -0.15950212 -0.15779126 27 17
1.4417448 -0.16775407 0.098559715 57 25
1.4322944 -0.16717118 0.03266919 32 23
1.4198507 -0.16599134 -0.032379057 72 21
1.3995421 -0.16390602 -0.095130183 71 19
1.4087349 -0.16497253 -0.15835987 30 17
1.4436573 -0.17282641 0.098733239 65 25
1.4317322 -0.17191991 0.03266919 32 23
1.4192626 -0.17094654 -0.032379057 73 21
1.3965144 -0.16825217 -0.094957538 72 19
1.4430453 -0.17786467 0.098733239 57 25
1.4311233 -0.17691654 0.03266919 31 23
1.4161763 -0.17559634 -0.032321028 77 21
1.398394 -0.17342854 -0.095130183 65 19
1.4448583 -0.18346247 0.098906755 53 25
1.4329451 -0.1824722 0.032727219 30 23
1.4180031 -0.18109809 -0.032379057 75 21
1.3952745 -0.17824101 -0.094957538 45 19
1.4442091 -0.18850487 0.098906755 45 25
1.4347783 -0.18779318 0.032785248 29 23
1.4223197 -0.18668881 -0.032495111 72 21
1.4045373 -0.18439177 -0.09564814 34 19
1.4435422 -0.19354492 0.098906755 36 25
1.434114 -0.19280037 0.032785248 28 23
1.4216592 -0.19165251 -0.032495111 71 21
1.4038851 -0.18929341 -0.09564814 27 19
1.4453291 -0.19891855 0.099080279 34 25
1.443338 -0.19915505 0.033017356 26 23
1.4209815 -0.19661386 -0.032495111 69 21
1.4056869 -0.19453034 -0.095820785 22 19
1.4470959 -0.20430696 0.099253796 35 25
1.442634 -0.20419204 0.033017356 25 23
1.4227616 -0.20191976 -0.032553136 63 21
1.4074692 -0.19978216 -0.095993437 20 19
1.4488429 -0.20971018 0.09942732 33 25
1.4394385 -0.20887177 0.032959327 24 23
1.4245582 -0.20699191 -0.032611165 64 21
1.4067633 -0.20469393 -0.095993437 20 19
1.4506071 -0.21487483 0.099600837 31 25
1.4412107 -0.21400692 0.033017356 25 23
1.4262996 -0.21232709 -0.03266919 66 21
1.4060768 -0.20935781 -0.095993437 20 19
1.4523146 -0.22030704 0.099774361 28 25
1.4379452 -0.21891578 0.032959327 24 23
1.4304928 -0.21804942 -0.032785248 62 21
1.4102699 -0.21500796 -0.096338734 19 19
1.4539624 -0.22600752 0.099947877 26 25
1.4445828 -0.22507571 0.03313341 22 23
1.4247438 -0.22252792 -0.03266919 44 21
1.4094722 -0.2201754 -0.096338734 19 19
1.4413195 -0.22972763 0.033075381 21 23
1.4363419 -0.22919978 -0.032959327 32 21
1.4160854 -0.2262619 -0.096856683 20 19
1.4430174 -0.2349034 0.03313341 22 23
1.4305983 -0.23341556 -0.032843273 23 21
1.4397224 -0.23953296 0.033075381 22 23
1.4347068 -0.23922169 -0.032959327 23 21
1.4412994 -0.24522331 0.03313341 20 23
1.4338204 -0.24447854 -0.032959327 27 21
1.4428978 -0.25067654 0.033191435 18 23
1.4330018 -0.24923192 -0.032959327 29 21
1.4420586 -0.25545999 0.033191435 18 23
1.4321231 -0.2542325 -0.032959327 27 21
1.4460328 -0.26162544 0.033307489 18 23
1.4361471 -0.26011258 -0.033075381 21 21
1.4500279 -0.26757038 0.033423543 16 23
1.4401007 -0.2662752 -0.033191435 18 21
1.4466281 -0.27217227 0.033365518 15 23
1.4391625 -0.27130049 -0.033191435 16 21
1.4481248 -0.27768686 0.033423543 15 23
1.438255 -0.27607143 -0.033191435 16 21
1.4446929 -0.28226489 0.033365518 15 23
1.4397364 -0.28156585 -0.033249464 18 21
1.4486029 -0.28827357 0.033481568 16 23
1.4411465 -0.28732544 -0.033307489 19 21
1.4500381 -0.29382068 0.033539597 18 23
1.4474852 -0.2938337 -0.033481568 17 21
1.4441063 -0.29787877 0.033423543 17 23
1.4636427 -0.30214104 -0.033887755 17 21
1.3515126 0.36492276 0 8 22
1.3359222 0.35549352 0 22 22
1.337155 0.35082808 0 21 22
1.328626 0.34390172 0 24 22
1.3322418 0.33987597 0 24 22
1.3359041 0.335596 0 33 22
1.3370675 0.3309308 0 37 22
1.3382145 0.32626155 0 34 22
1.3417209 0.3224023 0 33 22
1.3632965 0.32252291 0.063702829 9 24
1.3380258 0.31633985 0 32 22
1.3644141 0.31776214 0.063702829 24 24
1.3415577 0.31223017 0 32 22
1.3606448 0.31188923 0.063469917 26 24
1.3426393 0.30754536 0 35 22
1.3616717 0.30737546 0.063469917 28 24
1.3460915 0.3036375 0 34 22
1.3602976 0.30208299 0.063353457 30 24
1.3398187 0.29732388 0 36 22
1.3711585 0.29920956 0.063819289 32 24
1.3408995 0.29241118 0 37 22
1.3673096 0.29338136 0.063586377 29 24
1.341912 0.28772879 0 37 22
1.3478701 0.28875035 -0.062654711 4 20
1.3658808 0.28809524 0.063469917 26 24
1.3429083 0.28304288 0 39 22
1.3366473 0.28149024 -0.062072415 39 20
1.3692749 0.28406766 0.063586377 25 24
1.3389419 0.27758098 0 43 22
1.3278366 0.27481416 -0.061606579 73 20
1.365411 0.27805817 0.063353457 37 24
1.3399502 0.27267164 0 43 22
1.3336838 0.27116469 -0.061839495 82 20
1.3663733 0.27329034 0.063353457 43 24
1.3482507 0.26945072 0 45 22
1.3321724 0.2660225 -0.061723035 80 20
1.3697702 0.26899645 0.063469917 42 24
1.3418211 0.26331046 0 47 22
1.3330928 0.26137075 -0.061723035 81 20
1.368202 0.26398343 0.063353457 47 24
1.3451424 0.25932869 0 45 22
1.329091 0.25577989 -0.061490119 76 20
1.3617966 0.25758624 0.063004084 50 24
1.3411695 0.25347614 0 43 22
1.3324306 0.25159833 -0.061606579 78 20
1.3651438 0.25328282 0.063120544 67 24
1.3395872 0.24834132 0 43 22
1.3333007 0.24694575 -0.061606579 82 20
1.3956594 0.25411755 0.13225962 7 26
1.3660196 0.24851601 0.063120544 72 24
1.3429064 0.24410689 0 46 22
1.3292388 0.24140571 -0.061373662 70 20
1.3842849 0.24707705 0.13107024 19 26
1.3668362 0.24398477 0.063120544 76 24
1.3412466 0.23921736 0 44 22
1.3374099 0.23829868 -0.061723035 86 20
1.3777827 0.24096888 0.13035661 21 26
1.3726008 0.24006483 0.063353457 34 24
1.3420734 0.23453407 0 44 22
1.3358135 0.23297018 -0.061606579 86 20
1.3835639 0.23674922 0.13083237 19 26
1.3710092 0.23461506 0.063236997 9 24
1.3478539 0.23044826 0 46 22
1.3390808 0.22872235 -0.061723035 83 20
1.3427498 0.2286258 -0.11914656 22 18
1.3819268 0.23151091 0.13059449 20 26
1.3742833 0.23023665 0.063353457 8 24
1.3437175 0.22492447 0 44 22
1.3423347 0.22445458 -0.061839495 97 20
1.3386261 0.22312655 -0.11869949 98 18
1.3826869 0.226927 0.13059449 20 26
1.3750787 0.22543809 0.063353457 8 24
1.3494298 0.22103293 0 45 22
1.3455752 0.22016683 -0.061955951 98 20
1.3369006 0.21828902 -0.11847594 103 18
1.3859284 0.22248973 0.13083237 19 26
1.3782849 0.22126886 0.063469917 8 24
1.3452172 0.21577296 0 47 22
1.3414025 0.21468724 -0.061723035 99 20
1.340114 0.21400972 -0.11869949 105 18
1.3867345 0.21740858 0.13083237 21 26
1.376619 0.21583283 0.063353457 8 24
1.35094 0.21160682 0 55 22
1.3446116 0.21038564 -0.061839495 98 20
1.3384284 0.20871685 -0.11847594 108 18
1.3850244 0.21219362 0.13059449 21 26
1.377364 0.21102619 0.063353457 8 24
1.3491986 0.20651558 0 73 22
1.3453379 0.20569079 -0.061839495 97 20
1.3391488 0.20404361 -0.11847594 106 18
1.3832949 0.2069933 0.13035661 21 26
1.3780922 0.20621702 0.063353457 8 24
1.3548576 0.20253603 0 76 22
1.3411068 0.2002638 -0.061606579 92 20
1.3398529 0.19936785 -0.11847594 106 18
1.3839736 0.20240498 0.13035661 21 26
1.3812752 0.20176236 0.063469917 8 24
1.3580307 0.19816248 0 82 22
1.3492128 0.19664979 -0.061955951 96 20
1.3405068 0.19492364 -0.11847594 109 18
1.3822074 0.19722512 0.13011873 27 26
1.3868823 0.19787849 0.063702829 8 24
1.3586802 0.19365799 0 81 22
1.3473847 0.19182658 -0.061839495 98 20
1.338713 0.18989755 -0.11825241 104 18
1.385353 0.19273818 0.13035661 39 26
1.3776686 0.19167531 0.063236997 8 24
1.3543946 0.18823382 0 82 22
1.3480786 0.18688688 -0.061839495 99 20
1.3418348 0.18556046 -0.11847594 107 18
1.3811167 0.18699929 0.12988086 52 26
1.3857877 0.18761805 0.063586377 16 24
1.3600312 0.18393061 0 81 22
1.3487227 0.18218006 -0.061839495 97 20
1.3425059 0.18064114 -0.11847594 113 18
1.3792931 0.18185577 0.12964298 65 26
1.3765286 0.18148959 0.063120544 56 24
1.3618753 0.36339965 0.031914841 9 23
1.3631442 0.17950448 0 40 22
1.346874 0.17714939 -0.061723035 98 20
1.3431282 0.17595384 -0.11847594 114 18
1.3823576 0.17759408 0.12988086 69 26
1.3821087 0.17731121 0.063353457 32 24
1.3462237 0.35416266 0.031508651 26 23
1.3612822 0.17443138 0 9 22
1.3524393 0.17307281 -0.061955951 97 20
1.3437045 0.17149889 -0.11847594 111 18
1.380499 0.17246307 0.12964298 73 26
1.382689 0.172727 0.063353457 8 24
1.3401365 0.3478002 0.031334572 33 23
1.369297 0.17083287 0 8 22
1.3530058 0.16858701 -0.061955951 99 20
1.3442948 0.16680744 -0.11847594 103 18
1.3934772 0.16887979 0.13083237 39 26
1.3882722 0.16825114 0.063586377 7 24
1.3414024 0.34288603 0.031334572 29 23
1.3624668 0.16492367 0 8 22
1.3536147 0.16362688 -0.061955951 98 20
1.3473699 0.16217278 -0.11869949 109 18
1.3254085 0.15910259 -0.18062288 162 16
1.3965302 0.16430151 0.13107024 9 26
1.388851 0.16340414 0.063586377 8 24
1.3425912 0.33820155 0.031334572 25 23
1.3630342 0.16016676 0 8 22
1.3492161 0.15832682 -0.061723035 86 20
1.3479278 0.15746859 -0.11869949 111 18
1.3210357 0.15391016 -0.17993478 179 16
1.3970674 0.15966955 0.13107024 7 26
1.3794864 0.15743822 0.063120544 8 24
1.3486128 0.33472568 0.031450626 23 23
1.363585 0.15540791 0 8 22
1.344797 0.15305947 -0.061490119 70 20
1.3484426 0.15299784 -0.11869949 110 18
1.3190778 0.14925429 -0.17959073 202 16
1.4168411 0.15690283 0.21751215 17 28
1.3951423 0.15452184 0.13083237 7 26
1.3824834 0.15313379 0.063236997 8 24
1.3472886 0.32965332 0.031392597 24 23
1.3690634 0.15142697 0 8 22
1.3474035 0.32918301 -0.031392597 22 21
1.3452972 0.14859912 -0.061490119 74 20
1.3489684 0.14828995 -0.11869949 113 18
1.3195908 0.14464895 -0.17959073 215 16
1.4173802 0.15195619 0.21751215 19 28
1.3931983 0.14938951 0.13059449 8 26
1.3879764 0.14883177 0.063469917 8 24
1.3484879 0.32471305 0.031392597 24 23
1.3670974 0.14638494 0 8 22
1.3363998 0.32153288 -0.031102462 22 21
1.3483166 0.14392841 -0.061606579 78 20
1.3470013 0.14332086 -0.11847594 111 18
1.3200878 0.14004183 -0.17959073 228 16
1.4130132 0.14625928 0.21673946 19 28
1.3912607 0.14402981 0.13035661 8 26
1.3835437 0.14323711 0.063236997 8 24
1.3447514 0.3188422 0.031276543 25 23
1.3750863 0.14213252 0 8 22
1.3375694 0.31663254 -0.031102462 24 21
1.3488108 0.13922104 -0.061606579 85 20
1.3475176 0.13838288 -0.11847594 112 18
1.3205922 0.13520253 -0.17959073 242 16
1.4184314 0.14180982 0.21751215 19 28
1.3868016 0.13868511 0.12988086 8 26
1.3815502 0.13816223 0.063120544 8 24
1.3507218 0.31529102 0.031392597 27 23
1.3656218 0.13635415 0 8 22
1.3386664 0.31196162 -0.031102462 27 21
1.3542593 0.13499933 -0.061839495 83 20
1.3554271 0.13440338 -0.11914656 115 18
1.321056 0.13059197 -0.17959073 229 16
1.416459 0.13662441 0.2171258 16 28
1.3922088 0.13455655 0.13035661 22 26
1.3869963 0.13381064 0.063353457 8 24
1.3518142 0.31057417 0.031392597 29 23
1.3660896 0.1315864 0 8 22
1.3421286 0.30808425 -0.031160491 35 21
1.3497498 0.12980124 -0.061606579 85 20
1.3509073 0.12944095 -0.11869949 116 18
1.3264126 0.1266731 -0.18027882 205 16
1.4119847 0.13147621 0.21635312 17 28
1.3901917 0.12946916 0.13011873 66 26
1.3924061 0.12966573 0.063586377 9 24
1.35289 0.30585358 0.031392597 28 23
1.3764769 0.12796536 0 8 22
1.3334482 0.3011775 -0.030928383 41 21
1.3526815 0.12531528 -0.061723035 81 20
1.348871 0.12449981 -0.11847594 115 18
1.3293128 0.12226499 -0.18062288 176 16
1.4198385 0.12694855 0.21751215 19 28
1.3881779 0.12415522 0.12988086 75 26
1.3804333 0.12346882 0.063004084 52 24
1.349072 0.30003542 0.031276543 31 23
1.3694652 0.12226449 0 40 22
1.3394209 0.29738024 -0.031044437 46 21
1.3555987 0.12081043 -0.061839495 70 20
1.3542795 0.11998655 -0.11892302 121 18
1.3297521 0.11739199 -0.18062288 164 16
1.4202731 0.12199161 0.21751215 20 28
1.3935626 0.11972704 0.13035661 75 26
1.3858329 0.11906914 0.063236997 66 24
1.3501111 0.29532447 0.031276543 31 23
1.372375 0.11769305 0 34 22
1.3355691 0.29162791 -0.030928383 43 21
1.3634776 0.11670467 -0.062188867 15 20
1.3497274 0.11484439 -0.11847594 122 18
1.3400247 0.11356977 -0.18199904 141 16
1.4182284 0.11683425 0.2171258 21 28
1.3914913 0.11466141 0.13011873 76 26
1.3887293 0.1144321 0.063353457 34 24
1.3511338 0.2906099 0.031276543 30 23
1.382745 0.11370558 0 9 22
1.336579 0.28696412 -0.030928383 41 21
1.3638767 0.11194453 -0.062188867 9 20
1.3550843 0.11052905 -0.11892302 124 18
1.335476 0.10849866 -0.18131095 134 16
1.4136828 0.11174902 0.21635312 19 28
1.3893826 0.1098542 0.12988086 73 26
1.3784339 0.2922481 0.095609866 9 25
1.3965706 0.11040495 0.063702829 9 24
1.35209 0.28612781 0.031276543 30 23
1.3756368 0.10854162 0 9 22
1.3350787 0.28200936 -0.030870354 41 21
1.3617506 0.10722913 -0.062072415 9 20
1.3579261 0.10622498 -0.11914656 125 18
1.3333595 0.10388122 -0.1809669 135 16
1.4189909 0.10717804 0.2171258 21 28
1.3996853 0.10573795 0.13083237 34 26
1.372124 0.28589576 0.095089309 17 25
1.3944571 0.10534515 0.063586377 8 24
1.3580219 0.28219581 0.031392597 30 23
1.3809938 0.10410701 0 8 22
1.3433937 0.27888447 -0.031044437 40 21
1.3596437 0.10205442 -0.061955951 9 20
1.3558052 0.1013028 -0.11892302 108 18
1.3386533 0.099585548 -0.18165499 134 16
1.4070545 0.10111067 0.21519408 29 28
1.4000634 0.10060713 0.13083237 9 26
1.37072 0.2803607 0.094915785 18 25
1.3948337 0.1002335 0.063586377 8 24
1.3565507 0.27694947 0.031334572 30 23
1.3813661 0.099044725 0 8 22
1.3468549 0.27446225 -0.031102462 37 21
1.362483 0.097481981 -0.062072415 8 20
1.3611354 0.096677616 -0.1193701 103 18
1.3365389 0.094507895 -0.18131095 130 16
1.412328 0.096527629 0.21596676 47 28
1.402889 0.095885172 0.13107024 7 26
1.3692461 0.27507877 0.094742268 18 25
1.4026502 0.095863126 0.063935749 7 24
1.3575094 0.27221254 0.031334572 34 23
1.3841978 0.094388358 0 9 22
1.3502547 0.27025405 -0.031160491 34 21
1.362815 0.092725433 -0.062072415 9 20
1.3564954 0.091598332 -0.11892302 97 18
1.3442734 0.09032777 -0.18234308 122 16
1.4077262 0.091285199 0.21519408 63 28
1.4106503 0.091705196 0.13178387 8 26
1.3701979 0.27029753 0.094742268 18 25
1.4004841 0.090808704 0.063819289 7 24
1.3559998 0.26698512 0.031276543 36 23
1.384519 0.089556031 0 9 22
1.3486919 0.2652882 -0.031102462 36 21
1.3706073 0.088438161 -0.062421788 9 20
1.3642471 0.087565988 -0.11959364 84 18
1.3371513 0.085408241 -0.18131095 120 16
1.4080211 0.086616509 0.21519408 65 28
1.4134461 0.08692944 0.13202174 8 26
1.3686391 0.26527345 0.094568744 19 25
1.4007775 0.086164035 0.063819289 7 24
1.3569236 0.26225016 0.031276543 36 23
1.3823129 0.084815182 0 9 22
1.3422503 0.25914428 -0.030928383 42 21
1.3684149 0.083505206 -0.062305331 8 20
1.3296891 0.25668958 -0.091331884 25 19
1.3620588 0.082656533 -0.1193701 81 18
1.3349694 0.080595061 -0.1809669 117 16
1.4107953 0.081594013 0.21558043 67 28
1.4038161 0.08118917 0.13107024 8 26
1.3720515 0.26072523 0.094742268 19 25
1.4035771 0.08116962 0.063935749 8 24
1.3578306 0.257512 0.031276543 35 23
1.3826144 0.079748176 0 8 22
1.3456459 0.25469208 -0.030986408 52 21
1.3662045 0.078588642 -0.062188867 9 20
1.3355203 0.25275066 -0.091677189 54 19
1.3623525 0.077663779 -0.1193701 82 18
1.3402007 0.075973757 -0.18165499 115 16
1.4110714 0.076668918 0.21558043 66 28
1.4065763 0.076419555 0.13130812 23 26
1.3729533 0.2559343 0.094742268 19 25
1.3963706 0.075875029 0.063586377 8 24
1.3562649 0.25230926 0.031218518 33 23
1.3853809 0.075052738 0 8 22
1.3440703 0.24953276 -0.030928383 56 21
1.3664706 0.07381922 -0.062188867 9 20
1.3388456 0.2485469 -0.091849834 88 19
1.3651021 0.073036827 -0.11959364 81 18
1.3429307 0.071422555 -0.18199904 113 16
1.4113305 0.071742885 0.21558043 64 28
1.396892 0.071019471 0.13035661 65 26
1.3762908 0.25159302 0.094915785 18 25
1.4041097 0.071368895 0.063935749 9 24
1.3595954 0.24802637 0.031276543 37 23
1.3831373 0.070093848 0 8 22
1.3473912 0.24529159 -0.030986408 62 21
1.3667198 0.069048896 -0.062188867 9 20
1.3397051 0.24387196 -0.091849834 96 19
1.3678358 0.068391614 -0.11981718 80 18
1.3431718 0.066734418 -0.18199904 113 16
1.4115723 0.066815995 0.21558043 67 28
1.3971198 0.066386826 0.13035661 72 26
1.3697985 0.24545471 0.094395228 18 25
1.3943715 0.066010587 0.063469917 48 24
1.3530743 0.24194604 0.031102462 46 23
1.3833736 0.065265365 0 23 22
1.3481972 0.24082212 -0.030986408 54 21
1.3744369 0.064617589 -0.062538244 10 20
1.3405482 0.23919401 -0.091849834 88 19
1.3655676 0.063743249 -0.11959364 80 18
1.3384383 0.062058724 -0.18131095 111 16
1.4117861 0.062134679 0.21558043 68 28
1.3998294 0.061615076 0.13059449 70 26
1.3755159 0.24178307 0.094742268 22 25
1.3920878 0.061280444 0.063353457 69 24
1.3514082 0.2370216 0.031044437 59 23
1.3910757 0.060994256 0 67 22
1.3490297 0.23611458 -0.030986408 51 21
1.3696533 0.059849415 -0.062305331 39 20
1.3339665 0.23344421 -0.091331884 89 19
1.3632939 0.058872737 -0.1193701 50 18
1.3435949 0.057590261 -0.18199904 110 16
1.4144624 0.057302352 0.21596676 67 28
1.4000359 0.056728382 0.13059449 70 26
1.3788085 0.23740764 0.094915785 30 25
1.3947885 0.056517944 0.063469917 69 24
1.3620774 0.23401313 0.031276543 63 23
1.3812877 0.055750757 0 37 22
1.3449204 0.23055074 -0.030870354 61 21
1.3798356 0.055453267 -0.062771164 10 20
1.3421453 0.23006372 -0.091849834 88 19
1.3734438 0.05449247 -0.12026427 12 18
1.3437877 0.052899882 -0.18199904 107 16
1.414663 0.052117705 0.21596676 67 28
1.4002345 0.051596612 0.13059449 66 26
1.369835 0.2306785 0.094221704 36 25
1.4024736 0.05166949 0.063819289 32 24
1.3604617 0.22860074 0.031218518 67 23
1.393975 0.051126134 0 9 22
1.3457563 0.22561982 -0.030870354 60 21
1.3700466 0.050046928 -0.062305331 8 20
1.3405206 0.2247262 -0.091677189 87 19
1.3761228 0.049543772 -0.1204878 9 18
1.3464472 0.048058555 -0.18234308 103 16
1.417305 0.047257736 0.21635312 65 28
1.400406 0.046708565 0.13059449 64 26
1.3706319 0.22589548 0.094221704 45 25
1.4076375 0.046932258 0.064052209 9 24
1.363717 0.22426039 0.031276543 67 23
1.3916463 0.046180978 0 9 22
1.3490014 0.22132996 -0.030928383 56 21
1.377701 0.045499597 -0.062654711 8 20
1.3388366 0.21963733 -0.091504529 93 19
1.3787762 0.044816811 -0.12071135 9 18
1.3466069 0.043358285 -0.18234308 102 16
1.4149923 0.042240303 0.21596676 65 28
1.4129915 0.042418346 0.13178387 24 26
1.3689506 0.2207084 0.094048187 58 25
1.4003038 0.041806601 0.063702829 8 24
1.3620245 0.21909742 0.031218518 67 23
1.3942981 0.041393187 0 8 22
1.349728 0.21685529 -0.030928383 58 21
1.3703625 0.040481057 -0.062305331 8 20
1.3395951 0.21496259 -0.091504529 97 19
1.3739392 0.040107071 -0.12026427 9 18
1.3442681 0.038825128 -0.18199904 97 16
1.4519502 0.037978202 0.32804602 9 30
1.4151247 0.03754779 0.21596676 63 28
1.4131309 0.037485827 0.13178387 8 26
1.3746006 0.2169539 0.094395228 65 25
1.4079244 0.037349761 0.064052209 7 24
1.3578444 0.21355635 0.031102462 55 23
1.3844306 0.036521491 0 8 22
1.352945 0.21253479 -0.030986408 65 21
1.3729919 0.035758365 -0.062421788 8 20
1.3427635 0.21091057 -0.091677189 95 19
1.3740709 0.035310883 -0.12026427 8 18
1.3468708 0.034191292 -0.18234308 78 16
1.4593849 0.03280931 0.32973701 10 30
1.4226611 0.032518614 0.2171258 62 28
1.4005256 0.21632743 0.16873811 8 27
1.4157469 0.032359179 0.13202174 7 26
1.3778507 0.21229838 0.094568744 64 25
1.405555 0.032136034 0.063935749 8 24
1.3585815 0.20881526 0.031102462 55 23
1.3895541 0.031552635 0 8 22
1.3512452 0.20719136 -0.030928383 64 21
1.3681149 0.030860914 -0.062188867 8 20
1.341063 0.2056053 -0.091504529 98 19
1.374191 0.030274423 -0.12026427 8 18
1.3420358 0.029155139 -0.18165499 76 16
1.4594907 0.027714906 0.32973701 10 30
1.4178269 0.027464464 0.21635312 60 28
1.3914596 0.20993933 0.16752635 10 27
1.4183396 0.027461406 0.13225962 8 26
1.3761179 0.207112 0.094395228 64 25
1.4031618 0.027185082 0.063819289 8 24
1.3642442 0.20482261 0.031218518 64 23
1.3871561 0.026657928 0 8 22
1.3519602 0.20247337 -0.030928383 60 21
1.3682144 0.02608511 -0.062188867 8 20
1.3417726 0.20092285 -0.091504529 98 19
1.3693089 0.025393112 -0.11981718 9 18
1.3339462 0.19973026 -0.15039924 55 17
1.3470809 0.024552491 -0.18234308 75 16
1.4595785 0.022620166 0.32973701 10 30
1.4277928 0.022656549 0.2178985 50 28
1.3897295 0.20471504 0.16722341 17 27
1.4159344 0.02272182 0.13202174 8 26
1.3743656 0.20194024 0.094221704 64 25
1.4082422 0.022358447 0.064052209 8 24
1.3674232 0.20042609 0.031276543 67 23
1.3922403 0.021886371 0 8 22
1.3501518 0.19762257 -0.030870354 63 21
1.3732913 0.021378729 -0.062421788 8 20
1.3424659 0.19623797 -0.091504529 98 19
1.3693856 0.02085218 -0.11981718 9 18
1.3321782 0.19470902 -0.15011492 103 17
1.3446791 0.020052431 -0.18199904 84 16
1.4645164 0.017831765 0.33086431 10 30
1.4253902 0.017894534 0.21751215 31 28
1.3904008 0.2001054 0.16722341 19 27
1.4160051 0.017779149 0.13202174 36 26
1.3750278 0.19738157 0.094221704 65 25
1.4108056 0.017715883 0.064168662 8 24
1.3656067 0.19553182 0.031218518 68 23
1.3898054 0.017242363 0 8 22
1.353307 0.19326626 -0.030928383 63 21
1.3708575 0.016798027 -0.062305331 8 20
1.3455775 0.19214211 -0.091677189 97 19
1.3744298 0.016122416 -0.12026427 9 18
1.3377329 0.19100136 -0.15068354 111 17
1.3373126 0.015285898 -0.1809669 87 16
1.4694409 0.012754398 0.33199161 10 30
1.4377936 0.013011569 0.21944387 22 28
1.38372 0.19420308 0.16631459 19 27
1.4085928 0.012780229 0.13130812 65 26
1.3781776 0.19293077 0.094395228 65 25
1.4158533 0.012828628 0.064401582 10 24
1.3663143 0.19052528 0.031218518 67 23
1.3948569 0.012427583 0 8 22
1.3514985 0.18819202 -0.030870354 54 21
1.3759043 0.01180834 -0.062538244 8 20
1.3437704 0.18709563 -0.091504529 99 19
1.3744779 0.011324662 -0.12026427 9 18
1.338424 0.18609704 -0.15068354 118 17
1.3423102 0.01064883 -0.18165499 85 16
1.4621708 0.0073430361 0.33030063 10 30
1.4378316 0.0077417055 0.21944387 20 28
1.3868808 0.18947043 0.16661753 18 27
1.4086301 0.0076173926 0.13130812 69 26
1.3788756 0.18787819 0.094395228 64 25
1.4059017 0.0076008234 0.063935749 49 24
1.369447 0.18609573 0.031276543 68 23
1.3923931 0.0073059304 0 13 22
1.3571314 0.18391737 -0.030986408 53 21
1.3734398 0.0069967471 -0.062421788 8 20
1.3444471 0.1821692 -0.091504529 100 19
1.37949 0.0063016498 -0.12071135 9 18
1.3390656 0.18142393 -0.15068354 118 17
1.339864 0.0057224627 -0.18131095 84 16
1.4646233 0.0022390625 0.33086431 10 30
1.4403199 0.0027235509 0.21983023 20 28
1.3850743 0.18429649 0.16631459 19 27
1.4111367 0.0027011782 0.13154599 66 26
1.3770511 0.18273142 0.094221704 65 25
1.4034225 0.0026923923 0.063819289 68 24
1.3676111 0.18098204 0.031218518 68 23
1.3824102 0.0024437816 0 57 22
1.3528105 0.17851615 -0.030870354 62 21
1.3759532 0.0022025055 -0.062538244 40 20
1.3500187 0.17813651 -0.091849834 98 19
1.3720337 0.0014902037 -0.12004072 50 18
1.3446143 0.17740732 -0.15125217 119 17
1.342352 0.0010432688 -0.18165499 83 16
1.4670578 -0.0028819421 0.33142793 10 30
1.4403207 -0.0023041207 0.21983023 18 28
1.3955511 0.18075277 0.16752635 19 27
1.4111376 -0.0022246249 0.13154599 64 26
1.3801535 0.17824732 0.094395228 65 25
1.4059205 -0.0022143282 0.063935749 71 24
1.3707128 0.17653075 0.031276543 66 23
1.3949102 -0.002423197 0 67 22
1.3583822 0.17443842 -0.030986408 69 21
1.3784498 -0.0026091984 -0.062654711 37 20
1.3481592 0.1731009 -0.091677189 98 19
1.3745205 -0.0033090923 -0.12026427 37 18
1.3402994 0.17207116 -0.15068354 116 17
1.3572044 -0.0037072466 -0.18371925 22 16
1.4694757 -0.0077634444 0.33199161 11 30
1.4452449 -0.0071122837 0.22060291 18 28
1.3912197 0.17549419 0.16692047 19 27
1.4111224 -0.0069041131 0.13154599 65 26
1.3807371 0.17366961 0.094395228 65 25
1.4084028 -0.0068926439 0.064052209 61 24
1.3688112 0.17166889 0.031218518 67 23
1.3898946 -0.0070157116 0 27 22
1.3539943 0.16930379 -0.030870354 74 21
1.3859251 -0.007231283 -0.063004084 9 20
1.3512 0.16894317 -0.091849834 98 19
1.3720119 -0.0078488952 -0.12004072 10 18
1.3408626 0.16762562 -0.15068354 114 17
1.359661 -0.0082268948 -0.1840633 9 16
1.4427414 -0.012132514 0.22021657 19 28
1.3918238 0.17063685 0.16692047 19 27
1.4110898 -0.011829807 0.13154599 69 26
1.3838098 0.16915582 0.094568744 64 25
1.4133645 -0.011858531 0.064285129 22 24
1.3694313 0.1666508 0.031218518 67 23
1.3848618 -0.011816693 0 9 22
1.3595381 0.16518822 -0.030986408 74 21
1.3783981 -0.012232453 -0.062654711 8 20
1.3517815 0.16422556 -0.091849834 100 19
1.3794458 -0.012718895 -0.12071135 8 18
1.3463982 0.16331708 -0.15125217 118 17
1.3571478 -0.012945288 -0.18371925 9 16
1.4426872 -0.017420344 0.22021657 20 28
1.39244 0.16553441 0.16692047 19 27
1.4135253 -0.01703551 0.13178387 54 26
1.3794682 0.16348699 0.094221704 63 25
1.4133115 -0.017038692 0.064285129 8 24
1.3700047 0.16186959 0.031218518 65 23
1.3898088 -0.016961325 0 8 22
1.3626161 0.16050094 -0.031044437 73 21
1.378347 -0.017043885 -0.062654711 8 20
1.3474216 0.15867761 -0.091504529 101 19
1.3818797 -0.017810799 -0.12093488 8 18
1.3420278 0.1580264 -0.15068354 124 17
1.3546154 -0.017882662 -0.18337521 9 16
1.4450872 -0.022498401 0.22060291 22 28
1.3930093 0.16067289 0.16692047 23 27
1.428387 -0.022224918 0.13321114 13 26
1.3874619 0.15953848 0.094742268 36 25
1.4082496 -0.021886542 0.064052209 8 24
1.3631135 0.15621938 0.031044437 51 23
1.3872416 -0.021769363 0 8 22
1.3557199 0.15487915 -0.030870354 64 21
1.3757821 -0.021811523 -0.062538244 8 20
1.3504447 0.15426078 -0.091677189 101 19
1.381809 -0.02263435 -0.12093488 8 18
1.3425713 0.15334089 -0.15068354 128 17
1.3495932 -0.022520293 -0.18268713 9 16
1.4375916 -0.027389966 0.21944387 25 28
1.3935616 0.15580939 0.16692047 31 27
1.420841 -0.026809046 0.1324975 8 26
1.3880103 0.15469435 0.094742268 13 25
1.4156548 -0.026956398 0.064401582 8 24
1.3711014 0.15230128 0.031218518 36 23
1.3896567 -0.026663529 0 8 22
1.3611934 0.15094237 -0.030986408 64 21
1.3781943 -0.026666068 -0.062654711 8 20
1.3509749 0.14954592 -0.091677189 101 19
1.3767475 -0.027110441 -0.1204878 8 18
1.3505028 0.14948666 -0.15153648 128 17
1.3569378 -0.027156338 -0.18371925 8 16
1.4374928 -0.032157041 0.21944387 25 28
1.3965374 0.15145922 0.16722341 41 27
1.4282026 -0.031947047 0.13321114 8 26
1.3909947 0.15036307 0.094915785 17 25
1.4080679 -0.031471614 0.064052209 8 24
1.3666298 0.14720953 0.031102462 41 23
1.3845619 -0.031151233 0 8 22
1.3592274 0.14591879 -0.030928383 71 21
1.3880845 -0.031478491 -0.063120544 8 20
1.3539426 0.14533575 -0.091849834 102 19
1.3866013 -0.032162838 -0.12138196 8 18
1.3460529 0.14446834 -0.15096785 128 17
1.3494086 -0.031706087 -0.18268713 9 16
1.4398409 -0.037242305 0.21983023 24 28
1.3921224 0.14605692 0.16661753 48 27
1.4206192 -0.036727656 0.1324975 9 26
1.3865513 0.14497924 0.094568744 37 25
1.4229277 -0.036797021 0.064750962 8 24
1.3696456 0.14246257 0.031160491 65 23
1.3869437 -0.036052998 0 8 22
1.362214 0.14143585 -0.030986408 74 21
1.3854634 -0.036496133 -0.063004084 8 20
1.3519616 0.14034672 -0.091677189 101 19
1.3815026 -0.036861997 -0.12093488 8 18
1.3441033 0.13927336 -0.15068354 129 17
1.3616657 -0.036770545 -0.18440734 8 16
1.4446323 -0.042672779 0.22060291 23 28
1.3901798 0.14069931 0.16631459 57 27
1.4179877 -0.041856941 0.13225962 48 26
1.3845924 0.13964169 0.094395228 60 25
1.4152949 -0.04177935 0.064401582 8 24
1.3751074 0.13818936 0.031276543 67 23
1.3893011 -0.04121425 0 8 22
1.3602369 0.1361887 -0.030928383 74 21
1.3828316 -0.041253638 -0.062887624 8 20
1.3524669 0.13539059 -0.091677189 98 19
1.3888245 -0.042163756 -0.1216055 8 18
1.3569362 0.13584003 -0.15210509 137 17
1.3590468 -0.041681118 -0.1840633 8 16
1.4444745 -0.047715224 0.22060291 23 28
1.393132 0.13609144 0.16661753 56 27
1.4203281 -0.046644468 0.1324975 66 26
1.3875531 0.13505366 0.094568744 65 25
1.4226279 -0.04697825 0.064750962 14 24
1.3730942 0.13314287 0.031218518 69 23
1.3866503 -0.045976751 0 8 22
1.3606811 0.13167724 -0.030928383 74 21
1.3901665 -0.046341833 -0.063236997 8 20
1.3554132 0.13091302 -0.091849834 96 19
1.3861885 -0.046681263 -0.12138196 8 18
1.3499866 0.1303729 -0.15125217 143 17
1.3613758 -0.046275795 -0.18440734 9 16
1.343761 0.13021544 -0.22929579 99 15
1.4492447 -0.052692063 0.22137561 17 28
1.3911052 0.13123347 0.16631459 62 27
1.41767 -0.051507834 0.13225962 64 26
1.3879935 0.13045163 0.094568744 65 25
1.4099869 -0.051222801 0.064168662 55 24
1.3760161 0.12882617 0.031276543 69 23
1.3989812 -0.051050287 0 13 22
1.3661084 0.1273998 -0.031044437 73 21
1.3875097 -0.05085611 -0.063120544 8 20
1.35584 0.12641758 -0.091849834 79 19
1.3860171 -0.051519681 -0.12138196 8 18
1.3553567 0.12636554 -0.15182078 150 17
1.3661547 -0.051221173 -0.18509544 9 16
1.3368303 0.12505692 -0.22800763 99 15
1.449052 -0.057750545 0.22137561 17 28
1.394026 0.12660562 0.16661753 62 27
1.4174815 -0.056456108 0.13225962 60 26
1.3884403 0.12560584 0.094568744 68 25
1.4122946 -0.056247525 0.064285129 69 24
1.3814567 0.12423846 0.031392597 69 23
1.3987945 -0.05593333 0 58 22
1.364056 0.12240259 -0.030986408 73 21
1.3848188 -0.055836663 -0.063004084 29 20
1.3537893 0.12145671 -0.091677189 71 19
1.3833411 -0.056252334 -0.12115843 32 18
1.3459169 0.12049316 -0.15068354 156 17
1.3684415 -0.056095049 -0.18543947 10 16
1.3274695 0.11925665 -0.22629006 125 15
1.4488306 -0.0630612 0.22137561 19 28
1.3920087 0.12127566 0.16631459 61 27
1.4296957 -0.062211178 0.133449 41 26
1.3864071 0.12029614 0.094395228 68 25
1.4145736 -0.061535876 0.064401582 66 24
1.3769028 0.11897639 0.031276543 70 23
1.3935852 -0.060833853 0 70 22
1.3669852 0.11762095 -0.031044437 71 21
1.3846154 -0.060670242 -0.063004084 61 20
1.3542254 0.11649401 -0.091677189 71 19
1.3881004 -0.061550669 -0.1216055 64 18
1.3512777 0.11622898 -0.15125217 170 17
1.3608059 -0.060766794 -0.18440734 70 16
1.3278778 0.11462219 -0.22629006 129 15
1.4510685 -0.068237975 0.22176194 17 28
1.3998413 0.11704923 0.16722341 59 27
1.4319556 -0.067322083 0.13368689 31 26
1.3893036 0.11566722 0.094568744 67 25
1.4168445 -0.066594407 0.064518042 65 24
1.3748193 0.1139585 0.031218518 69 23
1.3958613 -0.065819688 0 52 22
1.3648969 0.11263856 -0.030986408 71 21
1.3868896 -0.065625079 -0.063120544 21 20
1.3546238 0.11176618 -0.091677189 74 19
1.3804163 -0.066026852 -0.12093488 22 18
1.3566252 0.11192883 -0.15182078 188 17
1.368005 -0.065885894 -0.18543947 82 16
1.3307236 0.11019412 -0.22671944 126 15
1.4508216 -0.073302731 0.22176194 18 28
1.3977681 0.11195968 0.16692047 37 27
1.4292392 -0.071941301 0.133449 27 26
1.3896987 0.11081695 0.094568744 64 25
1.4240851 -0.071929201 0.064867415 43 24
1.3776999 0.10936098 0.031276543 66 23
1.4031129 -0.071082965 0 11 22
1.3677541 0.10831352 -0.031044437 71 21
1.3891459 -0.070596524 -0.063236997 9 20
1.3574915 0.10723785 -0.091849834 74 19
1.3901356 -0.071128853 -0.12182904 9 18
1.3520563 0.10679252 -0.15125217 200 17
1.3578881 -0.069896713 -0.1840633 84 16
1.3286455 0.10534915 -0.22629006 119 15
1.4555029 -0.078386605 0.22253463 16 28
1.4055537 0.10790672 0.16782929 9 27
1.4314641 -0.077067457 0.13368689 27 26
1.392545 0.10640232 0.094742268 62 25
1.4188519 -0.076375052 0.064634502 9 24
1.3755813 0.10435776 0.031218518 67 23
1.4003732 -0.07559678 0 8 22
1.3681239 0.10353851 -0.031044437 70 21
1.3913845 -0.075584523 -0.063353457 8 20
1.3553531 0.10254302 -0.091677189 73 19
1.3799347 -0.075421445 -0.12093488 8 18
1.3573736 0.10245515 -0.15182078 202 17
1.360108 -0.07477615 -0.18440734 78 16
1.3314605 0.10090132 -0.22671944 117 15
1.4552058 -0.083720759 0.22253463 17 28
1.4034649 0.10256917 0.16752635 7 27
1.4311721 -0.082313523 0.13368689 24 26
1.3929257 0.10129766 0.094742268 38 25
1.4260412 -0.082016587 0.064983875 7 24
1.3759372 0.099555448 0.031218518 59 23
1.4025824 -0.08087673 0 8 22
1.3684942 0.098523393 -0.031044437 67 21
1.396098 -0.080737107 -0.063586377 8 20
1.3557199 0.097574718 -0.091677189 65 19
1.3895912 -0.081074543 -0.12182904 8 18
1.3602 0.097899184 -0.15210509 196 17
1.3598248 -0.079760686 -0.18440734 71 16
1.3342608 0.09643513 -0.22714885 117 15
1.4329919 0.10098317 0.27042302 10 29
