# .PCD v0.7 - Point Cloud Data file format
VERSION 0.7
FIELDS x y z intensity ring
SIZE 4 4 4 4 2
TYPE F F F F U
COUNT 1 1 1 1 1
WIDTH 1407
HEIGHT 1
VIEWPOINT 0 0 0 1 0 0 0
POINTS 1407
DATA ascii
nan nan nan 0 5
0.40307051 1.2718536 -1.242088 18 4
0.10192837 0.68396789 -0.69684243 13 3
nan nan nan 0 2
nan nan nan 0 1
nan nan nan 0 0
0.35368633 2.1656489 0.57619947 31 31
0.84858012 2.7849767 0.66567415 30 30
0.35764235 2.1781645 0.41913196 32 29
0.85369432 2.8051553 0.45318252 31 28
0.36015117 2.1817117 0.26567921 33 27
0.85429406 2.8070788 0.27712673 32 26
0.36145589 2.1849294 0.15165703 34 25
0.85358971 2.8047495 0.13509193 32 24
0.36335519 2.1893597 0.050715584 34 23
0.85499853 2.8076115 0 32 22
0.36210963 2.1794324 -0.050483476 33 21
0.85505807 2.804302 -0.13509193 32 20
0.36298975 2.1847286 -0.15089616 33 19
0.74932927 2.4554348 -0.2273397 2 18
0.36313131 2.1831768 -0.24933861 34 17
0.7533322 2.4654579 -0.35333273 2 16
0.36060297 2.1724758 -0.37786576 34 15
nan nan nan 0 13
0.36090291 2.1789234 -0.49784777 35 14
0.65611827 2.1286271 -0.75838017 4 12
0.3531152 2.1592844 -0.87077546 33 11
0.69631362 2.2340336 -1.2241139 12 9
nan nan nan 0 10
0.62124556 1.9808838 -1.2337136 14 8
0.17810251 1.118086 -0.74265516 26 7
0.50051463 1.5805126 -1.2359331 19 6
0.1557638 0.9997375 -0.82703871 21 5
0.4071736 1.2686481 -1.2403604 18 4
0.10619403 0.69546187 -0.70957845 12 3
nan nan nan 0 2
nan nan nan 0 1
nan nan nan 0 0
0.3639935 2.1786356 0.58006656 32 31
0.86742467 2.809768 0.67243797 29 30
0.36804658 2.1913667 0.42197356 32 29
0.87272471 2.8303244 0.45781866 30 28
0.3710182 2.1975091 0.26779982 33 27
0.87192762 2.8277049 0.27950552 31 26
0.37152833 2.1958876 0.15252464 34 25
0.87197775 2.8278465 0.13637298 31 24
0.37265563 2.1979368 0.050947692 34 23
0.86971635 2.8187888 0 32 22
0.37259093 2.1928775 -0.050831638 34 21
0.87074953 2.8203852 -0.1360236 32 20
0.37223995 2.1907613 -0.1514141 34 19
0.7612741 2.4621849 -0.22823386 2 18
0.37322998 2.1965907 -0.25104448 34 17
0.76970649 2.4863286 -0.35677317 2 16
0.3702293 2.1833467 -0.38001269 34 15
nan nan nan 0 13
0.37090817 2.1896017 -0.50063843 34 14
0.66283834 2.1240692 -0.75756294 3 12
0.3629263 2.1717567 -0.87639934 34 11
0.70316333 2.2272568 -1.221769 12 9
nan nan nan 0 10
0.62815636 1.9787031 -1.2337136 15 8
0.1833155 1.1256346 -0.74826008 24 7
0.50602853 1.5787557 -1.2359331 19 6
0.15984233 1.0029581 -0.83026934 20 5
0.41159958 1.2672191 -1.2403604 19 4
0.10784918 0.69000155 -0.70412016 11 3
nan nan nan 0 2
nan nan nan 0 1
nan nan nan 0 0
0.37401807 2.1916406 0.58393365 31 31
0.88523918 2.832289 0.67863822 28 30
0.37816766 2.2045877 0.42481515 32 29
0.88997722 2.8508329 0.46168211 29 28
0.38036254 2.2059844 0.26901159 33 27
0.88922668 2.8483944 0.28188428 31 26
0.38256651 2.2142413 0.1539128 34 25
0.8900491 2.8510015 0.13765402 32 24
0.38202032 2.206475 0.0511798 34 23
0.8877694 2.8419788 0 32 22
0.38406417 2.2137306 -0.051353879 33 21
0.88955069 2.8459249 -0.1374211 31 20
0.38115585 2.1968224 -0.15193206 34 19
0.77657676 2.4808934 -0.23024572 2 18
0.38384861 2.2124085 -0.25303462 34 17
0.78506368 2.5048869 -0.35986957 3 16
0.37993586 2.1941772 -0.38215968 34 15
0.71638566 2.2754381 -0.67270261 4 13
0.38143787 2.2051053 -0.50454527 35 14
0.66882086 2.1172383 -0.75592858 3 12
0.37205416 2.1796169 -0.88014865 33 11
0.71093363 2.2247887 -1.221769 11 9
nan nan nan 0 10
0.63440257 1.9744623 -1.2324203 15 8
0.18657367 1.1209016 -0.74545759 25 7
0.51215297 1.5788709 -1.2374477 19 6
0.16213655 0.99485749 -0.82380807 23 5
0.41658822 1.2674904 -1.242088 18 4
nan nan nan 0 3
nan nan nan 0 2
nan nan nan 0 1
nan nan nan 0 0
0.38413787 2.2046025 0.5878008 31 31
0.90248489 2.8523979 0.68427473 28 30
0.38964769 2.2250197 0.42907748 32 29
0.90887523 2.8759644 0.46631825 29 28
0.39062554 2.2193098 0.2708292 32 27
0.90693122 2.8715284 0.28450093 30 26
0.39287633 2.2276316 0.15495391 34 25
0.90904683 2.8764453 0.13905153 31 24
0.39231375 2.219898 0.051527962 34 23
0.90750605 2.869843 0 32 22
0.39356661 2.2247527 -0.051644012 33 21
0.9070304 2.8666062 -0.13858569 32 20
0.39184746 2.2126725 -0.1531406 34 19
0.79082924 2.4972899 -0.23203403 2 18
0.39458221 2.2281785 -0.25502482 33 17
0.79561698 2.5093489 -0.36090168 3 16
0.39142644 2.2146692 -0.38602421 34 15
0.72944772 2.288949 -0.67751741 5 13
0.39001006 2.2110291 -0.50621963 35 14
0.67548537 2.1126411 -0.75511134 3 12
0.38164929 2.1920736 -0.88577265 34 11
0.71762615 2.2203188 -1.2205964 11 9
nan nan nan 0 10
0.64094663 1.9723477 -1.2324203 15 8
0.18877488 1.1100338 -0.73845148 26 7
0.51614016 1.5733858 -1.2344184 19 6
0.16820399 1.0112623 -0.83834589 22 5
0.42078909 1.266102 -1.242088 18 4
nan nan nan 0 3
nan nan nan 0 2
nan nan nan 0 1
nan nan nan 0 0
0.39396569 2.2175889 0.59166789 30 31
0.92161292 2.8795388 0.69160223 29 30
0.40002555 2.2406344 0.43239269 32 29
0.92594552 2.8964558 0.4701817 29 28
0.40103224 2.2351036 0.27294981 32 27
0.92682308 2.8991542 0.28759333 29 26
0.40333185 2.2435024 0.15616857 33 25
0.92772639 2.9019525 0.14044902 31 24
0.40314639 2.2357361 0.051934149 33 23
0.92541528 2.8930044 0 31 22
0.40441918 2.2405858 -0.052050207 33 21
0.92695546 2.8943331 -0.14009964 31 20
0.40182492 2.2260897 -0.1541765 34 19
0.79954159 2.494514 -0.23203403 2 18
0.40455249 2.2390108 -0.25644633 33 17
0.80816448 2.5183425 -0.3626219 3 16
0.40176138 2.2278347 -0.38860059 33 15
0.74187279 2.3001096 -0.68164444 5 13
0.39987078 2.2216485 -0.50901026 35 14
0.68139642 2.1057761 -0.75347692 3 12
0.3925038 2.2066357 -0.89233392 33 11
0.72743773 2.2240937 -1.2241139 12 9
nan nan nan 0 10
0.64750028 1.9679537 -1.2311271 15 8
0.19369607 1.1154903 -0.74265516 27 7
0.52064389 1.5677104 -1.2313893 19 6
0.17065093 1.0031112 -0.83188468 22 5
0.42542675 1.264551 -1.242088 18 4
0.19509666 1.1813073 -1.2335747 17 3
nan nan nan 0 2
nan nan nan 0 1
nan nan nan 0 0
0.40637666 2.2399018 0.59811312 31 31
0.938182 2.8946731 0.69611144 27 30
0.40954816 2.2463994 0.43381345 31 29
0.94570476 2.9212346 0.47481784 29 28
0.41188899 2.2482674 0.27476743 32 27
0.94589317 2.9217761 0.29020998 30 26
0.41423774 2.2567296 0.15720968 32 25
0.94529426 2.9199107 0.14149715 30 24
0.4140943 2.2515249 0.052340336 33 23
0.94527799 2.9181263 0 30 22
0.4144299 2.2489223 -0.052282315 33 21
0.94631344 2.9195809 -0.14149715 31 20
0.41312686 2.2417746 -0.15538506 33 19
0.81330311 2.5057731 -0.23337525 2 18
0.41505075 2.252244 -0.25815219 34 17
0.82045817 2.5247808 -0.36399809 4 16
0.41263583 2.2433777 -0.39160633 33 15
0.76111579 2.3317685 -0.69196194 4 13
0.41063771 2.2345514 -0.51235896 34 14
0.68800521 2.1011403 -0.75265968 3 12
0.40267134 2.2189376 -0.89795792 33 11
0.73488837 2.2193172 -1.2229414 11 9
nan nan nan 0 10
0.65300936 1.9616228 -1.2285408 15 8
0.19545077 1.1025702 -0.73424774 27 7
0.52865845 1.5734212 -1.2374477 18 6
0.17672069 1.0175562 -0.84480715 18 5
0.43218082 1.2698967 -1.248998 17 4
0.20146632 1.19415 -1.2481302 24 3
nan nan nan 0 2
nan nan nan 0 1
nan nan nan 0 0
0.41594037 2.247972 0.60069114 30 31
0.95969158 2.9260871 0.70456624 27 30
0.42050961 2.2618532 0.4371286 32 29
0.96437281 2.9437289 0.47906762 28 28
0.42335907 2.2663348 0.27719095 32 27
0.96307445 2.9397361 0.29235089 29 26
0.42530611 2.2724333 0.15842433 33 25
0.96560997 2.9474373 0.14301111 30 24
0.4251574 2.2672648 0.052746531 32 23
0.96326256 2.9385598 0 31 22
0.42594877 2.2671165 -0.052746531 33 21
0.96273875 2.9352384 -0.14242882 30 20
0.42415506 2.2574801 -0.15659361 34 19
0.82671863 2.5171089 -0.2347165 2 18
0.42564625 2.2654307 -0.25985804 34 17
0.83469462 2.538363 -0.36640638 3 16
0.42226958 2.2516081 -0.3933239 33 15
0.77151829 2.3359425 -0.69402552 2 13
0.42200473 2.2522702 -0.51682407 34 14
0.69682616 2.1032095 -0.7542941 4 12
0.41334859 2.2334745 -0.90451914 33 11
0.74192727 2.2146454 -1.221769 11 9
0.40845484 2.2196946 -1.0437371 32 10
0.66053802 1.9613584 -1.2298341 15 8
0.20038858 1.1079962 -0.73845148 25 7
0.53414756 1.5715662 -1.2374477 18 6
0.18092701 1.0206926 -0.84803778 17 5
0.43483612 1.2632577 -1.2438154 17 4
0.20592029 1.1951299 -1.2499497 22 3
nan nan nan 0 2
nan nan nan 0 1
nan nan nan 0 0
0.42734605 2.2654996 0.6058473 30 31
0.97912526 2.9504528 0.71133006 26 30
0.43022037 2.2700205 0.43902299 31 29
0.98476732 2.9708164 0.48409012 27 28
0.43357542 2.2770345 0.27870569 32 27
0.98379791 2.9695919 0.29568115 29 26
0.43648911 2.2880867 0.15963897 33 25
0.98534185 2.9724874 0.14440861 30 24
0.43540204 2.278044 0.05303666 32 23
0.9829787 2.9636471 0 30 22
0.43720078 2.2853339 -0.053210746 33 21
0.98401457 2.9650347 -0.14405924 30 20
0.43483147 2.2706861 -0.15762952 33 19
nan nan nan 0 18
0.43587428 2.2761309 -0.26127958 34 17
0.8423242 2.533232 -0.36606231 4 16
0.43426475 2.2718964 -0.39718843 33 15
0.78806967 2.3583031 -0.70159167 2 13
0.43265003 2.2676179 -0.52073091 34 14
0.7026571 2.0962858 -0.75265968 5 12
0.42459339 2.2525935 -0.91295511 32 11
0.74926716 2.212173 -1.221769 11 9
0.41910335 2.2338269 -1.0511771 33 10
0.66773051 1.9611819 -1.2311271 15 8
0.20017897 1.0848833 -0.72303784 28 7
0.5387069 1.5679063 -1.2359331 18 6
0.18330888 1.0144511 -0.8431918 17 5
0.43902284 1.2618088 -1.2438154 17 4
0.20900507 1.1893721 -1.2444913 23 3
nan nan nan 0 2
nan nan nan 0 1
nan nan nan 0 0
0.4362154 2.2711875 0.60778081 30 31
0.99822152 2.9748921 0.71809393 27 30
0.44190809 2.2902784 0.44328535 31 29
1.0056258 3.0003138 0.48949894 28 28
0.44535112 2.2975147 0.28143215 32 27
1.0020833 2.9897308 0.29805991 28 26
0.44502005 2.2915244 0.15998603 33 25
1.004737 2.9976108 0.14580612 29 24
0.44675195 2.2962184 0.05350088 33 23
1.0031565 2.9911773 0 30 22
0.44660226 2.2911549 -0.053384826 33 21
1.0049872 2.9948928 -0.14568965 29 20
0.44568112 2.2863708 -0.15883806 33 19
nan nan nan 0 18
0.44578311 2.2868648 -0.26270112 34 17
0.85591048 2.5443544 -0.3681266 3 16
0.44366756 2.2801161 -0.39890599 34 15
0.79974282 2.3670588 -0.70503086 2 13
0.44241279 2.2756646 -0.5229634 33 14
0.71112597 2.0984178 -0.7542941 6 12
0.43419251 2.2602038 -0.91670442 32 11
0.75770229 2.2116323 -1.2229414 11 9
0.42861903 2.2435403 -1.0564915 34 10
0.67317408 1.9547946 -1.2285408 15 8
0.20528467 1.0923563 -0.72864282 32 7
0.54483241 1.567894 -1.2374477 18 6
nan nan nan 0 5
0.44463116 1.2636757 -1.2472705 17 4
0.21434873 1.1953888 -1.2517691 22 3
nan nan nan 0 2
nan nan nan 0 1
nan nan nan 0 0
0.44829249 2.2909906 0.61358154 31 31
1.018014 2.9990597 0.72485775 27 30
0.4517836 2.2983584 0.44517973 30 29
1.024835 3.0225098 0.49374872 28 28
0.45528096 2.3056865 0.28264391 32 27
1.0253255 3.0239155 0.30186594 29 26
0.45542333 2.3021922 0.16085362 33 25
1.0256406 3.0248234 0.14732008 29 24
0.4571 2.3043737 0.053732987 33 23
1.0232496 3.0160601 0 29 22
0.45653385 2.2993898 -0.053616934 33 21
1.0264195 3.0219221 -0.14720361 29 20
0.45607507 2.2970352 -0.15970132 30 19
nan nan nan 0 18
0.45705143 2.2998354 -0.26440698 32 17
nan nan nan 0 16
0.4558351 2.2978048 -0.40234116 34 15
0.8138712 2.3800261 -0.70984566 2 13
0.4545911 2.2956252 -0.52798653 32 14
0.71958113 2.0980313 -0.75511134 3 12
0.4460178 2.2767961 -0.92420298 32 11
0.76396757 2.2048028 -1.2205964 11 9
0.44071105 2.2619481 -1.0660573 32 10
0.68316013 1.9603926 -1.2337136 15 8
0.20967175 1.093631 -0.73004407 38 7
0.54858744 1.5602603 -1.2329037 18 6
nan nan nan 0 5
0.45047867 1.2654399 -1.2507255 16 4
0.21872863 1.1945951 -1.2517691 21 3
nan nan nan 0 2
nan nan nan 0 1
nan nan nan 0 0
0.45950639 2.3035479 0.61744863 31 31
1.0393078 3.0252461 0.73218524 27 30
0.46452209 2.3183539 0.44944212 30 29
1.0439396 3.0420902 0.49761218 27 28
0.46665126 2.3186021 0.28446156 32 27
1.0444961 3.0436707 0.30424473 29 26
0.46729103 2.3176246 0.16206828 32 25
1.0440302 3.0422976 0.14836821 28 24
0.46858707 2.3199165 0.054139175 32 23
1.0440593 3.0406568 0 29 22
0.46890372 2.3173027 -0.054081149 32 21
1.0442791 3.0395718 -0.14825174 29 20
0.4674437 2.3100181 -0.1607372 14 19
1.0501415 3.0514262 -0.28657767 29 18
0.46115586 2.2787466 -0.26213253 32 17
nan nan nan 0 16
0.46482337 2.3010285 -0.40319991 33 15
0.82374942 2.3817124 -0.7112214 2 13
0.46635899 2.3106682 -0.53189337 31 14
0.72534704 2.0910442 -0.75347692 2 12
0.45711929 2.2911389 -0.93076426 32 11
0.77350891 2.2061536 -1.2229414 11 9
0.45210776 2.278156 -1.0745603 32 10
0.68785846 1.9519446 -1.2298341 15 8
0.21231237 1.0867933 -0.72584033 35 7
0.55536878 1.5620821 -1.2359331 19 6
nan nan nan 0 5
0.45304698 1.2587625 -1.245543 17 4
0.22289722 1.1938244 -1.2517691 21 3
nan nan nan 0 2
nan nan nan 0 1
nan nan nan 0 0
0.47089231 2.3185036 0.62196028 31 31
1.0618765 3.056102 0.74063998 26 30
0.47554067 2.3311524 0.45228371 30 29
1.0683471 3.0780859 0.50418001 26 28
0.47771543 2.3315485 0.2862792 31 27
1.0643898 3.068398 0.30709925 28 26
0.47887066 2.3330841 0.16328292 32 25
1.0669502 3.0740147 0.15011509 28 24
0.47868565 2.3280613 0.054371282 32 23
1.063706 3.0629659 0 29 22
0.47959328 2.3304265 -0.054429311 32 21
1.0655594 3.0665669 -0.14976572 29 20
0.47650561 2.3132589 -0.16108251 7 19
1.0668122 3.0667367 -0.28836599 30 18
0.46960589 2.279556 -0.26241681 3 17
1.065286 3.0589433 -0.44519237 11 16
0.47630745 2.3162825 -0.40620568 33 15
0.83921838 2.3992345 -0.71741188 2 13
0.47694397 2.3234346 -0.5352422 32 14
0.72950405 2.0795846 -0.75020796 3 12
0.46654838 2.2986975 -0.93451357 32 11
0.78008085 2.2014961 -1.221769 11 9
0.46317726 2.2920935 -1.0820004 34 10
0.6950478 1.9516677 -1.2311271 16 8
0.21809945 1.0962038 -0.73284656 23 7
0.5605458 1.5602318 -1.2359331 18 6
0.2820915 1.4521317 -1.2227896 9 5
0.45721871 1.2572533 -1.245543 15 4
0.22685483 1.1930788 -1.2517691 20 3
nan nan nan 0 2
nan nan nan 0 1
nan nan nan 0 0
0.48295319 2.3382242 0.62776095 32 31
1.0809 3.0778365 0.74684024 26 30
0.48773339 2.3511992 0.45654601 30 29
1.0891982 3.1048183 0.50920248 27 28
0.4889701 2.3469613 0.28839979 31 27
1.0874752 3.0998807 0.3106674 28 26
0.49116799 2.3534601 0.1648446 32 25
1.0887339 3.1034427 0.1517455 28 24
0.48945692 2.3411427 0.054719441 32 23
1.0846419 3.0900803 0 29 22
0.49129373 2.3458652 -0.054835498 32 21
1.0865009 3.0936399 -0.15127967 28 20
0.48824397 2.3311987 -0.16246371 5 19
1.089929 3.0982189 -0.29171908 29 18
0.4741227 2.2633972 -0.26071098 4 17
1.0743091 3.0505362 -0.44450429 12 16
0.48900127 2.3388026 -0.4104996 10 15
0.85198855 2.4100308 -0.7215389 2 13
0.48703474 2.3312995 -0.53747469 32 14
0.73797977 2.0816064 -0.75184244 2 12
0.47783452 2.3129468 -0.94107491 32 11
0.7885077 2.2008376 -1.2229414 11 9
0.47304088 2.3016298 -1.0873147 34 10
0.7011289 1.9472173 -1.2298341 16 8
nan nan nan 0 7
0.56462479 1.5545287 -1.2329037 18 6
0.28862542 1.4586283 -1.2292509 20 5
0.46348539 1.2607341 -1.2507255 15 4
0.23198369 1.1973319 -1.2572274 20 3
nan nan nan 0 2
nan nan nan 0 1
nan nan nan 0 0
0.49457279 2.3530746 0.63227254 31 31
1.1038865 3.1084642 0.75529498 26 30
0.49946913 2.3662992 0.45986122 31 29
1.1099575 3.1289248 0.51383865 27 28
0.50125659 2.364665 0.29082331 31 27
1.1099595 3.1288943 0.31399769 27 26
0.50350451 2.3712521 0.16623276 31 25
1.1104347 3.1302128 0.15325947 28 24
0.5032137 2.3637838 0.055299714 31 23
1.1096646 3.1263177 0 28 22
0.50362623 2.3636961 -0.055299714 32 21
1.1095604 3.1225731 -0.1529101 27 20
0.48861948 2.2928832 -0.15987396 2 19
1.1124424 3.1272314 -0.29484862 28 18
0.48189974 2.2592142 -0.26042667 4 17
1.094106 3.0724211 -0.44828874 12 16
0.48174855 2.2623036 -0.39718843 3 15
nan nan nan 0 13
0.49869865 2.3462744 -0.54138154 32 14
0.74240452 2.0699949 -0.74857354 2 12
0.49010658 2.3293278 -0.94857347 32 11
0.79392296 2.1918459 -1.2194239 11 9
0.48470196 2.315388 -1.0947548 30 10
0.7089957 1.9466441 -1.2311271 17 8
nan nan nan 0 7
0.57031858 1.5524487 -1.2329037 18 6
0.2958374 1.4669164 -1.2373275 20 5
0.46746993 1.2573344 -1.248998 15 4
0.2357145 1.1931078 -1.2535886 20 3
nan nan nan 0 2
nan nan nan 0 1
nan nan nan 0 0
0.50721818 2.370146 0.6374287 32 31
1.1268227 3.1364806 0.76318616 25 30
0.51275837 2.3860567 0.46412358 31 29
1.1322842 3.1550508 0.51886111 26 28
0.51304638 2.3773699 0.29264095 30 27
1.1323686 3.1552494 0.31709009 27 26
0.51533902 2.3840199 0.16727388 31 25
1.1337315 3.1590209 0.15488988 28 24
0.5146206 2.3766727 0.05564788 31 23
1.1338121 3.1575148 0 28 22
0.51545018 2.3764927 -0.05564788 31 21
1.1348341 3.1586249 -0.15488988 28 20
nan nan nan 0 19
1.1365671 3.1582682 -0.29820174 28 18
0.48978293 2.2575183 -0.26042667 5 17
1.1019964 3.0590739 -0.44691259 32 16
0.49171767 2.2702386 -0.39890599 4 15
nan nan nan 0 13
0.50985932 2.3563426 -0.54417217 32 14
0.74801022 2.0629501 -0.74693906 2 12
0.50161302 2.3434701 -0.95513475 31 11
0.80423623 2.1951387 -1.2229414 11 9
0.49747038 2.3358185 -1.1053835 30 10
0.716528 1.9461643 -1.2324203 16 8
nan nan nan 0 7
0.57642943 1.5523121 -1.2344184 18 6
0.30133617 1.4677446 -1.2389427 20 5
0.4705779 1.2523142 -1.245543 15 4
0.23920998 1.1889143 -1.2499497 20 3
nan nan nan 0 2
nan nan nan 0 1
nan nan nan 0 0
0.51804483 2.3801651 0.64065129 32 31
1.1510928 3.169148 0.77220458 25 30
0.52369255 2.3962455 0.46649152 31 29
1.1559502 3.1858988 0.5246563 25 28
0.52557784 2.3949602 0.29506448 30 27
1.1544302 3.1816823 0.3201825 27 26
0.52685571 2.3968248 0.16831501 31 25
1.1558446 3.1855547 0.15640384 27 24
0.52719343 2.3943927 0.056112096 31 23
1.1525186 3.1746821 0 28 22
0.52910095 2.399091 -0.056228146 31 21
1.1535399 3.1757646 -0.15593801 27 20
nan nan nan 0 19
1.1578188 3.182354 -0.30088422 28 18
0.49659508 2.2509427 -0.25985804 6 17
1.1347404 3.1156886 -0.45585772 28 16
0.49542183 2.2492623 -0.39547086 4 15
nan nan nan 0 13
0.5232935 2.3783534 -0.54975337 25 14
0.75765312 2.0669789 -0.74939078 3 12
0.51322418 2.3575611 -0.96169609 31 11
0.80958694 2.1861088 -1.2194239 12 9
0.50705081 2.340704 -1.108572 31 10
0.72107124 1.9376383 -1.2285408 16 8
nan nan nan 0 7
0.58114278 1.5484295 -1.2329037 18 6
0.30684432 1.4685524 -1.240558 20 5
0.47365651 1.2472878 -1.242088 14 4
0.24403815 1.1914332 -1.2535886 18 3
nan nan nan 0 2
nan nan nan 0 1
nan nan nan 0 0
0.52946711 2.3924961 0.64451844 32 31
1.1722404 3.1925404 0.77896845 24 30
0.53682423 2.4159741 0.47075388 29 29
1.180697 3.2189379 0.53083783 25 28
0.53877616 2.4149137 0.29779097 30 27
1.1787043 3.2152133 0.32398853 25 26
0.53900939 2.4120123 0.16952965 32 25
1.179018 3.2143168 0.15803427 26 24
0.5388093 2.4071748 0.056460254 30 23
1.1773988 3.2081821 0 27 22
0.53977334 2.4095204 -0.056518283 31 21
1.1784153 3.2092175 -0.15780134 26 20
nan nan nan 0 19
1.180414 3.2112083 -0.30401376 27 18
0.50228548 2.2394993 -0.25872079 8 17
1.1716224 3.1839309 -0.46652305 27 16
0.49952114 2.2306914 -0.39246508 4 15
nan nan nan 0 13
0.50419331 2.2552881 -0.52128905 3 14
0.76321721 2.0598927 -0.7477563 2 12
0.52502394 2.3739543 -0.96919465 31 11
0.81683195 2.1834121 -1.2194239 12 9
0.51957756 2.358813 -1.1181378 30 10
0.72900319 1.9392402 -1.2311271 16 8
nan nan nan 0 7
0.58698225 1.5483525 -1.2344184 18 6
0.31053412 1.461925 -1.2357121 20 5
0.47974169 1.2507682 -1.2472705 14 4
0.24833308 1.1922967 -1.2554079 18 3
nan nan nan 0 2
nan nan nan 0 1
nan nan nan 0 0
0.54161668 2.4095848 0.64967459 32 31
1.1963983 3.2251639 0.78798687 25 30
0.5475229 2.426156 0.47312188 32 29
1.2034013 3.2474217 0.53624666 26 28
0.54951137 2.4252179 0.29930568 30 27
1.2037803 3.2484078 0.32779455 26 26
0.55030239 2.4248078 0.17057078 31 25
1.2035786 3.2478471 0.1598976 27 24
0.55230474 2.4297521 0.057040524 30 23
1.2010902 3.2394125 0 26 22
0.55094308 2.4198091 -0.056808416 31 21
1.2029724 3.2427456 -0.15966469 28 20
nan nan nan 0 19
1.2046472 3.2420714 -0.30736685 26 18
0.50806212 2.2305543 -0.25786787 8 17
1.1931063 3.2076654 -0.47065157 26 16
0.50637209 2.2266209 -0.39203572 6 15
nan nan nan 0 13
0.51636183 2.2725296 -0.52575403 3 14
0.77087432 2.0595622 -0.74857354 2 12
0.53786105 2.3924623 -0.9776305 30 11
0.82523149 2.1826122 -1.2205964 12 9
0.53083867 2.3725386 -1.125578 29 10
0.7357679 1.9366837 -1.2311271 16 8
nan nan nan 0 7
0.59381223 1.5500067 -1.2374477 18 6
0.31563529 1.4608322 -1.2357121 20 5
0.48410478 1.2490859 -1.2472705 14 4
0.25284469 1.1931008 -1.2572274 19 3
nan nan nan 0 2
nan nan nan 0 1
nan nan nan 0 0
0.55430889 2.4265227 0.65483069 32 31
1.2204974 3.2551689 0.79644167 24 30
0.56090564 2.4457684 0.47738424 32 29
1.227747 3.2778888 0.54204184 25 28
0.56130016 2.4377978 0.30112329 32 27
1.2264792 3.2744758 0.33088696 26 26
0.56266952 2.4398873 0.17178541 30 25
1.2271925 3.2763593 0.16152802 27 24
0.56456965 2.4423251 0.057388686 31 23
1.2255723 3.2703071 0 26 22
0.56387407 2.4373558 -0.057272632 31 21
1.2271506 3.2710407 -0.1612951 29 20
0.54031634 2.3350446 -0.16349961 2 19
1.2299871 3.2751341 -0.31094348 27 18
0.51456046 2.221416 -0.25701496 5 17
1.227863 3.2660475 -0.47994077 27 16
0.51176792 2.2127495 -0.38988876 7 15
nan nan nan 0 13
0.51556015 2.2327127 -0.51682407 4 14
0.78093374 2.0633495 -0.7510252 2 12
0.55022603 2.4062939 -0.98419183 31 11
0.83284515 2.179718 -1.2205964 12 9
0.5465278 2.4014738 -1.1404581 30 10
0.74209177 1.9319775 -1.2298341 16 8
nan nan nan 0 7
0.59876812 1.5459663 -1.2359331 18 6
0.32139355 1.46153 -1.2373275 19 5
0.4873544 1.2439406 -1.2438154 13 4
0.25721592 1.1921662 -1.2572274 18 3
nan nan nan 0 2
nan nan nan 0 1
nan nan nan 0 0
0.56809652 2.4456553 0.66063142 31 31
1.2453935 3.2848268 0.80489647 25 30
0.57430696 2.4628253 0.48117301 31 29
1.2528971 3.3080063 0.54783702 25 28
0.57530105 2.4574754 0.30384979 32 27
1.2508334 3.3025331 0.33421722 26 26
0.57557708 2.4548092 0.17300005 30 25
1.2524825 3.3068619 0.1632749 26 24
0.57593668 2.4525082 0.057678819 30 23
1.2490861 3.2961771 0 26 22
0.57679272 2.452307 -0.057678819 30 21
1.2509763 3.2994208 -0.16292553 27 20
0.54887104 2.3330486 -0.16349961 2 19
1.2534934 3.3008583 -0.31384951 27 18
0.52344418 2.2244432 -0.25758356 5 17
1.2530454 3.296236 -0.4851014 26 16
0.52117091 2.2181439 -0.39117691 8 15
nan nan nan 0 13
0.52096802 2.2189434 -0.51403338 4 14
0.78474611 2.0517874 -0.7477563 2 12
0.56018865 2.4111328 -0.9870038 29 11
0.8408286 2.176651 -1.2205964 11 9
0.55896699 2.4171927 -1.1489611 26 10
0.74883109 1.9293753 -1.2298341 16 8
nan nan nan 0 7
0.60488862 1.5457177 -1.2374477 18 6
0.32690594 1.4622622 -1.2389427 19 5
0.49169362 1.2422318 -1.2438154 13 4
0.26173902 1.1929367 -1.2590469 18 3
nan nan nan 0 2
nan nan nan 0 1
nan nan nan 0 0
0.58104914 2.4624691 0.66578752 31 31
1.2708178 3.3168414 0.8139149 24 30
0.58684456 2.47753 0.48448816 32 29
1.2768177 3.3358998 0.55324584 25 28
0.58844954 2.4747708 0.30627331 30 27
1.2766106 3.3353257 0.33802328 25 26
0.58932132 2.4746253 0.17456175 31 25
1.2801125 3.3444407 0.16537116 26 24
0.58853662 2.4675047 0.058085013 30 23
1.2749125 3.3291426 0 26 22
0.59055465 2.4721622 -0.058201063 30 21
1.276805 3.3323367 -0.16478886 27 20
0.55758876 2.3335447 -0.16367225 2 19
1.2801981 3.3359725 -0.31764966 26 18
0.52833194 2.2105207 -0.25616205 7 17
1.2796638 3.3311288 -0.49095014 26 16
0.53004873 2.2211037 -0.39203572 6 15
nan nan nan 0 13
0.52758497 2.212369 -0.5129171 5 14
0.79361147 2.0534413 -0.74939078 2 12
0.57337195 2.4294689 -0.99543977 28 11
0.84842145 2.1737025 -1.2205964 12 9
0.57152265 2.4328537 -1.157464 27 10
0.75399441 1.9227679 -1.2272476 16 8
0.41571102 1.8011875 -1.2274829 4 7
0.60807806 1.5380512 -1.2329037 18 6
0.33116987 1.457389 -1.2357121 19 5
0.49602681 1.240508 -1.2438154 13 4
0.26479435 1.1869926 -1.2535886 19 3
nan nan nan 0 2
nan nan nan 0 1
nan nan nan 0 0
0.59580785 2.4862707 0.67287719 32 31
1.2964805 3.3487179 0.82293338 25 30
0.60063529 2.4969511 0.48875052 32 29
1.3054099 3.3751817 0.56058639 25 28
0.60172582 2.4920042 0.30869684 31 27
1.3029425 3.3705261 0.34206718 25 26
0.60262698 2.4919503 0.17594992 30 25
1.3053128 3.3748808 0.16711803 26 24
0.6018343 2.4848728 0.058549229 30 23
1.3000804 3.3596365 0 25 22
0.60402721 2.4920564 -0.058723308 31 21
1.3010725 3.3604558 -0.16641928 12 20
0.56338859 2.3218873 -0.16298166 2 19
1.293056 3.3363514 -0.31809673 26 18
0.5372113 2.2134917 -0.25673065 7 17
1.3032622 3.3591788 -0.49576676 25 16
0.53375638 2.2024806 -0.38902995 6 15
nan nan nan 0 13
0.53434807 2.2082381 -0.51235896 6 14
0.8007744 2.0506587 -0.74939078 2 12
0.58572507 2.4455893 -1.0029384 27 11
0.85481328 2.1688237 -1.2194239 12 9
0.5831486 2.4440536 -1.1638412 24 10
0.7611565 1.9222453 -1.2285408 15 8
0.41776928 1.7815775 -1.2148718 4 7
0.61317509 1.5360262 -1.2329037 18 6
0.33429965 1.4488426 -1.2292509 14 5
0.49945793 1.237182 -1.242088 13 4
0.26910371 1.1877811 -1.2554079 19 3
nan nan nan 0 2
nan nan nan 0 1
nan nan nan 0 0
0.60689133 2.4960198 0.67609984 32 31
1.3217909 3.380686 0.8319518 24 30
0.61354983 2.5140278 0.49253929 32 29
1.3318957 3.4099371 0.56715423 25 28
0.61645597 2.5165148 0.31202918 32 27
1.3273956 3.3984029 0.34539744 25 26
0.61621469 2.5117424 0.1775116 30 25
1.331057 3.4077432 0.16898137 27 24
0.61541754 2.5047123 0.059071466 30 23
1.3267076 3.394882 0 25 22
0.61688668 2.5069249 -0.059129495 31 21
1.3122089 3.3561227 -0.16641928 5 20
0.57642788 2.3418074 -0.16453551 2 19
1.3146971 3.3573155 -0.32055569 26 18
0.55105162 2.238234 -0.25985804 2 17
1.3303672 3.3937922 -0.50161552 26 16
0.54632568 2.222229 -0.39289448 7 15
0.75924402 1.9316356 -0.58397192 10 13
0.53973776 2.1968908 -0.51012647 7 14
0.8084392 2.050189 -0.75020796 2 12
0.59971195 2.4660556 -1.0123117 27 11
0.86237866 2.1658266 -1.2194239 12 9
0.59602165 2.4619048 -1.1734071 24 10
0.7686587 1.9215623 -1.2298341 13 8
0.43081936 1.8104054 -1.2358903 15 7
0.61853307 1.5338765 -1.2329037 18 6
0.34021863 1.4513839 -1.2324815 6 5
0.50514489 1.2387749 -1.245543 13 4
0.2732482 1.1868345 -1.2554079 17 3
nan nan nan 0 2
nan nan nan 0 1
nan nan nan 0 0
0.6184833 2.5056143 0.67932242 31 31
1.3488195 3.414552 0.8415339 24 30
0.6258499 2.5261707 0.49538088 33 29
1.3592273 3.4443159 0.57372212 25 28
0.63000894 2.5336177 0.31445271 32 27
1.3566337 3.437722 0.34991711 25 26
0.63038212 2.5313618 0.17907329 30 25
1.3594698 3.4448795 0.17107762 26 24
0.63018215 2.5268052 0.05965174 32 23
1.3541814 3.4297514 0 25 22
0.6304608 2.5241597 -0.059593711 30 21
1.3257538 3.3561659 -0.1666522 6 20
0.58520091 2.3422012 -0.16470817 2 19
1.3245735 3.3480761 -0.32010859 26 18
nan nan nan 0 17
1.355903 3.4236524 -0.50677615 25 16
nan nan nan 0 15
0.76064521 1.9155763 -0.57984483 10 13
0.54799014 2.1973584 -0.51068461 8 14
0.81471419 2.0451605 -0.74939078 2 12
0.61052936 2.4729497 -1.0160609 24 11
0.87158573 2.1668985 -1.221769 11 9
0.60891438 2.4773929 -1.18191 22 10
0.77536148 1.9188673 -1.2298341 10 8
0.43713617 1.8088905 -1.2358903 16 7
0.62463671 1.5335491 -1.2344184 18 6
nan nan nan 0 5
0.51015747 1.2386736 -1.2472705 13 4
0.27816194 1.1892146 -1.2590469 16 3
nan nan nan 0 2
nan nan nan 0 1
nan nan nan 0 0
0.63248867 2.5245328 0.68512309 32 31
1.3779086 3.4527938 0.8522433 24 30
0.63943487 2.5430202 0.49916965 32 29
1.3868151 3.4785452 0.58028996 26 28
0.64368886 2.550657 0.31687623 32 27
1.3843163 3.4722552 0.35396102 25 26
0.64408493 2.5484941 0.18046145 33 25
1.3872317 3.4795392 0.17305742 26 24
0.64494181 2.5462887 0.060173981 32 23
1.3819146 3.4644697 0 25 22
0.64416248 2.5413296 -0.060057927 31 21
1.3343362 3.3420091 -0.16618636 6 20
0.59703636 2.3546531 -0.16574405 2 19
1.3353269 3.3411205 -0.31988505 4 18
nan nan nan 0 17
1.384427 3.4602718 -0.51296896 26 16
nan nan nan 0 15
0.76317292 1.9016279 -0.5764057 44 13
0.55803823 2.2048845 -0.5129171 6 14
0.82220459 2.0421607 -0.74939078 2 12
0.62464231 2.4909327 -1.0244968 19 11
0.87831116 2.1617982 -1.2205964 10 9
0.62290335 2.4949086 -1.1914759 24 10
0.78401166 1.9199723 -1.2324203 10 8
0.44327247 1.8052646 -1.234489 16 7
0.6302532 1.5312493 -1.2344184 18 6
nan nan nan 0 5
0.51539171 1.2384624 -1.248998 12 4
0.28016439 1.1781726 -1.2481302 15 3
nan nan nan 0 2
nan nan nan 0 1
nan nan nan 0 0
0.6470775 2.5432706 0.69092369 31 31
1.4069777 3.488369 0.86238903 24 30
0.65419686 2.5620704 0.50343204 32 29
1.4161956 3.5146666 0.58724421 25 28
0.65671587 2.5627074 0.31869388 33 27
1.4147313 3.5110056 0.35848069 26 26
0.65774518 2.5630298 0.18167609 32 25
1.4168 3.5161152 0.17515367 26 24
0.65940493 2.5658133 0.060696226 32 23
1.4133254 3.5057435 0 25 22
0.65905911 2.5607409 -0.060580168 33 21
1.3394452 3.3211231 -0.16537116 6 20
0.60875958 2.3645284 -0.16660731 2 19
1.3438278 3.3269711 -0.31899089 6 18
nan nan nan 0 17
1.4091851 3.4850106 -0.51744151 10 16
nan nan nan 0 15
0.76799524 1.8944991 -0.57503003 46 13
0.56430393 2.1957419 -0.51124275 6 14
0.83468205 2.0524044 -0.7542941 2 12
0.63219482 2.4842439 -1.0226222 18 11
0.88454717 2.1544809 -1.2182513 11 9
0.63659042 2.5124655 -1.2010417 24 10
0.78825456 1.911293 -1.2285408 9 8
0.44907364 1.8016968 -1.2330879 15 7
0.6363607 1.5308754 -1.2359331 19 6
nan nan nan 0 5
0.51830471 1.2333268 -1.245543 12 4
0.28467348 1.1788552 -1.2499497 15 3
nan nan nan 0 2
nan nan nan 0 1
nan nan nan 0 0
0.6607635 2.5597124 0.69607991 30 31
1.4357109 3.5240281 0.87253481 24 30
0.66865641 2.5811627 0.5076943 31 29
1.4452399 3.5508714 0.59419841 25 28
0.66939044 2.5748134 0.32051152 32 27
1.4423314 3.5454745 0.3625246 25 26
0.6716969 2.5800314 0.18306427 33 25
1.4469776 3.5550857 0.17736639 26 24
0.67149884 2.5755913 0.060986362 33 23
1.4406613 3.5378265 0 25 22
0.67194837 2.575474 -0.060986362 32 21
1.3557479 3.3279881 -0.16595346 5 20
0.6226601 2.3841128 -0.16816117 2 19
1.3501449 3.3109713 -0.31787318 6 18
nan nan nan 0 17
1.3654385 3.3450902 -0.49714294 2 16
nan nan nan 0 15
0.7736904 1.8895836 -0.57434219 52 13
0.57035857 2.1891408 -0.51012647 9 14
0.84004128 2.0451093 -0.75265968 2 12
0.64850414 2.5135601 -1.0357448 20 11
0.89338183 2.1556139 -1.2205964 11 9
0.65040749 2.5299568 -1.2106074 23 10
0.7937637 1.9066942 -1.2272476 9 8
0.4558647 1.802126 -1.234489 16 7
0.64066142 1.5269239 -1.2344184 19 6
nan nan nan 0 5
0.52380961 1.2349256 -1.248998 12 4
0.28979236 1.1829038 -1.2554079 13 3
nan nan nan 0 2
nan nan nan 0 1
nan nan nan 0 0
0.67473155 2.5785429 0.70188051 31 31
1.4650165 3.562036 0.88324428 25 30
0.68342471 2.6026795 0.51243031 31 29
1.4748677 3.589457 0.60153896 25 28
0.68485665 2.5989821 0.32384387 32 27
1.4726943 3.5841444 0.36704424 25 26
0.68659019 2.6019099 0.18479946 33 25
1.4749161 3.5895264 0.17934619 26 24
0.68512678 2.5926859 0.061450578 32 23
1.4685669 3.5723283 0 25 22
0.68794328 2.5996971 -0.061624657 32 21
1.3639227 3.3165467 -0.16560407 3 20
0.6337418 2.3940928 -0.16902442 2 19
1.3578955 3.2970309 -0.31697902 8 18
nan nan nan 0 17
1.3657641 3.312839 -0.49301443 4 16
0.60634524 2.2933331 -0.40749386 2 15
0.78087282 1.8892277 -0.57503003 32 13
0.57861662 2.1894934 -0.51068461 5 14
nan nan nan 0 12
0.66428924 2.5381932 -1.0469927 28 11
0.89919168 2.1484103 -1.2182513 12 9
0.66447836 2.5496886 -1.2212362 22 10
0.79625696 1.8940551 -1.2207816 9 8
0.46183828 1.8006043 -1.234489 15 7
0.64598751 1.5246783 -1.2344184 18 6
nan nan nan 0 5
0.52883196 1.2347493 -1.2507255 11 4
0.29351014 1.18022 -1.2535886 15 3
nan nan nan 0 2
nan nan nan 0 1
nan nan nan 0 0
0.68928516 2.5971894 0.70768124 30 31
1.497089 3.6041245 0.89508098 24 30
0.69817144 2.6216319 0.51669264 31 29
1.5072963 3.6321836 0.60965216 25 28
0.69967127 2.6181579 0.32657036 32 27
1.5042999 3.6249428 0.37180179 25 26
0.70273638 2.6260049 0.1867082 33 25
1.5066066 3.6304767 0.18167534 26 24
0.70107675 2.6143034 0.062030844 32 23
1.5040661 3.622581 0 25 22
0.7021786 2.6165957 -0.062088873 32 21
1.3847066 3.3322754 -0.1666522 2 20
0.64402753 2.3990941 -0.16954236 2 19
1.3799307 3.317554 -0.31943798 4 18
nan nan nan 0 17
1.3716006 3.2943389 -0.49095014 5 16
0.61856139 2.305372 -0.41007024 2 15
0.79429269 1.9018708 -0.57984483 28 13
0.59002537 2.2015874 -0.51403338 3 14
0.80487818 1.9215716 -0.70852977 4 12
0.68307269 2.5715899 -1.0619899 29 11
0.90668553 2.1452587 -1.2182513 11 9
0.67670143 2.5581765 -1.2265506 20 10
0.80235481 1.8891555 -1.2194883 8 8
0.46791601 1.7968954 -1.2330879 16 7
0.65078586 1.520473 -1.2329037 18 6
nan nan nan 0 5
0.5340749 1.23446 -1.2524531 11 4
0.29824957 1.1807998 -1.2554079 12 3
nan nan nan 0 2
nan nan nan 0 1
nan nan nan 0 0
0.70380771 2.6133096 0.71283734 30 31
1.5282218 3.6412742 0.90579033 24 30
0.71288133 2.6380177 0.52048141 31 29
1.5397258 3.6721807 0.61737907 25 28
0.71508831 2.6371369 0.32929683 31 27
1.5378113 3.6675901 0.3767972 24 26
0.71626461 2.6378558 0.18774931 32 25
1.5392414 3.6709802 0.18400452 26 24
0.71542692 2.631139 0.06249506 32 23
1.5347644 3.6585312 0 24 22
0.71699977 2.6333015 -0.062553085 32 21
1.4031042 3.3435366 -0.16746742 2 20
0.6547755 2.4039385 -0.17006031 2 19
1.3833859 3.2918196 -0.31742612 6 18
0.63197565 2.3198817 -0.2712304 2 17
1.3769348 3.2733166 -0.48854184 6 16
0.62789291 2.3079526 -0.41092899 2 15
0.80560881 1.9101547 -0.58328402 10 13
nan nan nan 0 14
0.81434917 1.9252753 -0.71098143 4 12
0.69805133 2.5915744 -1.0713631 29 11
0.91367316 2.1398911 -1.2170788 11 9
0.68621123 2.5579853 -1.2276134 15 10
0.80978996 1.8883089 -1.2207816 7 8
0.47418547 1.7952511 -1.2330879 15 7
0.65608943 1.5181922 -1.2329037 18 6
0.37582934 1.442573 -1.2324815 20 5
0.53765398 1.2309337 -1.2507255 11 4
0.30152655 1.1764275 -1.2517691 12 3
nan nan nan 0 2
nan nan nan 0 1
nan nan nan 0 0
0.7186327 2.6318138 0.718638 30 31
1.5599566 3.6807578 0.91706347 24 30
0.72596443 2.6497219 0.523323 31 29
1.5727851 3.7145371 0.62549233 25 28
0.73019016 2.6561654 0.33202329 32 27
1.5684177 3.7060056 0.38131687 24 26
0.73272556 2.6617961 0.18965805 32 25
1.5705706 3.7092679 0.18621723 26 24
0.73122728 2.6527264 0.063075334 32 23
1.5680308 3.7014816 0 24 22
0.73367763 2.6598287 -0.063249409 32 21
1.4284275 3.3708012 -0.16909783 2 20
0.66911608 2.423281 -0.17161416 2 19
1.4011103 3.303256 -0.31899089 5 18
0.64929217 2.3511891 -0.27521068 2 17
1.3916584 3.2778471 -0.48991802 7 16
0.64116424 2.3247459 -0.41436413 2 15
nan nan nan 0 13
nan nan nan 0 14
0.8238557 1.928936 -0.71343309 3 12
0.71393806 2.6160827 -1.0826111 28 11
0.92164004 2.1388764 -1.2182513 12 9
0.69691128 2.5621264 -1.2308021 12 10
0.81689954 1.8875756 -1.2220747 6 8
0.48098186 1.7955855 -1.234489 15 7
0.66191816 1.5178301 -1.2344184 18 6
0.38157809 1.4450102 -1.2357121 25 5
0.54319721 1.2324482 -1.2541806 10 4
0.30542606 1.1754212 -1.2517691 10 3
nan nan nan 0 2
nan nan nan 0 1
nan nan nan 0 0
0.73249102 2.6480453 0.72379416 31 31
1.5951724 3.7292967 0.93059111 24 30
0.74194497 2.6733248 0.52853256 30 29
1.6055027 3.7569864 0.63360554 25 28
0.74563015 2.6776412 0.3350527 32 27
1.6019075 3.7485547 0.38631231 25 26
0.74622262 2.6761718 0.1908727 32 25
1.6044792 3.7545481 0.18877932 26 24
0.74806017 2.6791809 0.063771658 32 23
1.5999777 3.7422247 0 25 22
0.74832451 2.6765122 -0.063713625 33 21
1.4592652 3.4119558 -0.171427 2 20
0.68049556 2.4330611 -0.17247741 2 19
1.4283396 3.3349578 -0.32256752 1 18
0.65908551 2.3562014 -0.27606365 2 17
1.4021147 3.270694 -0.48957399 7 16
0.64490843 2.3083706 -0.41178781 2 15
nan nan nan 0 13
0.621535 2.2258098 -0.52128905 5 14
nan nan nan 0 12
0.72799236 2.6314492 -1.0901097 26 11
0.93086636 2.139694 -1.2205964 11 9
0.70480478 2.5576193 -1.2297391 11 10
0.82606018 1.8905911 -1.2259543 7 8
0.48747298 1.7959796 -1.2358903 15 7
0.665604 1.5118723 -1.2313893 17 6
0.38563979 1.4399812 -1.2324815 22 5
0.5445444 1.2239463 -1.2472705 10 4
0.31039274 1.1776659 -1.2554079 10 3
nan nan nan 0 2
nan nan nan 0 1
nan nan nan 0 0
0.74887973 2.6710627 0.7308839 31 31
1.6255847 3.7639444 0.94073689 24 30
0.75723553 2.6919913 0.53279489 30 29
1.6391822 3.7989733 0.64171875 25 28
0.759004 2.6893556 0.33687034 32 27
1.6367004 3.7931991 0.39154556 25 26
0.76164478 2.6951559 0.19243439 31 25
1.6363964 3.7924805 0.19099204 25 24
0.76215672 2.693392 0.064177841 31 23
1.63188 3.7802172 0 25 22
0.7617383 2.6883152 -0.064061791 32 21
1.4820718 3.4320543 -0.17270805 2 20
0.69237345 2.4426718 -0.17334066 2 19
1.465704 3.3893578 -0.32837954 1 18
0.67540663 2.3825698 -0.27947533 2 17
1.413523 3.2657797 -0.48957399 6 16
0.66298997 2.3416612 -0.41822869 2 15
1.1657403 2.6841185 -0.82746547 10 13
0.63194495 2.2330086 -0.52352154 5 14
nan nan nan 0 12
0.74340981 2.6512134 -1.0994829 26 11
0.92765009 2.1121836 -1.2065262 9 9
0.71433485 2.5573235 -1.2308021 10 10
0.83438617 1.8916093 -1.2285408 10 8
0.49319276 1.7922701 -1.234489 15 7
0.67168784 1.5113558 -1.2329037 18 6
0.38967112 1.4349416 -1.2292509 26 5
0.54881346 1.222038 -1.2472705 10 4
0.31450167 1.1765753 -1.2554079 10 3
nan nan nan 0 2
nan nan nan 0 1
nan nan nan 0 0
0.76543796 2.6939979 0.73797357 30 31
1.6621066 3.8118176 0.95426452 23 30
0.77400702 2.7153056 0.53800446 30 29
1.6761371 3.8475623 0.65099114 24 28
0.77518964 2.7105548 0.33989975 31 27
1.6728194 3.839927 0.39701679 25 26
0.77857751 2.7188611 0.1943431 32 25
1.6735908 3.8416798 0.19378704 25 24
0.77683407 2.7074015 0.064584032 31 23
1.6670671 3.8249054 0 24 22
0.77868176 2.7120714 -0.064700082 32 21
1.516636 3.476944 -0.17527013 2 20
0.70638525 2.4594221 -0.17472187 3 19
1.5074561 3.4526625 -0.33508575 1 18
0.69028866 2.4015684 -0.28203413 2 17
1.4278928 3.2676313 -0.4906061 5 16
0.67427701 2.3486872 -0.41994625 3 15
1.1736358 2.675427 -0.8260898 12 13
0.6444205 2.2471917 -0.52742839 4 14
nan nan nan 0 12
0.75944036 2.6707695 -1.1088562 27 11
nan nan nan 0 9
0.7230885 2.5525103 -1.2297391 10 10
0.84218663 1.8904917 -1.2298341 14 8
0.50031209 1.7924453 -1.2358903 15 7
0.67722267 1.5088837 -1.2329037 18 6
0.39694047 1.4408659 -1.2357121 20 5
0.5510397 1.2150854 -1.242088 10 4
0.31970119 1.1787266 -1.2590469 10 3
nan nan nan 0 2
nan nan nan 0 1
nan nan nan 0 0
0.78130633 2.7120693 0.74377429 30 31
1.6976899 3.8547266 0.96666485 23 30
0.79074889 2.7360387 0.5427404 30 29
1.7101469 3.8865979 0.65871799 24 28
0.79338723 2.7363038 0.34353507 30 27
1.7089589 3.8838718 0.40225005 25 26
0.79616356 2.7423415 0.19625182 30 25
1.7098134 3.8857956 0.19634913 26 24
0.79393166 2.7310796 0.06522233 31 23
1.7062865 3.8759587 0 25 22
0.79558134 2.7332025 -0.065280356 31 21
1.5469035 3.5127575 -0.17736639 2 20
0.71817464 2.4663978 -0.17541246 3 19
1.5281485 3.4653358 -0.33687407 1 18
0.70351231 2.4158421 -0.28402427 2 17
1.4468684 3.2782292 -0.49301443 1 16
0.68726951 2.3628778 -0.422952 3 15
1.1946667 2.6976774 -0.83434385 12 13
0.66078651 2.2729032 -0.53412592 4 14
nan nan nan 0 12
0.77579397 2.692606 -1.1191667 31 11
nan nan nan 0 9
0.73199409 2.5499709 -1.2297391 10 10
0.8496604 1.8894907 -1.2311271 14 8
0.50600529 1.788695 -1.234489 15 7
0.68248558 1.5065106 -1.2329037 18 6
0.40094844 1.4357941 -1.2324815 18 5
0.55603319 1.2147962 -1.2438154 10 4
0.32111132 1.1676774 -1.2481302 9 3
nan nan nan 0 2
nan nan nan 0 1
nan nan nan 0 0
0.79751551 2.7325187 0.7502194 30 31
1.7339203 3.8999536 0.97962886 24 30
0.80717188 2.7568257 0.54747635 31 29
1.7477953 3.9347677 0.66799021 25 28
0.80851245 2.7525704 0.34595859 30 27
1.7430607 3.9259381 0.40724546 24 26
0.81204611 2.761085 0.19781351 30 25
1.7467107 3.9322841 0.19902769 25 24
0.81049991 2.7522728 0.065802604 30 23
1.7421677 3.9202285 0 24 22
0.81098026 2.7521315 -0.065802604 30 21
1.5743921 3.5415573 -0.17911327 2 20
0.72888952 2.4710541 -0.17593041 3 19
1.5659844 3.5193827 -0.34268609 2 18
0.71824485 2.4348183 -0.28658307 2 17
1.4839588 3.3322101 -0.5019595 2 16
0.69828814 2.3699169 -0.42466956 2 15
1.1942501 2.6715555 -0.82746547 10 13
0.66626334 2.2636843 -0.53245151 5 14
0.90289706 2.0155585 -0.75184244 2 12
0.78924763 2.7055969 -1.125728 26 11
nan nan nan 0 9
0.73333317 2.5213189 -1.2169847 9 10
0.85503519 1.8847154 -1.2298341 13 8
0.51111078 1.7829356 -1.2316866 15 7
0.68830711 1.5060469 -1.2344184 18 6
0.40519184 1.4326195 -1.2308662 18 5
0.56081939 1.2145848 -1.245543 10 4
0.32680526 1.1732174 -1.2554079 9 3
nan nan nan 0 2
nan nan nan 0 1
nan nan nan 0 0
0.81066686 2.7437618 0.75408655 30 31
1.7707963 3.9475045 0.99315655 24 30
0.82117832 2.7706132 0.55079156 29 29
1.7871281 3.9875395 0.6780352 25 28
0.8246882 2.7736666 0.34898797 30 27
1.7832472 3.9788623 0.41343027 25 26
0.82758391 2.7798951 0.1993752 31 25
1.7832584 3.9788723 0.20170623 25 24
0.82745361 2.7759235 0.066440895 30 23
1.7776861 3.9646041 0 24 22
0.82984805 2.7804258 -0.066556945 30 21
1.6035235 3.575043 -0.18109305 2 20
0.73921365 2.4757948 -0.17644836 3 19
1.6037971 3.5706654 -0.34827459 2 18
0.73056513 2.446707 -0.28828889 2 17
1.5057478 3.3495891 -0.5054 3 16
0.70965099 2.3793924 -0.42681652 2 15
1.2456663 2.7617605 -0.85704243 7 13
0.68456721 2.2963858 -0.5408234 4 14
0.9115265 2.0168574 -0.75347692 2 12
0.80588943 2.7272813 -1.1360385 27 11
nan nan nan 0 9
0.73914218 2.5101883 -1.2127333 7 10
0.86160886 1.8817194 -1.2298341 14 8
0.51759458 1.7832202 -1.2330879 16 7
0.69188833 1.5000255 -1.2313893 18 6
0.40966806 1.4293611 -1.2292509 19 5
0.56505567 1.2126198 -1.245543 10 4
0.32905197 1.1654646 -1.2481302 8 3
nan nan nan 0 2
nan nan nan 0 1
nan nan nan 0 0
0.82921576 2.7710063 0.7624653 29 31
1.8046805 3.9856646 1.0044296 24 30
0.83999318 2.7983017 0.55694824 30 29
1.8265157 4.0375237 0.68769383 24 28
0.84221381 2.7969158 0.35232034 30 27
1.8197169 4.0224857 0.41866359 24 26
0.84302592 2.7960966 0.20076336 30 25
1.8208368 4.0249429 0.20438477 24 24
0.84555012 2.7991967 0.067079194 30 23
1.8183455 4.0175781 0 24 22
0.84459645 2.7942634 -0.066963136 31 21
1.6331222 3.6055295 -0.1829564 2 20
0.75288862 2.4899154 -0.17765692 3 19
1.6244866 3.5831828 -0.35006291 3 18
0.74167907 2.4511471 -0.28914183 2 17
1.53997 3.3939078 -0.51296896 3 16
0.72475892 2.3979995 -0.43068108 2 15
1.2877119 2.8271468 -0.87905312 18 13
nan nan nan 0 14
0.91596305 2.0070574 -0.7510252 2 12
0.82317185 2.7487378 -1.1463492 28 11
nan nan nan 0 9
0.74253297 2.4879417 -1.2031674 8 10
0.86849999 1.8785487 -1.2298341 13 8
0.52470839 1.7832981 -1.234489 15 7
0.69738162 1.4974796 -1.2313893 18 6
0.41754827 1.4370167 -1.2373275 17 5
0.56795126 1.2072734 -1.242088 10 4
0.3342568 1.1675497 -1.2517691 8 3
nan nan nan 0 2
nan nan nan 0 1
nan nan nan 0 0
0.84775394 2.7956944 0.77019954 28 31
1.8486798 4.0432453 1.0207756 23 30
0.85736746 2.8186951 0.56168425 29 29
1.8659596 4.0847096 0.69696611 23 28
0.86040384 2.8199258 0.35565269 30 27
1.8613627 4.0746307 0.42484835 25 26
0.86198837 2.8216169 0.20284562 31 25
1.8625849 4.0772882 0.20741269 24 24
0.86114848 2.8153532 0.06754341 31 23
1.8590662 4.0677185 0 25 22
0.86286116 2.8174431 -0.067601435 31 21
1.6997558 3.7178795 -0.18901224 4 20
0.76783627 2.5062215 -0.17903812 3 19
1.6459105 3.5953124 -0.35185122 3 18
0.75458282 2.4627962 -0.29084766 2 17
1.5699561 3.4265006 -0.51881766 3 16
0.73456192 2.4001667 -0.43153986 2 15
1.2955617 2.8182683 -0.87767738 23 13
nan nan nan 0 14
0.92593539 2.010283 -0.75347692 2 12
0.83745629 2.7613773 -1.1529105 24 11
0.97484326 2.0981276 -1.2100437 10 9
0.74925554 2.4788346 -1.1999788 8 10
0.87505203 1.8755057 -1.2298341 13 8
0.5309301 1.7814556 -1.234489 15 7
0.70260453 1.4950361 -1.2313893 19 6
0.42095616 1.4300559 -1.2324815 18 5
0.57371849 1.2085452 -1.245543 10 4
nan nan nan 0 3
nan nan nan 0 2
nan nan nan 0 1
nan nan nan 0 0
0.86528486 2.8181245 0.77728921 28 31
1.8873012 4.0898323 1.0343033 22 30
0.87584805 2.8438442 0.56736737 28 29
1.9102288 4.1432056 0.70817012 22 28
0.87608606 2.8358781 0.35807621 29 27
1.9040596 4.1317067 0.43150893 23 26
0.88138729 2.8495727 0.20510139 29 25
1.905067 4.1319804 0.21055709 25 24
0.87981951 2.840987 0.068239726 30 23
1.9026042 4.124754 0 24 22
0.88031542 2.8408334 -0.068239726 30 21
1.8813692 4.0769072 -0.20776208 21 20
0.77805328 2.5082912 -0.17938341 3 19
1.6703665 3.6169543 -0.35453367 3 18
0.76537591 2.4672658 -0.2917006 2 17
1.6010743 3.4639704 -0.5253545 2 16
0.74802196 2.4140601 -0.43454561 3 15
1.3043784 2.8115497 -0.8769896 23 13
nan nan nan 0 14
0.933945 2.0091798 -0.7542941 2 12
0.85338867 2.7807472 -1.1622837 22 11
0.98649091 2.1048748 -1.2159063 10 9
0.76252413 2.4913549 -1.2074189 7 10
0.88126659 1.8725935 -1.2298341 13 8
0.53714526 1.7795914 -1.234489 15 7
0.70755845 1.492698 -1.2313893 19 6
0.42569613 1.4286522 -1.2324815 18 5
0.57850665 1.2082645 -1.2472705 9 4
0.33166003 1.1290289 -1.2117417 7 3
nan nan nan 0 2
nan nan nan 0 1
nan nan nan 0 0
0.88391626 2.8452351 0.78566796 29 31
1.9327509 4.1519871 1.0517765 21 30
0.89474219 2.8713984 0.57352412 29 29
1.9531528 4.1995425 0.71898776 23 28
0.89434576 2.8613873 0.3617115 28 27
1.9457854 4.1836925 0.43769374 23 26
0.89826101 2.8704419 0.2068366 30 25
1.9461682 4.1845002 0.213585 24 24
0.896689 2.8619101 0.06882 29 23
1.9426658 4.1750755 0 24 22
0.89768791 2.8615968 -0.06882 30 21
1.9423536 4.172503 -0.2130027 23 20
0.79083425 2.5199792 -0.18041933 3 19
nan nan nan 0 18
0.77874398 2.4813077 -0.29369077 2 17
1.628877 3.4920132 -0.53051519 2 16
0.75749213 2.4162679 -0.43540439 3 15
nan nan nan 0 13
nan nan nan 0 14
0.93658161 1.9975191 -0.7510252 2 12
0.86651874 2.7888207 -1.1669704 21 11
0.99477834 2.1034136 -1.2170788 11 9
0.77611959 2.5061102 -1.2159218 8 10
0.88779783 1.869506 -1.2298341 13 8
0.5436455 1.7797816 -1.2358903 15 7
0.71190363 1.4884261 -1.2298746 19 6
0.43068045 1.4271575 -1.2324815 18 5
0.58035272 1.2013609 -1.242088 9 4
0.33705306 1.1327981 -1.2171999 7 3
nan nan nan 0 2
nan nan nan 0 1
nan nan nan 0 0
0.89962441 2.8605709 0.79082412 28 31
1.9752221 4.2047238 1.0669951 22 30
0.90991545 2.8846493 0.57683927 29 29
1.9982642 4.2575274 0.73019177 23 28
0.91403472 2.889014 0.36564973 29 27
1.9910721 4.2421932 0.44459218 24 26
0.91728956 2.8958266 0.20891884 30 25
1.9905019 4.2409658 0.21684583 23 24
0.91546696 2.8848155 0.069458298 29 23
1.9870101 4.231617 0 23 22
0.91747952 2.8894215 -0.069574356 30 21
1.9852791 4.2241058 -0.21603063 23 20
0.80564886 2.5362248 -0.18180051 3 19
1.9618802 4.1706161 -0.41064209 19 18
0.79233432 2.4926436 -0.2953966 2 17
1.6716771 3.5512602 -0.54049242 1 16
0.77377373 2.4369564 -0.43969834 3 15
1.7918503 3.7908335 -1.1899545 8 13
nan nan nan 0 14
0.94288349 1.9919385 -0.75020796 2 12
0.88297898 2.8055284 -1.1754062 19 11
1.0021145 2.0999286 -1.2170788 11 9
0.78665 2.5075681 -1.2180476 10 10
0.8946439 1.8662394 -1.2298341 13 8
0.5483377 1.7718407 -1.2316866 15 7
0.71735418 1.4858068 -1.2298746 19 6
0.4364627 1.4273953 -1.2340969 17 5
0.58475202 1.1992259 -1.242088 9 4
0.33973062 1.1266267 -1.2117417 5 3
nan nan nan 0 2
nan nan nan 0 1
nan nan nan 0 0
0.91960818 2.8871827 0.79920286 27 31
2.0230064 4.2656612 1.0844684 22 30
0.93091351 2.9140396 0.58346963 28 29
2.0413811 4.3081961 0.74023676 23 28
0.93368107 2.9140105 0.36928502 29 27
2.0375409 4.3000727 0.45149061 23 26
0.93397641 2.911448 0.210307 30 25
2.0392146 4.303586 0.22045606 24 24
0.93467987 2.9101653 0.070154622 28 23
2.029305 4.2807693 0 23 22
0.93645877 2.9122186 -0.070212647 30 21
2.0278625 4.2758031 -0.21905856 23 20
0.82255501 2.557004 -0.18352702 3 19
2.0370297 4.2893267 -0.42316034 23 18
0.80937362 2.5158794 -0.29852402 2 17
1.6963868 3.5697048 -0.54427689 2 16
0.78603172 2.4459677 -0.4418453 3 15
1.7957489 3.7650361 -1.183764 9 13
0.75296611 2.3440816 -0.55589283 2 14
0.94983095 1.9886352 -0.75020796 2 12
0.89276677 2.802429 -1.1754062 19 11
1.0107647 2.0982294 -1.2182513 11 9
0.80085993 2.5220656 -1.2265506 11 10
0.90021896 1.8611801 -1.2285408 13 8
0.55575126 1.773869 -1.234489 15 7
0.7242837 1.4868671 -1.2329037 19 6
0.44144258 1.425863 -1.2340969 18 5
0.58973545 1.1987971 -1.2438154 9 4
0.34961826 1.1451273 -1.2335747 4 3
nan nan nan 0 2
nan nan nan 0 1
0.93246233 1.8557233 -2.8733253 1 0
0.93707287 2.9069512 0.80564803 27 31
2.0705085 4.3266664 1.1019416 22 30
0.94936544 2.9364717 0.58867913 27 29
2.0916004 4.3745632 0.75298613 23 28
0.95071912 2.9319842 0.37201148 29 27
2.0836999 4.3580317 0.45838904 24 26
0.95488822 2.9413881 0.21273628 29 25
2.0801024 4.350502 0.22325106 23 24
0.95253915 2.93066 0.070734888 28 23
2.0787897 4.3458118 0 23 22
0.95433372 2.9327047 -0.070792921 29 21
2.0783837 4.3430185 -0.22290169 23 20
nan nan nan 0 19
2.0821474 4.3450499 -0.4294194 24 18
0.8181507 2.5130389 -0.29852402 3 17
1.7249153 3.597244 -0.54943752 2 16
0.79912144 2.4572661 -0.44442162 3 15
1.8088804 3.758745 -1.183764 9 13
0.77616435 2.3878052 -0.56705528 2 14
0.96087867 1.9938171 -0.75347692 2 12
0.90254366 2.7992954 -1.1754062 19 11
1.0171156 2.0927038 -1.2170788 11 9
0.81034899 2.5214102 -1.2276134 11 10
0.90765083 1.8599482 -1.2298341 13 8
0.56131697 1.769944 -1.2330879 15 7
