# .PCD v0.7 - Point Cloud Data file format
VERSION 0.7
FIELDS x y z intensity ring
SIZE 4 4 4 4 2
TYPE F F F F U
COUNT 1 1 1 1 1
WIDTH 1236
HEIGHT 1
VIEWPOINT 0 0 0 1 0 0 0
POINTS 1236
DATA ascii
1.0143141 0.058331583 -0.11230189 36 17
0.97830272 -0.070307992 -0.13142464 17 16
1.2346486 -0.092538625 0.27844459 9 30
1.2136976 0.068344593 0.22779943 6 29
1.1777101 -0.087772317 0.17926401 5 28
1.142414 0.063208714 0.1354146 43 27
1.1168771 -0.083135739 0.10371439 74 26
1.113108 0.061140399 0.075134434 49 25
1.0932379 -0.081335358 0.049494889 72 24
1.0730346 0.058293357 0.024139225 51 23
1.0519979 -0.078368492 0 79 22
1.0605681 0.057401963 -0.023849091 9 21
1.0334369 -0.077309623 -0.046699882 73 20
1.0285144 0.055586942 -0.068887375 4 19
1.0180784 -0.076479174 -0.088521652 11 18
1.0046016 0.054055486 -0.11116465 54 17
0.99039525 -0.074680962 -0.13314486 19 16
1.2343012 -0.097063214 0.27844459 9 30
1.2163908 0.064029738 0.228273 6 29
1.1699942 -0.091496572 0.17810498 4 28
1.1426378 0.05902113 0.1354146 43 27
1.1140841 -0.087030016 0.10347651 71 26
1.1058533 0.05666085 0.074613869 51 25
1.0929323 -0.085341729 0.049494889 72 24
1.0707358 0.054414865 0.024081198 41 23
1.0517036 -0.082223721 0 82 22
1.0532838 0.053119376 -0.02367501 6 21
1.0406286 -0.081517354 -0.047049258 32 20
1.0312017 0.051948275 -0.069060028 4 19
1.0128275 -0.079808109 -0.088074572 10 18
1.0023038 0.050417591 -0.11088035 64 17
0.98517877 -0.077908956 -0.13245676 20 16
1.2291006 -0.10096353 0.27731729 10 30
1.2166069 0.059783351 0.228273 6 29
1.172129 -0.095785871 0.17849132 4 28
1.1403587 0.054907542 0.13511167 43 27
1.1112934 -0.090710975 0.10323863 74 26
1.1110262 0.053049229 0.07496091 49 25
1.0926279 -0.089156263 0.049494889 65 24
1.0858967 0.051419973 0.02442936 21 23
1.0539013 -0.086103112 0 74 22
1.0584553 0.049688328 -0.023791064 5 21
1.0328721 -0.084522434 -0.046699882 13 20
1.0313768 0.04834839 -0.069060028 4 19
1.0050994 -0.082714088 -0.087403953 11 18
0.99999297 0.046796389 -0.11059604 70 17
0.97749871 -0.080719322 -0.13142464 18 16
0.9672451 0.045503411 -0.1627399 18 15
1.231167 -0.10546555 0.27788091 24 30
1.2094524 0.055185486 0.22685224 6 29
1.169327 -0.099662378 0.17810498 5 28
1.1479799 0.051274706 0.13602048 33 27
1.1134659 -0.094611272 0.10347651 56 26
1.1087135 0.049054965 0.074787393 39 25
1.0898222 -0.092752911 0.049378429 23 24
1.083573 0.047514051 0.024371332 8 23
1.0585755 -0.090216301 0 38 22
1.0486275 0.045719355 -0.023558956 5 21
1.0325707 -0.088127315 -0.046699882 13 20
1.0315392 0.044747919 -0.069060028 5 19
1.0122608 -0.086700313 -0.088074572 10 18
0.99518782 0.0430784 -0.11002742 72 17
0.98215896 -0.084395461 -0.13211273 16 16
0.96493787 0.042013381 -0.16231051 20 15
1.228385 -0.10932734 0.27731729 37 30
1.212081 0.051283274 0.22732581 6 29
1.1812897 -0.1046523 0.18003669 5 28
1.1456645 0.047359783 0.13571756 9 27
1.1205645 -0.099170178 0.10419014 29 26
1.1138532 0.045593031 0.075134434 16 25
1.0994571 -0.09726651 0.049844261 40 24
1.0887263 0.043944195 0.024487386 6 23
1.0557806 -0.093500458 0 78 22
1.0612662 0.042588528 -0.023849091 4 21
1.0322568 -0.091731116 -0.046699882 49 20
1.0242066 0.041009735 -0.068542078 5 19
1.0069928 -0.089780144 -0.087627493 12 18
1.0002953 0.039814036 -0.11059604 75 17
0.97692662 -0.087371022 -0.13142464 17 16
0.96753919 0.038749713 -0.1627399 20 15
1.2352504 -0.11451649 0.27900821 42 30
1.2098081 0.04674064 0.22685224 7 29
1.1759799 -0.10851807 0.17926401 5 28
1.1532691 0.043456558 0.13662636 5 27
1.1127604 -0.10257657 0.10347651 63 26
1.1140128 0.041510243 0.075134434 7 25
1.0866618 -0.10012484 0.049261972 75 24
1.0888731 0.040143564 0.024487386 5 23
1.0529419 -0.097134613 0 81 22
1.0564201 0.038504869 -0.023733035 4 21
1.026958 -0.09486378 -0.046466965 84 20
1.0293343 0.037448775 -0.068887375 5 19
1.0116146 -0.093941621 -0.088074572 12 18
1.0004282 0.036322113 -0.11059604 74 17
0.98399496 -0.091656603 -0.13245676 17 16
0.96028566 0.035083354 -0.16145173 21 15
1.2275711 -0.11811461 0.27731729 36 30
1.2148701 0.042699803 0.22779943 6 29
1.1731358 -0.11238218 0.17887768 6 28
1.148454 0.039250501 0.13602048 4 27
1.1123956 -0.10646021 0.10347651 72 26
1.1216282 0.037890315 0.075654998 5 25
1.0912765 -0.10440303 0.049494889 77 24
1.0815134 0.036075536 0.024313306 5 23
1.0550846 -0.10105301 0 83 22
1.0565481 0.034817036 -0.023733035 5 21
1.0241352 -0.098204263 -0.046350509 85 20
1.0294588 0.033855498 -0.068887375 5 19
1.0137584 -0.09771651 -0.088298112 10 18
0.99558437 0.032654643 -0.11002742 78 17
0.9762764 -0.094359465 -0.13142464 16 16
0.95794106 0.03164345 -0.16102234 19 15
1.2319977 -0.12289118 0.27844459 28 30
1.2101051 0.038293511 0.22685224 6 29
1.1776512 -0.116974 0.17965037 6 28
1.1510642 0.035322826 0.13632344 4 27
1.1120365 -0.11014846 0.10347651 72 26
1.1142755 0.033732019 0.075134434 5 25
1.0933901 -0.10846317 0.049611345 77 24
1.0891268 0.032540876 0.024487386 6 23
1.0522381 -0.10448311 0 81 22
1.0591559 0.031393025 -0.023791064 5 21
1.0287552 -0.1022833 -0.046583425 85 20
1.0320635 0.03034102 -0.069060028 6 19
1.0084746 -0.10057274 -0.087851033 11 18
0.99320984 0.029100325 -0.10974311 79 17
0.97595823 -0.097596392 -0.13142464 17 16
0.96543038 0.028536649 -0.16231051 19 15
1.229161 -0.12672178 0.27788091 10 30
1.2151326 0.034429524 0.22779943 5 29
1.1649739 -0.1195941 0.17771864 6 28
1.151175 0.031505562 0.13632344 4 27
1.1116452 -0.11402953 0.10347651 76 26
1.1243529 0.030327491 0.075828515 5 25
1.0930245 -0.11208839 0.049611345 76 24
1.0867305 0.028857056 0.02442936 6 23
1.0493996 -0.10771143 0 82 22
1.0592591 0.027695691 -0.023791064 6 21
1.0284102 -0.10569421 -0.046583425 82 20
1.0296654 0.026847465 -0.068887375 6 19
1.0130697 -0.10461463 -0.088298112 10 18
0.99826634 0.025947865 -0.11031172 78 17
0.97314906 -0.10074198 -0.1310806 18 16
0.95567244 0.02505135 -0.16059294 19 15
1.2287112 -0.13101159 0.27788091 6 30
1.2054299 0.02992383 0.22590505 6 29
1.1670049 -0.12392537 0.17810498 7 28
1.1612008 0.027745124 0.1375352 4 27
1.1161888 -0.11844414 0.10395226 73 26
1.1219589 0.026338607 0.075654998 6 25
1.0901437 -0.11563466 0.049494889 76 24
1.0843303 0.02481099 0.024371332 7 23
1.0515026 -0.11164299 0 81 22
1.0593493 0.023998016 -0.023791064 6 21
1.0255333 -0.10919311 -0.046466965 80 20
1.0147933 0.022879656 -0.067851476 8 19
1.0176492 -0.10868983 -0.088745192 11 18
0.99835479 0.022288859 -0.11031172 76 17
0.98263764 -0.10521488 -0.13245676 15 16
0.96314406 0.021734143 -0.16188112 20 15
1.2209615 -0.13469967 0.27618998 6 30
1.2055316 0.025505506 0.22590505 7 29
1.166543 -0.12820183 0.17810498 7 28
1.1588138 0.023433492 0.13723224 4 27
1.1108007 -0.1219813 0.10347651 75 26
1.1295278 0.022390764 0.076175556 6 25
1.0897125 -0.11962946 0.049494889 76 24
1.0769143 0.020863561 0.024197252 7 23
1.0510863 -0.1154962 0 79 22
1.0544326 0.02000872 -0.02367501 7 21
1.0301093 -0.11332896 -0.046699882 69 20
1.0123769 0.019106999 -0.067678824 9 19
1.0122954 -0.11186127 -0.088298112 15 18
0.99346012 0.018698052 -0.10974311 78 17
0.97978491 -0.10853755 -0.13211273 15 16
0.95828944 0.018265417 -0.16102234 21 15
1.2277422 -0.13980062 0.27788091 6 30
1.2178844 0.021539306 0.228273 7 29
1.1734494 -0.13312215 0.17926401 14 28
1.1564075 0.019341558 0.13692932 5 27
1.1103683 -0.12585798 0.10347651 75 26
1.1221186 0.018309429 0.075654998 7 25
1.0892882 -0.12343253 0.049494889 75 24
1.0744815 0.017058939 0.024139225 7 23
1.0556439 -0.1197383 0 77 22
1.0445002 0.016149973 -0.023442902 8 21
1.0272268 -0.11663699 -0.046583425 38 20
1.0174247 0.015661823 -0.068024121 30 19
1.0193187 -0.11625662 -0.088968731 14 18
0.99600267 0.015274329 -0.11002742 76 17
0.98185962 -0.11224373 -0.13245676 16 16
0.95588493 0.01487555 -0.16059294 27 15
1.2296654 -0.14437379 0.27844459 6 30
1.2105891 0.017168438 0.22685224 7 29
1.1656196 -0.13634264 0.17810498 43 28
1.1564678 0.015304825 0.13692932 5 27
1.1124161 -0.12983279 0.10371439 76 26
1.1221756 0.014392395 0.075654998 7 25
1.0863709 -0.12693928 0.049378429 76 24
1.0820317 0.013418116 0.024313306 9 23
1.052737 -0.12312687 0 80 22
1.0520452 0.012794808 -0.023616981 9 21
1.039212 -0.12170041 -0.047165714 34 20
1.0174731 0.012110252 -0.068024121 47 19
1.0115104 -0.1187491 -0.088298112 13 18
0.99604994 0.011797537 -0.11002742 76 17
0.9839406 -0.115794 -0.13280082 17 16
0.9682439 0.011719326 -0.1627399 31 15
1.2340149 -0.14904353 0.27957189 6 30
1.2106394 0.013153886 0.22685224 6 29
1.1627091 -0.13990749 0.17771864 8 28
1.1639564 0.011559409 0.13783813 5 27
1.1094857 -0.13341305 0.10347651 76 26
1.1122419 0.010554393 0.07496091 10 25
1.0859439 -0.13054113 0.049378429 74 24
1.079571 0.0098015415 0.024255278 28 23
1.0548043 -0.12692101 0 82 22
1.0495844 0.0090949284 -0.023558956 29 21
1.0338452 -0.12453806 -0.046932798 25 20
1.0075322 0.0086264312 -0.067333527 56 19
1.0185037 -0.12319216 -0.088968731 11 18
0.99360001 0.0084671425 -0.10974311 77 17
0.97861534 -0.1186209 -0.13211273 17 16
0.96581483 0.0084805097 -0.16231051 33 15
1.2359035 -0.15365495 0.28013554 6 30
1.2057687 0.0088816155 0.22590505 5 29
1.1744671 -0.14550668 0.17965037 5 28
1.1565453 0.0074327048 0.13692932 6 27
1.1139516 -0.13790627 0.10395226 72 26
1.1172597 0.0067127952 0.07530795 30 25
1.0854816 -0.13433097 0.049378429 74 24
1.0696027 0.0057678772 0.024023172 42 23
1.0568353 -0.13091464 0 82 22
1.0571074 0.0054874104 -0.023733035 35 21
1.0432922 -0.12957844 -0.047398631 14 20
1.015038 0.0051655872 -0.067851476 38 19
1.0106567 -0.12580782 -0.088298112 11 18
0.99610794 0.0048435656 -0.11002742 76 17
0.98310828 -0.12266031 -0.13280082 14 16
0.96830213 0.004959478 -0.1627399 34 15
1.2377474 -0.15849745 0.28069919 6 30
1.2131571 0.0045046071 0.22732581 5 29
1.169027 -0.14917581 0.17887768 4 28
1.1590463 0.0032058321 0.13723224 6 27
1.1085027 -0.14134887 0.10347651 73 26
1.1097951 0.0025838376 0.074787393 40 25
1.0899354 -0.13895011 0.049611345 75 24
1.0696164 0.0020342316 0.024023172 53 23
1.0563483 -0.13478726 0 81 22
1.0571204 0.0016128814 -0.023733035 14 21
1.0378805 -0.13257614 -0.047165714 15 20
1.0150501 0.001445252 -0.067851476 13 19
1.0151271 -0.13015521 -0.088745192 12 18
0.99860263 0.0013760075 -0.11031172 76 17
0.97528607 -0.12529956 -0.13176867 16 16
0.9609251 0.0015484933 -0.16145173 34 15
0.94873136 0.0016447329 -0.20929699 26 14
1.2371867 -0.16281703 0.28069919 6 30
1.2058014 0.00025316328 0.22590505 6 29
1.1733959 -0.15390721 0.17965037 4 28
1.1565688 -0.00084347872 0.13692932 6 27
1.1104696 -0.14554569 0.10371439 71 26
1.1073033 -0.0012926975 0.074613869 50 25
1.0894437 -0.14275385 0.049611345 74 24
1.0696169 -0.0016994386 0.024023172 49 23
1.0533934 -0.13814358 0 82 22
1.0596189 -0.002076295 -0.023791064 8 21
1.0398867 -0.13652849 -0.047282174 13 20
1.0250251 -0.0020944604 -0.068542078 8 19
1.0097306 -0.13303664 -0.088298112 11 18
0.99860132 -0.0021097746 -0.11031172 75 17
0.98711371 -0.13035138 -0.13348889 14 16
0.95599896 -0.0018092092 -0.16059294 27 15
0.94873142 -0.0016669675 -0.20929699 29 14
1.2293715 -0.16614297 0.27900821 6 30
1.2057948 -0.0039558704 0.22590505 7 29
1.1752986 -0.15833654 0.18003669 4 28
1.1466326 -0.0048598628 0.13571756 10 27
1.1099546 -0.14942108 0.10371439 69 26
1.1147739 -0.005176181 0.075134434 49 25
1.0864644 -0.14621779 0.049494889 76 24
1.0796018 -0.005461006 0.024255278 27 23
1.0504278 -0.14148091 0 87 22
1.0596052 -0.0057750433 -0.023791064 5 21
1.0295072 -0.13880187 -0.046816342 10 20
1.0275056 -0.0056802887 -0.06871473 5 19
1.0092601 -0.13656045 -0.088298112 11 18
0.99858785 -0.0055955308 -0.11031172 75 17
0.98665267 -0.13379624 -0.13348889 14 16
0.96337539 -0.0051668901 -0.16188112 21 15
0.95359361 -0.0049914075 -0.21041323 28 14
1.2008656 -0.0079321293 0.22495785 8 29
1.1747671 -0.16223308 0.18003669 5 28
1.1466101 -0.0086622071 0.13571756 25 27
1.1143823 -0.1537911 0.10419014 39 26
1.1097629 -0.0088441484 0.074787393 36 25
1.0884467 -0.15016609 0.049611345 75 24
1.0745776 -0.0091980789 0.024139225 8 23
1.0524286 -0.14531055 0 53 22
1.047084 -0.0092080887 -0.023500927 5 21
1.0314893 -0.14274222 -0.046932798 10 20
1.0249871 -0.0090714833 -0.068542078 4 19
1.0112673 -0.14025393 -0.088521652 10 18
0.99607849 -0.0090647452 -0.11002742 72 17
1.0033666 -0.13949169 -0.1358972 15 16
0.95596308 -0.0084832422 -0.16059294 21 15
0.93651372 -0.0080523845 -0.20650636 29 14
1.2008286 -0.012333469 0.22495785 8 29
1.1741645 -0.16653773 0.18003669 5 28
1.1416079 -0.012819641 0.13511167 11 27
1.1113478 -0.15752038 0.10395226 9 26
1.1196984 -0.013005591 0.075481474 10 25
1.0878891 -0.15415445 0.049611345 30 24
1.0870351 -0.013071137 0.02442936 5 23
1.0543635 -0.14952306 0 11 22
1.0520414 -0.013096381 -0.023616981 4 21
1.0334566 -0.1466981 -0.047049258 10 20
1.0249469 -0.012828188 -0.068542078 4 19
1.0107465 -0.14395946 -0.088521652 11 18
0.99604076 -0.012541654 -0.11002742 72 17
1.0224533 -0.14601083 -0.13864955 13 16
0.96577853 -0.011916409 -0.16231051 18 15
0.93160433 -0.01143804 -0.2053901 29 14
1.1909599 -0.01641025 0.22306347 8 29
1.1735761 -0.17063531 0.18003669 6 28
1.1490002 -0.016898068 0.13602048 7 27
1.1157153 -0.16212413 0.10442802 29 26
1.1121647 -0.016817359 0.07496091 7 25
1.0898149 -0.1583149 0.049727805 70 24
1.0844835 -0.016832365 0.024371332 4 23
1.0587815 -0.15393209 0 42 22
1.0494903 -0.016734589 -0.023558956 5 21
1.0378792 -0.15103428 -0.047282174 10 20
1.0224022 -0.016371891 -0.068369426 5 19
1.015164 -0.14821683 -0.088968731 12 18
0.99350744 -0.015984597 -0.10974311 71 17
1.0243869 -0.14994286 -0.13899359 12 16
0.96326846 -0.015254864 -0.16188112 17 15
0.94617885 -0.014881264 -0.20873886 28 14
1.2007132 -0.020716464 0.22495785 9 29
1.1803004 -0.17583629 0.18119575 6 28
1.1439716 -0.020829033 0.1354146 4 27
1.1102498 -0.16508138 0.10395226 64 26
1.122074 -0.020863095 0.075654998 5 25
1.0892557 -0.16211811 0.049727805 78 24
1.0919151 -0.020743443 0.024545414 4 23
1.0532939 -0.1568802 0 77 22
1.054427 -0.020299355 -0.02367501 5 21
1.0398147 -0.15502965 -0.047398631 10 20
1.0248325 -0.019983297 -0.068542078 5 19
1.0072813 -0.15046281 -0.088298112 11 18
0.99841243 -0.019537451 -0.11031172 67 17
1.0459169 -0.15668693 -0.14208999 12 16
0.95582181 -0.018493418 -0.16059294 18 15
0.94612432 -0.018018825 -0.20873886 28 14
1.1957293 -0.024607237 0.22401066 12 29
1.1772696 -0.17937277 0.18080939 6 28
1.1438963 -0.024622466 0.1354146 4 27
1.1072074 -0.16857645 0.10371439 74 26
1.1170115 -0.024485543 0.07530795 4 25
1.086244 -0.16534856 0.049611345 78 24
1.0818452 -0.024163604 0.024313306 4 23
1.0577093 -0.16113538 0 79 22
1.0618461 -0.024132969 -0.023849091 5 21
1.0294232 -0.15695047 -0.046932798 11 20
1.0297476 -0.023483504 -0.068887375 5 19
1.0116711 -0.15474156 -0.088745192 10 18
0.99585891 -0.02279748 -0.11002742 65 17
0.97052932 -0.021959508 -0.16316929 19 15
0.95092851 -0.021418272 -0.20985511 26 14
1.2005444 -0.028888917 0.22495785 23 29
1.1790762 -0.18386622 0.18119575 7 28
1.1462843 -0.028671995 0.13571756 4 27
1.1090702 -0.1728283 0.10395226 74 26
1.1169193 -0.028384492 0.07530795 5 25
1.0881269 -0.16952862 0.049727805 78 24
1.0942423 -0.028425196 0.024603439 4 23
1.0497323 -0.16365585 0 85 22
1.064254 -0.027899113 -0.023907118 5 21
1.0313076 -0.1611131 -0.047049258 12 20
1.0371393 -0.027256738 -0.069405325 6 19
1.0135839 -0.15866238 -0.088968731 10 18
1.008184 -0.02674642 -0.11144896 42 17
0.96798015 -0.025458075 -0.1627399 19 15
0.94597542 -0.024623526 -0.20873886 25 14
1.2808278 -0.03425796 0.33257151 5 31
1.2004304 -0.033288941 0.22495785 33 29
1.1735177 -0.18739842 0.18042305 7 28
1.1560943 -0.033136446 0.13692932 4 27
1.1084602 -0.17669863 0.10395226 77 26
1.121794 -0.03261207 0.075654998 5 25
1.0924289 -0.17431247 0.049960721 80 24
1.0916381 -0.032176606 0.024545414 4 23
1.0515933 -0.16790146 0 82 22
1.0541567 -0.031339973 -0.02367501 5 21
1.0356692 -0.16551061 -0.047282174 11 20
1.0295532 -0.030851562 -0.068887375 6 19
1.0154818 -0.16259845 -0.089192271 10 18
1.0056016 -0.030196993 -0.11116465 34 17
0.97034734 -0.028903849 -0.16316929 19 15
0.95075577 -0.02805643 -0.20985511 25 14
1.2734635 -0.038301554 0.33063796 6 31
1.1978596 -0.037198417 0.22448425 37 29
1.1704526 -0.19088678 0.18003669 14 28
1.1460563 -0.036673807 0.13571756 5 27
1.1078366 -0.18056679 0.10395226 77 26
1.116694 -0.036181305 0.07530795 5 25
1.0918448 -0.17793414 0.049960721 80 24
1.0815328 -0.035491128 0.024313306 5 23
1.0460976 -0.17057283 0 80 22
1.0640334 -0.035328265 -0.023907118 6 21
1.030187 -0.16812921 -0.047049258 14 20
1.0194738 -0.033957373 -0.068196774 8 19
1.0026259 -0.16410445 -0.088074572 10 18
1.0030134 -0.033454802 -0.11088035 29 17
1.5321633 -0.25250199 -0.2108987 35 16
0.96532273 -0.031971056 -0.16231051 19 15
0.94334477 -0.031153034 -0.20818074 24 14
1.2733221 -0.042746536 0.33063796 5 31
1.2001759 -0.041459173 0.22495785 39 29
1.1576014 -0.19291809 0.17810498 55 28
1.1558419 -0.0410049 0.13692932 5 27
1.1096537 -0.18484654 0.10419014 78 26
1.1165608 -0.040079072 0.07530795 6 25
1.0887544 -0.18132913 0.049844261 81 24
1.0863911 -0.039625864 0.02442936 6 23
1.050426 -0.17505549 0 68 22
1.0589079 -0.038870387 -0.023791064 6 21
1.0344886 -0.17273685 -0.047282174 10 20
1.014364 -0.037344325 -0.067851476 9 19
1.0045019 -0.16801938 -0.088298112 10 18
1.002884 -0.037130807 -0.11088035 17 17
1.5508027 -0.26116598 -0.21365105 37 16
0.96519911 -0.035508927 -0.16231051 18 15
0.94810134 -0.034610726 -0.20929699 24 14
1.2707428 -0.047328062 0.32999343 5 31
1.1926565 -0.04559176 0.22353706 42 29
1.1544522 -0.19674002 0.17771864 64 28
1.1532041 -0.0451492 0.13662636 5 27
1.1040639 -0.18806691 0.10371439 80 26
1.1213909 -0.044357467 0.075654998 6 25
1.0905436 -0.1857426 0.049960721 80 24
1.0837486 -0.043323636 0.024371332 7 23
1.0620954 -0.18102978 0 37 22
1.0687484 -0.043131504 -0.024023172 6 21
1.0338793 -0.17634684 -0.047282174 10 20
1.0167125 -0.041156776 -0.068024121 33 19
1.0112398 -0.17297526 -0.088968731 10 18
1.0027483 -0.040631298 -0.11088035 12 17
1.5693526 -0.27023706 -0.21640339 50 16
0.95768595 -0.038599409 -0.16102234 17 15
0.95283842 -0.038268302 -0.21041323 23 14
1.2729836 -0.051857065 0.33063796 5 31
1.1900374 -0.049657404 0.22306347 43 29
1.1537585 -0.20076862 0.17771864 66 28
1.1456009 -0.048872996 0.13571756 6 27
1.1083026 -0.19278224 0.10419014 76 26
1.1237211 -0.048373405 0.075828515 7 25
1.0898886 -0.18954818 0.049960721 78 24
1.0760993 -0.046797615 0.024197252 7 23
1.0589949 -0.18430237 0 28 22
1.0610998 -0.046550501 -0.023849091 7 21
1.0381761 -0.18082197 -0.047515094 10 20
1.0140707 -0.044601943 -0.067851476 51 19
1.0130818 -0.17693776 -0.089192271 10 18
1.0075636 -0.044337586 -0.11144896 10 17
1.570838 -0.27614558 -0.21674743 52 16
0.96738839 -0.042347781 -0.1627399 15 15
0.97704756 -0.042593315 -0.21599449 23 14
1.275208 -0.056402281 0.33128247 5 31
1.1947618 -0.054022692 0.22401066 43 29
1.1579129 -0.20566787 0.17849132 60 28
1.1528608 -0.053198919 0.13662636 6 27
1.1125218 -0.19752946 0.1046659 76 26
1.1110878 -0.051743001 0.07496091 8 25
1.0867622 -0.19291006 0.049844261 81 24
1.0759293 -0.050553612 0.024197252 8 23
1.0558847 -0.18755557 0 12 22
1.0509436 -0.049804118 -0.023616981 7 21
1.0424542 -0.18532924 -0.047748011 10 20
1.0114174 -0.048029169 -0.067678824 63 19
1.0149082 -0.18091521 -0.089415811 9 18
1.0074027 -0.047854364 -0.11144896 11 17
1.5723011 -0.28206778 -0.21709149 49 16
0.95985353 -0.045394324 -0.16145173 16 15
1.2701881 -0.060410723 0.32999343 5 31
1.1945761 -0.057984363 0.22401066 45 29
1.1669431 -0.21128491 0.18003669 36 28
1.1501994 -0.056904323 0.13632344 7 27
1.1069647 -0.20032167 0.10419014 73 26
1.1183835 -0.055783577 0.075481474 19 25
1.0861167 -0.19651283 0.049844261 77 24
1.0757463 -0.054308999 0.024197252 27 23
1.062634 -0.19240728 0 10 22
1.0582619 -0.053651262 -0.023791064 26 21
1.0344321 -0.18761453 -0.047398631 10 20
1.0112525 -0.051382892 -0.067678824 66 19
1.0167516 -0.18473011 -0.089639343 9 18
1.0047486 -0.0512501 -0.11116465 10 17
1.5689219 -0.28683144 -0.21674743 46 16
0.9596892 -0.048744563 -0.16145173 16 15
1.2699581 -0.065065786 0.32999343 5 31
1.1894522 -0.0621165 0.22306347 43 29
1.1588769 -0.21420006 0.17887768 27 28
1.1425477 -0.060740381 0.1354146 7 27
1.106223 -0.20437758 0.10419014 73 26
1.1057181 -0.059242703 0.074613869 36 25
1.0878439 -0.20095086 0.049960721 76 24
1.0680621 -0.057676531 0.024023172 39 23
1.0545496 -0.1949224 0 10 22
1.0480744 -0.057009887 -0.023558956 18 21
1.0313164 -0.19076486 -0.047282174 10 20
1.0085667 -0.054959312 -0.067506172 68 19
1.008726 -0.18707751 -0.088968731 9 18
1.0070441 -0.05488614 -0.11144896 10 17
1.5897622 -0.29669857 -0.21984383 23 16
0.95705372 -0.051967029 -0.16102234 17 15
1.2793719 -0.070007414 0.33257151 4 31
1.1916791 -0.066399537 0.22353706 43 29
1.1629748 -0.21916795 0.17965037 10 28
1.1423289 -0.064728245 0.1354146 28 27
1.1079476 -0.20870323 0.10442802 62 26
1.1154654 -0.063648455 0.07530795 46 25
1.0871359 -0.20474692 0.049960721 76 24
1.0728453 -0.061679963 0.024139225 31 23
1.0661416 -0.20094241 0 9 22
1.0503643 -0.060806643 -0.023616981 7 21
1.0306442 -0.19436365 -0.047282174 10 20
1.0083688 -0.058479533 -0.067506172 68 19
1.0154037 -0.19200103 -0.089639343 9 18
1.0043664 -0.058263265 -0.11116465 10 17
0.9568665 -0.055307452 -0.16102234 16 15
1.2767079 -0.074337155 0.331927 4 31
1.1889895 -0.070418857 0.22306347 43 29
1.1573533 -0.22228526 0.17887768 10 28
1.1371411 -0.068427891 0.13480872 38 27
1.1121356 -0.21332334 0.10490377 17 26
1.1127468 -0.067396462 0.075134434 32 25
1.0864145 -0.20854048 0.049960721 64 24
1.0751185 -0.065571003 0.024197252 9 23
1.0678879 -0.20513931 0 9 22
1.0551471 -0.064583279 -0.023733035 5 21
1.0324107 -0.19843659 -0.047398631 9 20
1.0106483 -0.062146083 -0.067678824 66 19
1.0074294 -0.1939393 -0.088968731 9 18
1.0016774 -0.061622363 -0.11088035 10 17
0.95912617 -0.058791548 -0.16145173 16 15
1.2668095 -0.077995755 0.32934889 4 31
1.1961001 -0.074805744 0.22448425 40 29
1.1614561 -0.22707893 0.17965037 8 28
1.1418618 -0.072502278 0.1354146 30 27
1.108943 -0.21672201 0.1046659 8 26
1.1125172 -0.071086101 0.075134434 9 25
1.0857171 -0.21214202 0.049960721 19 24
1.0823787 -0.069600128 0.024371332 6 23
1.0622966 -0.20770997 0 9 22
1.0599041 -0.068577304 -0.023849091 4 21
1.0390965 -0.20331301 -0.047748011 10 20
1.002969 -0.065031283 -0.067160875 69 19
1.0116309 -0.19842368 -0.089415811 9 18
1.0014676 -0.064943701 -0.11088035 10 17
0.9589259 -0.061971799 -0.16145173 16 15
1.271351 -0.082721457 0.33063796 4 31
1.1958318 -0.078980453 0.22448425 40 29
1.1679207 -0.23259257 0.18080939 8 28
1.1391255 -0.076327108 0.13511167 12 27
1.1106193 -0.22108224 0.10490377 8 26
1.1222171 -0.075618058 0.075828515 6 25
1.0874181 -0.21642292 0.050077178 9 24
1.0821164 -0.073566779 0.024371332 4 23
1.0689175 -0.21289666 0 9 22
1.0496826 -0.071619287 -0.023616981 4 21
1.0285523 -0.2051457 -0.047282174 9 20
1.0102018 -0.069023848 -0.067678824 64 19
1.0109322 -0.20195372 -0.089415811 9 18
1.0086579 -0.069105066 -0.11173327 10 17
0.95869231 -0.065486029 -0.16145173 16 15
1.2710392 -0.087380633 0.33063796 5 31
1.1930852 -0.083197199 0.22401066 40 29
1.1670604 -0.23687166 0.18080939 8 28
1.1462653 -0.08101064 0.13602048 7 27
1.1073636 -0.22465183 0.1046659 20 26
1.1219323 -0.079730675 0.075828515 4 25
1.0841712 -0.21990573 0.049960721 38 24
1.0768663 -0.076998413 0.024255278 4 23
1.0656811 -0.21631075 0 9 22
1.049413 -0.075466089 -0.023616981 4 21
1.0351688 -0.21024121 -0.047631547 10 20
1.007454 -0.07255286 -0.067506172 62 19
1.0077463 -0.20515566 -0.089192271 9 18
1.0084106 -0.072625518 -0.11173327 10 17
0.96091491 -0.069002174 -0.16188112 15 15
1.2731359 -0.091986194 0.33128247 5 31
1.200133 -0.087884001 0.22543144 26 29
1.1758982 -0.24296103 0.18235476 8 28
1.1558763 -0.085724518 0.13723224 4 27
1.1066127 -0.22832274 0.1046659 58 26
1.1241348 -0.08382652 0.076002039 4 25
1.0833969 -0.22368887 0.049960721 69 24
1.0840691 -0.081300825 0.02442936 5 23
1.0575777 -0.2184969 0 9 22
1.0466642 -0.078763932 -0.023558956 4 21
1.0368731 -0.21436402 -0.047748011 10 20
1.0096819 -0.076250881 -0.067678824 60 19
1.0070605 -0.20849635 -0.089192271 9 18
0.9982422 -0.075420916 -0.11059604 10 17
0.95821184 -0.072177313 -0.16145173 16 15
1.265597 -0.095675573 0.32934889 5 31
1.1998351 -0.091863304 0.22543144 6 29
1.1726699 -0.24634686 0.18196844 8 28
1.153111 -0.089370571 0.13692932 4 27
1.1058089 -0.23218416 0.1046659 74 26
1.1238506 -0.087553829 0.076002039 5 25
1.0826492 -0.22728032 0.049960721 69 24
1.0862858 -0.085084863 0.024487386 4 23
1.0568473 -0.22200276 0 9 22
1.0563514 -0.083178751 -0.023791064 4 21
1.0263853 -0.21572609 -0.047282174 10 20
1.0119104 -0.079788722 -0.067851476 59 19
1.0029398 -0.079109296 -0.11116465 10 17
0.95796716 -0.075354457 -0.16145173 15 15
1.2652553 -0.10009275 0.32934889 5 31
1.2044016 -0.096432723 0.22637863 4 29
1.1718029 -0.25043875 0.18196844 7 28
1.1577398 -0.093785405 0.1375352 4 27
1.1074244 -0.23656738 0.10490377 75 26
1.1160794 -0.090885334 0.075481474 5 25
1.0842905 -0.23158455 0.050077178 67 24
1.0784924 -0.088469617 0.024313306 5 23
1.0511786 -0.22463557 0 9 22
1.0535631 -0.086666442 -0.023733035 5 21
1.0329103 -0.22106972 -0.047631547 9 20
1.0141119 -0.083519183 -0.068024121 39 19
0.99769133 -0.082388066 -0.11059604 10 17
0.96013963 -0.079060882 -0.16188112 14 15
1.2600647 -0.10434035 0.32805985 5 31
1.2040401 -0.10084643 0.22637863 3 29
1.170877 -0.25473192 0.18196844 7 28
1.1549151 -0.097823903 0.13723224 4 27
1.1016883 -0.23955758 0.10442802 72 26
1.1256807 -0.095799699 0.076175556 5 25
1.0858736 -0.23609252 0.050193641 70 24
1.0856491 -0.092855908 0.024487386 5 23
1.0601152 -0.23063248 0 9 22
1.0607102 -0.091152184 -0.023907118 5 21
1.0345715 -0.22521017 -0.047748011 9 20
1.0137988 -0.087235525 -0.068024121 31 19
1.0048231 -0.086491071 -0.11144896 10 17
0.95985782 -0.082411908 -0.16188112 15 15
1.2645067 -0.10914408 0.32934889 5 31
1.198789 -0.1046319 0.22543144 4 29
1.1748021 -0.25989342 0.18274112 8 28
1.1520942 -0.10164188 0.13692932 4 27
1.1032743 -0.24394377 0.1046659 74 26
1.12037 -0.099298954 0.075828515 5 25
1.085043 -0.2398815 0.050193641 72 24
1.0803384 -0.096212789 0.024371332 5 23
1.054424 -0.23324171 0 9 22
1.0578958 -0.094637245 -0.023849091 5 21
1.0289047 -0.22773059 -0.047515094 9 20
1.0209421 -0.091423325 -0.068542078 24 19
1.0069895 -0.090213649 -0.11173327 10 17
0.96447152 -0.08618781 -0.1627399 14 15
1.2713367 -0.11419147 0.33128247 5 31
1.2057519 -0.10946662 0.22685224 4 29
1.1467892 -0.10521991 0.13632344 5 27
1.1024593 -0.24760103 0.1046659 75 26
1.1150486 -0.1027623 0.075481474 5 25
1.0817634 -0.24311511 0.050077178 60 24
1.0849743 -0.10043285 0.024487386 6 23
1.0560414 -0.23747435 0 10 22
1.0575762 -0.098144829 -0.023849091 6 21
1.0378444 -0.23353384 -0.047980927 10 20
1.0131651 -0.094310991 -0.068024121 13 19
1.0017211 -0.093279652 -0.11116465 10 17
0.96171194 -0.089332424 -0.16231051 15 15
1.1980489 -0.11278932 0.22543144 5 29
1.1538466 -0.10971118 0.13723224 5 27
1.1088638 -0.25312349 0.10537952 72 26
1.1122185 -0.1062277 0.07530795 6 25
1.0882521 -0.24838251 0.050426558 32 24
1.0846171 -0.10421951 0.024487386 6 23
1.0528119 -0.24041349 0 9 22
1.0622039 -0.10230368 -0.023965145 6 21
1.0370229 -0.23715517 -0.047980927 10 20
1.0202962 -0.098370478 -0.068542078 9 19
0.99891663 -0.096542858 -0.11088035 10 17
0.95894217 -0.092458822 -0.16188112 15 15
1.2000712 -0.11741364 0.22590505 6 29
1.1460266 -0.11322338 0.13632344 7 27
1.1055055 -0.25661853 0.10514165 69 26
1.1192687 -0.11102578 0.075828515 6 25
1.0897658 -0.25293887 0.050543014 15 24
1.0892218 -0.10848919 0.024603439 6 23
1.0543578 -0.24484107 0 10 22
1.0518718 -0.10522405 -0.023733035 7 21
1.0337576 -0.24020335 -0.047864471 9 20
1.0174465 -0.10186689 -0.068369426 9 19
1.0059897 -0.10075368 -0.11173327 9 17
0.96841866 -0.096760064 -0.1635987 14 15
1.2020967 -0.12184447 0.22637863 6 29
1.1480936 -0.11747039 0.13662636 7 27
1.1046031 -0.2604759 0.10514165 68 26
1.1188743 -0.11493208 0.075828515 6 25
1.0888762 -0.25674132 0.050543014 9 24
1.0913234 -0.11254147 0.024661468 6 23
1.0486326 -0.24736208 0 9 22
1.0514979 -0.10889512 -0.023733035 10 21
1.0329127 -0.2438104 -0.047864471 9 20
1.0170847 -0.10541782 -0.068369426 9 19
1.0031606 -0.10401449 -0.11144896 10 17
0.99502945 -0.10285882 -0.16832201 13 15
1.1918967 -0.12503563 0.22448425 9 29
1.1427398 -0.12096538 0.13602048 23 27
1.1037332 -0.26413748 0.10514165 66 26
1.1159859 -0.1185789 0.075654998 8 25
1.0879734 -0.26054066 0.050543014 8 24
1.0809805 -0.11531215 0.02442936 8 23
1.0526228 -0.25219586 0 10 22
1.053617 -0.11264139 -0.023791064 36 21
1.0272008 -0.24623999 -0.047631547 9 20
1.0117496 -0.1084478 -0.068024121 9 19
1.007732 -0.10803306 -0.11201758 10 17
1.0167102 -0.10863304 -0.17218654 13 15
1.1963574 -0.12950569 0.22543144 24 29
1.1324624 -0.12369763 0.13480872 44 27
1.1052215 -0.26858094 0.10537952 64 26
1.1106269 -0.12174635 0.07530795 25 25
1.0919546 -0.26533592 0.050775934 8 24
1.0756223 -0.11836068 0.024313306 23 23
1.0493526 -0.25508958 0 10 22
1.0407931 -0.11497538 -0.023500927 54 21
1.021528 -0.24845442 -0.047398631 9 20
1.0237824 -0.11314256 -0.068887375 9 19
1.0048988 -0.11110728 -0.11173327 10 17
1.0236905 -0.11279553 -0.17347473 14 15
1.1934581 -0.13341333 0.22495785 34 29
1.1295573 -0.12737718 0.13450579 48 27
1.1115224 -0.27423966 0.10609316 65 26
1.1101952 -0.12562241 0.07530795 22 25
1.0861747 -0.26794013 0.050543014 8 24
1.0702136 -0.1217485 0.024197252 11 23
1.0533078 -0.25995886 0 10 22
1.0428692 -0.11888503 -0.023558956 62 21
1.0230336 -0.252801 -0.047515094 9 20
1.0134667 -0.11560871 -0.068196774 9 19
0.99954802 -0.11423766 -0.11116465 9 17
1.1954001 -0.13806325 0.22543144 38 29
1.1315483 -0.13179812 0.13480872 46 27
1.1056842 -0.27709243 0.1056174 72 26
1.1047719 -0.12912253 0.07496091 8 25
1.0924491 -0.27375466 0.05089239 8 24
1.0772307 -0.12634009 0.024371332 7 23
1.042653 -0.26136631 0 9 22
1.0424266 -0.12270653 -0.023558956 63 21
1.029408 -0.25820836 -0.047864471 9 20
1.0179914 -0.11989405 -0.068542078 9 19
1.0016106 -0.11801066 -0.11144896 10 17
1.1924728 -0.14195004 0.22495785 39 29
1.1409395 -0.13690871 0.13602048 35 27
1.119224 -0.28446335 0.10704467 51 26
1.1142215 -0.13414894 0.075654998 5 25
1.0842296 -0.27570572 0.050543014 8 24
1.0743014 -0.12980537 0.024313306 5 23
1.0538422 -0.26811078 0 9 22
1.0444957 -0.12645729 -0.023616981 62 21
1.0212438 -0.2599369 -0.047515094 9 20
1.0126134 -0.12285789 -0.068196774 9 19
0.99625969 -0.12091975 -0.11088035 10 17
1.1919956 -0.14590363 0.22495785 39 29
1.1478698 -0.14158714 0.13692932 18 27
1.1158155 -0.28774238 0.10680678 17 26
1.1088189 -0.13724126 0.07530795 4 25
1.0929774 -0.28181258 0.05100885 8 24
1.0813078 -0.13427444 0.024487386 4 23
1.0577863 -0.27286264 0 9 22
1.0415672 -0.1297992 -0.023558956 61 21
1.0203762 -0.26332206 -0.047515094 9 20
1.0146761 -0.12651782 -0.068369426 9 19
1.0081804 -0.12572983 -0.11230189 9 17
1.4449579 -0.17863362 -0.2477597 40 15
1.1939151 -0.15036528 0.22543144 39 29
1.1473687 -0.14559308 0.13692932 8 27
1.112398 -0.29100114 0.10656891 9 26
1.1256559 -0.14327779 0.076522596 4 25
1.0895723 -0.28498942 0.05089239 9 24
1.0808084 -0.13823673 0.024487386 4 23
1.0568273 -0.27655336 0 9 22
1.0460674 -0.13405806 -0.02367501 59 21
1.0142282 -0.13005893 -0.068369426 9 19
1.00032 -0.12849283 -0.11144896 9 17
1.488279 -0.18945394 -0.25548878 64 15
1.1909209 -0.15442957 0.22495785 39 29
1.15175 -0.15042979 0.1375352 5 27
1.118536 -0.2970061 0.10728253 8 26
1.1201761 -0.14676534 0.076175556 4 25
1.0909328 -0.28962648 0.05100885 9 24
1.0827981 -0.14232877 0.024545414 4 23
1.0509769 -0.27913171 0 9 22
1.0480475 -0.13821222 -0.023733035 55 21
1.0211649 -0.13473645 -0.068887375 9 19
0.99740207 -0.13166477 -0.11116465 9 17
1.4900512 -0.19496334 -0.25591817 63 15
1.1903747 -0.15858573 0.22495785 37 29
1.1487577 -0.15412445 0.13723224 4 27
1.1174924 -0.30090868 0.10728253 8 26
1.1246017 -0.15132907 0.076522596 4 25
1.0971457 -0.29539451 0.051358223 8 24
1.0798169 -0.14577878 0.024487386 4 23
1.0596467 -0.28541878 0 9 22
1.0426037 -0.14121036 -0.023616981 49 21
1.0132717 -0.1373132 -0.068369426 9 19
1.0018605 -0.13580082 -0.11173327 9 17
1.4844786 -0.19951537 -0.25505939 61 15
1.1946794 -0.16339518 0.22590505 23 29
1.1531309 -0.15880013 0.13783813 4 27
1.1116892 -0.30329356 0.10680678 8 26
1.1265379 -0.15558964 0.07669612 4 25
1.0912921 -0.29789782 0.051125307 9 24
1.086731 -0.15055956 0.024661468 4 23
1.0610541 -0.28977934 0 9 22
1.0545115 -0.14635651 -0.023907118 35 21
1.0177283 -0.14152458 -0.06871473 9 19
0.99645853 -0.1386247 -0.11116465 9 17
1.4862134 -0.20502847 -0.25548878 50 15
1.1916993 -0.16702028 0.22543144 18 29
1.1501399 -0.16228168 0.1375352 5 27
1.1106238 -0.30717224 0.10680678 8 26
1.1260158 -0.15932453 0.07669612 5 25
1.0927041 -0.30218536 0.05124177 8 24
1.0812751 -0.1534711 0.024545414 5 23
1.0624956 -0.29396781 0 9 22
1.0539944 -0.15003654 -0.023907118 26 21
1.0197233 -0.14524451 -0.068887375 9 19
0.99353361 -0.14158392 -0.11088035 9 17
1.4904038 -0.21063709 -0.25634757 42 15
1.1984005 -0.17221163 0.22685224 8 29
1.15448 -0.16699558 0.13814108 5 27
1.1119398 -0.31172353 0.10704467 8 26
1.1180462 -0.162196 0.076175556 5 25
1.0868359 -0.30464035 0.05100885 8 24
1.0856533 -0.15814264 0.024661468 5 23
1.061463 -0.2976748 0 9 22
1.0559382 -0.15406996 -0.023965145 12 21
1.0167414 -0.14844871 -0.06871473 9 19
0.99546647 -0.14557785 -0.11116465 9 17
1.4896216 -0.21609828 -0.25634757 38 15
1.1977612 -0.17660281 0.22685224 6 29
1.1563156 -0.17158493 0.13844401 6 27
1.1131822 -0.31648201 0.10728253 9 26
1.1199117 -0.16665448 0.07634908 5 25
1.0809104 -0.30724674 0.050775934 8 24
1.0752035 -0.16047777 0.02442936 5 23
1.0603647 -0.30156329 0 8 22
1.0504211 -0.15721062 -0.023849091 9 21
1.0063208 -0.15072033 -0.068024121 9 19
0.99740952 -0.14941376 -0.11144896 9 17
1.498605 -0.22272901 -0.25806513 38 15
1.1898535 -0.17969802 0.22543144 5 29
1.1458927 -0.17414956 0.13723224 6 27
1.1073462 -0.31878558 0.10680678 12 26
1.126722 -0.17167374 0.076869637 5 25
1.0894248 -0.3138015 0.05124177 8 24
1.0795798 -0.16497399 0.024545414 5 23
1.052103 -0.3031716 0 8 22
1.0449511 -0.15994819 -0.023733035 8 21
1.0131869 -0.15534839 -0.068542078 9 19
0.99442589 -0.15252391 -0.11116465 9 17
1.5002538 -0.22832537 -0.25849453 37 15
1.201385 -0.1854908 0.22779943 6 29
1.145309 -0.17794853 0.13723224 16 27
1.1205534 -0.32685745 0.10823404 29 26
1.111356 -0.17313796 0.075828515 5 25
1.0883783 -0.31741247 0.05124177 8 24
1.0765567 -0.1681729 0.024487386 6 23
1.0486934 -0.30595386 0 8 22
1.0493268 -0.16435693 -0.023849091 8 21
1.0077364 -0.15794687 -0.068196774 9 19
1.0012789 -0.15695681 -0.11201758 9 17
1.5043569 -0.23404846 -0.25935331 37 15
1.1934537 -0.18854904 0.22637863 5 29
1.1299711 -0.17963919 0.1354146 39 27
1.1194055 -0.33076692 0.10823404 9 26
1.1181362 -0.17817767 0.07634908 5 25
1.0896572 -0.32192183 0.051358223 8 24
1.073464 -0.17172828 0.02442936 7 23
1.0476191 -0.30961263 0 8 22
1.0487467 -0.16801874 -0.023849091 8 21
1.007179 -0.16146356 -0.068196774 9 19
0.99333692 -0.15946256 -0.11116465 9 17
1.5107872 -0.24071135 -0.26064149 37 15
1.2024509 -0.19446987 0.228273 5 29
1.126855 -0.18338622 0.13511167 47 27
1.1086549 -0.33199358 0.10728253 8 26
1.1174756 -0.18227465 0.07634908 9 25
1.090861 -0.32663441 0.051474687 8 24
1.0679233 -0.17467858 0.024313306 13 23
1.0416905 -0.31200591 0 8 22
1.0431889 -0.17106397 -0.023733035 8 21
1.0090426 -0.16555186 -0.068369426 9 19
0.99277425 -0.16292895 -0.11116465 9 17
1.5220948 -0.24794382 -0.26278844 39 15
1.199342 -0.19827059 0.22779943 5 29
1.1311057 -0.18812235 0.13571756 46 27
1.104528 -0.18415047 0.075481474 25 25
1.0849375 -0.32898167 0.05124177 8 24
1.0648409 -0.17799875 0.024255278 36 23
1.0429858 -0.31637073 0 8 22
1.0524493 -0.17633374 -0.023965145 8 21
1.0109192 -0.16947955 -0.068542078 9 19
0.99710059 -0.16720301 -0.11173327 9 17
1.5260803 -0.25405651 -0.26364723 43 15
1.2010639 -0.20285974 0.228273 5 29
1.1230998 -0.19083816 0.13480872 49 27
1.1087974 -0.18883157 0.075828515 16 25
1.088554 -0.33424205 0.051474687 8 24
1.0691423 -0.18254486 0.024371332 46 23
1.0418751 -0.32000947 0 8 22
1.0469296 -0.17899179 -0.023849091 8 21
1.0054029 -0.17217715 -0.068196774 9 19
1.0014092 -0.17150927 -0.11230189 9 17
1.5348989 -0.2610181 -0.2653648 44 15
1.2052243 -0.20766529 0.2292202 5 29
1.1273527 -0.19539854 0.1354146 46 27
1.1081651 -0.19250743 0.075828515 7 25
1.0945898 -0.34008658 0.051824059 8 24
1.0660679 -0.18566601 0.024313306 50 23
1.0575093 -0.32869011 0 8 22
1.0413722 -0.18179689 -0.023733035 8 21
1.0048264 -0.17551024 -0.068196774 8 19
0.99349159 -0.17356467 -0.11144896 9 17
1.5340248 -0.26610661 -0.2653648 45 15
1.1996553 -0.21103036 0.228273 5 29
1.1315529 -0.20018671 0.13602048 35 27
1.1197695 -0.19852485 0.07669612 4 25
1.0886346 -0.34239769 0.051591143 8 24
1.0653802 -0.1895721 0.024313306 52 23
1.0420561 -0.32784894 0 8 22
1.043193 -0.1858636 -0.023791064 8 21
1.006664 -0.17944847 -0.068369426 8 19
1.0050797 -0.17935708 -0.11287051 9 17
1.542742 -0.27343115 -0.26708236 46 15
1.1405834 -0.20607686 0.13723224 18 27
1.1190343 -0.20262767 0.07669612 4 25
1.0968841 -0.34943572 0.052056976 8 24
1.0671721 -0.19373067 0.024371332 51 23
1.0375847 -0.18880238 -0.02367501 8 21
1.0059996 -0.18313687 -0.068369426 8 19
1.5563235 -0.28142133 -0.26965874 48 15
1.1398572 -0.21005701 0.13723224 8 27
1.1134133 -0.20563731 0.07634908 4 25
1.0932825 -0.35249156 0.051940519 8 24
1.0640309 -0.19700518 0.024313306 49 23
1.0418361 -0.1933237 -0.023791064 8 21
1.002901 -0.18619798 -0.068196774 8 19
1.5456409 -0.28508061 -0.26794118 38 15
1.1537564 -0.21675307 0.13904989 4 27
1.1102368 -0.20906639 0.076175556 4 25
1.0896727 -0.35552651 0.051824059 8 24
1.0657936 -0.20117615 0.024371332 48 23
1.0485601 -0.19815291 -0.023965145 8 21
1.0095998 -0.19107142 -0.06871473 8 19
1.5640054 -0.294085 -0.27137631 31 15
1.1676613 -0.22334491 0.14086755 4 27
1.119339 -0.21460424 0.076869637 4 25
1.0979679 -0.36228615 0.052289892 8 24
1.0626297 -0.20442864 0.024313306 39 23
1.0503174 -0.20227888 -0.024023172 8 21
1.0040604 -0.19348621 -0.068369426 8 19
1.1546515 -0.22527255 0.13935284 5 27
1.1160961 -0.21823208 0.07669612 4 25
1.0895313 -0.36392084 0.051940519 8 24
1.0717245 -0.21003738 0.024545414 31 23
1.0471154 -0.20565112 -0.023965145 8 21
1.0033445 -0.19716497 -0.068369426 8 19
1.1489882 -0.22834447 0.13874696 5 27
1.1226686 -0.22357222 0.077216677 4 25
1.0953473 -0.37013367 0.052289892 8 24
1.0685327 -0.21329337 0.024487386 20 23
1.0463912 -0.20930497 -0.023965145 9 21
1.0099903 -0.20211683 -0.068887375 8 19
1.1481842 -0.23235379 0.13874696 5 27
1.119436 -0.22699931 0.077043161 5 25
1.0916873 -0.37314272 0.052173436 8 24
1.0628809 -0.21603735 0.024371332 10 23
1.0456914 -0.21277378 -0.023965145 9 21
1.0019436 -0.20416477 -0.068369426 8 19
1.135249 -0.23368417 0.13723224 23 27
1.1137898 -0.22971323 0.07669612 5 25
1.0951613 -0.37840089 0.052406352 9 24
1.0646074 -0.22006121 0.02442936 9 23
1.0424937 -0.21592133 -0.023907118 9 21
1.0085912 -0.20898688 -0.068887375 8 19
1.1271367 -0.23613454 0.13632344 39 27
1.117865 -0.23461375 0.077043161 5 25
1.0891221 -0.3805649 0.052173436 10 24
1.0686874 -0.22498052 0.024545414 8 23
1.0466272 -0.22057864 -0.024023172 9 21
1.0005307 -0.21098 -0.068369426 8 19
1.1286916 -0.24077666 0.13662636 39 27
1.1072375 -0.23664546 0.07634908 7 25
1.0994842 -0.38873863 0.052755725 20 24
1.0727859 -0.22974543 0.024661468 8 23
1.0458117 -0.22441325 -0.024023172 9 21
1.0095096 -0.21671647 -0.069060028 8 19
1.1278442 -0.24471506 0.13662636 38 27
1.1039664 -0.23998451 0.076175556 23 25
1.0863709 -0.3883487 0.052173436 17 24
1.0646474 -0.23190935 0.024487386 8 23
1.0523512 -0.2296444 -0.024197252 9 21
1.0014333 -0.2186604 -0.068542078 8 19
1.129451 -0.24898286 0.13692932 32 27
1.0958554 -0.2420464 0.075654998 39 25
1.0874242 -0.39280197 0.052289892 9 24
1.07608 -0.23811138 0.024777522 8 23
1.0491426 -0.23259743 -0.024139225 8 21
1.0007026 -0.22198007 -0.068542078 8 19
1.1406884 -0.25561154 0.13844401 16 27
1.0974382 -0.24641122 0.075828515 47 25
1.0752001 -0.24205381 0.024777522 8 23
1.0483242 -0.23625821 -0.024139225 8 21
1.0047902 -0.22655737 -0.068887375 8 19
1.1421646 -0.26033705 0.13874696 8 27
1.0965277 -0.25043187 0.075828515 49 25
1.0694734 -0.24470147 0.024661468 8 23
1.0377015 -0.23788744 -0.023907118 8 21
1.0015209 -0.2296869 -0.06871473 8 19
1.1460863 -0.26543209 0.13935284 7 27
1.0980777 -0.25481644 0.076002039 50 25
1.0710484 -0.24899365 0.024719493 8 23
1.0393004 -0.24206963 -0.023965145 8 21
1.017725 -0.23710275 -0.069923274 8 19
1.1475697 -0.26999438 0.13965578 7 27
1.0971814 -0.25864792 0.076002039 49 25
1.067739 -0.25216177 0.024661468 8 23
1.0336248 -0.24437584 -0.023849091 8 21
1.151498 -0.274941 0.14026166 6 27
1.0963178 -0.26228487 0.076002039 46 25
1.076624 -0.25800949 0.024893576 8 23
1.0424918 -0.25029412 -0.024081198 8 21
1.1505312 -0.2789588 0.14026166 6 27
1.0953954 -0.26611012 0.076002039 44 25
1.063568 -0.25883815 0.024603439 8 23
1.0464709 -0.25510442 -0.024197252 8 21
1.154372 -0.28414947 0.14086755 6 27
1.0920371 -0.26934019 0.075828515 41 25
1.069895 -0.26451802 0.024777522 8 23
1.0455741 -0.25875574 -0.024197252 8 21
1.1485056 -0.2871846 0.14026166 6 27
1.1007247 -0.27574414 0.076522596 34 25
1.0641142 -0.26704514 0.024661468 8 23
1.0421933 -0.26198244 -0.024139225 7 21
1.1499026 -0.29179725 0.14056461 6 27
1.1045923 -0.28080323 0.076869637 26 25
1.0680224 -0.27198079 0.024777522 8 23
1.0534352 -0.26849619 -0.02442936 7 21
1.141715 -0.29376882 0.13965578 6 27
1.1060715 -0.28508192 0.077043161 13 25
1.0646932 -0.27490154 0.024719493 8 23
1.045228 -0.27031085 -0.024255278 7 21
1.1526947 -0.30086109 0.14117049 6 27
1.097827 -0.28706396 0.076522596 9 25
1.063727 -0.27861637 0.024719493 8 23
1.0442781 -0.27395773 -0.024255278 7 21
1.1443839 -0.30319226 0.14026166 7 27
1.106415 -0.29362398 0.077216677 8 25
1.0626987 -0.2825132 0.024719493 8 23
1.0481004 -0.27905858 -0.024371332 7 21
1.100564 -0.29619837 0.076869637 8 25
1.0713646 -0.28880179 0.024951601 7 23
1.0398767 -0.28077736 -0.024197252 7 21
1.1067456 -0.30199236 0.077390201 15 25
1.0679376 -0.29188618 0.024893576 7 23
1.0437644 -0.28553224 -0.024313306 7 21
1.1129537 -0.30763885 0.077910759 20 25
1.0693741 -0.29608759 0.024951601 7 23
1.0475811 -0.29049876 -0.02442936 7 21
1.1070671 -0.31018642 0.077563718 21 25
1.0610584 -0.29799372 0.024777522 7 23
1.0417457 -0.29281208 -0.024313306 7 21
1.1107237 -0.31559503 0.077910759 17 25
1.0648226 -0.30305335 0.024893576 7 23
1.0358551 -0.29526889 -0.024197252 7 21
1.1024212 -0.31741554 0.077390201 9 25
1.0613552 -0.30608121 0.024835547 8 23
1.1061542 -0.32245529 0.077737242 7 25
1.0651357 -0.3109895 0.024951601 7 23
1.0954484 -0.32350963 0.077043161 7 25
1.0639887 -0.31489137 0.024951601 7 23
1.106209 -0.33107239 0.077910759 7 25
1.0652788 -0.31931576 0.02500963 7 23
1.1050467 -0.33493176 0.077910759 7 25
1.0593714 -0.32159096 0.024893576 7 23
1.0943278 -0.33588043 0.077216677 7 25
1.0701954 -0.32893217 0.025183709 7 23
1.0955914 -0.34024206 0.077390201 7 25
1.0738753 -0.33395329 0.025299765 7 23
1.0991585 -0.34555009 0.077737242 7 25
1.0750295 -0.33863267 0.025357792 7 23
1.1050186 -0.3518312 0.078257799 7 25
1.0666922 -0.340121 0.025183709 7 23
1.0966579 -0.35340661 0.077737242 7 25
1.0678787 -0.34460473 0.025241738 7 23
1.09779 -0.3580007 0.077910759 7 25
1.0666692 -0.34833023 0.025241738 7 23
1.1108178 -0.36629546 0.07895188 7 25
1.0606973 -0.35049361 0.025125684 8 23
1.0689558 -0.35734296 0.025357792 8 23
1.0748099 -0.36345875 0.025531873 8 23
1.0593354 -0.36238551 0.025183709 9 23
1.072311 -0.37076625 0.025531873 10 23
1.0615015 -0.37141281 0.025299765 16 23
1.0672725 -0.37760147 0.025473846 14 23
1.0753683 -0.38467166 0.025705952 10 23
1.0906705 0.27056625 0.050775934 22 24
1.1314379 0.2766234 0.10799617 28 26
1.1085503 0.27106735 0.051591143 33 24
1.1396582 0.27440625 0.1087098 27 26
1.1119188 0.26777616 0.051707603 28 24
1.1309655 0.26795083 0.10775829 31 26
1.1080304 0.26255676 0.051474687 19 24
1.1439708 0.26700443 0.10894768 25 26
1.1016411 0.25699958 0.051125307 10 24
1.1327631 0.26024646 0.10775829 10 26
1.112227 0.25556317 0.051591143 9 24
1.1433785 0.25846738 0.1087098 9 26
1.1058017 0.2500411 0.05124177 10 24
1.1345965 0.25213397 0.10775829 8 26
1.1115884 0.24706064 0.051474687 9 24
1.137902 0.24869874 0.10799617 8 26
1.1148847 0.24370757 0.051591143 9 24
1.1338525 0.24388656 0.10752042 8 26
1.1157286 0.2398144 0.051591143 9 24
1.132261 0.23941696 0.10728253 8 26
1.1189619 0.23662515 0.051707603 9 24
1.1355275 0.23596488 0.10752042 8 26
1.1197811 0.23271781 0.051707603 9 24
1.1388241 0.23229413 0.10775829 8 26
1.1157309 0.22762312 0.051474687 19 24
1.1420292 0.22900105 0.10799617 8 26
1.114069 0.22324118 0.051358223 29 24
1.058879 0.2121011 0 8 22
1.1452643 0.22548936 0.10823404 8 26
1.1148032 0.21954557 0.051358223 28 24
1.0669384 0.2100222 0 9 22
1.1338227 0.21915221 0.10704467 8 26
1.1131101 0.21518363 0.05124177 29 24
1.0627539 0.205358 0 9 22
1.1297263 0.21407782 0.10656891 9 26
1.1114367 0.2106422 0.051125307 27 24
1.0634995 0.20146143 0 9 22
1.1328775 0.21078084 0.10680678 8 26
1.1097091 0.2063096 0.05100885 30 24
1.0715725 0.19910307 0 10 22
1.1311573 0.20638311 0.10656891 8 26
1.1079295 0.20218502 0.05089239 32 24
1.072227 0.1955485 0 9 22
1.1318709 0.20243338 0.10656891 8 26
1.1086286 0.1983164 0.05089239 47 24
1.0753649 0.19223954 0 9 22
1.1326051 0.19828349 0.10656891 9 26
1.1068872 0.19382581 0.050775934 60 24
1.0785257 0.18872279 0 10 22
1.1332904 0.19432877 0.10656891 9 26
1.105095 0.18954356 0.050659474 62 24
1.0693182 0.18328747 0 10 22
1.1388385 0.19138505 0.10704467 8 26
1.1008226 0.18486743 0.050426558 68 24
1.0748843 0.18037122 0 10 22
1.1394998 0.1874086 0.10704467 9 26
1.1038945 0.1816165 0.050543014 69 24
1.0730088 0.17640524 0 10 22
1.1352314 0.18264866 0.10656891 9 26
1.1045216 0.17776208 0.050543014 69 24
1.0736179 0.17265867 0 27 22
1.0355225 0.16642596 -0.047282174 9 20
1.1285154 0.17734185 0.10585528 9 26
1.1051657 0.17371261 0.050543014 68 24
1.0742435 0.1687225 0 36 22
1.0410613 0.16339354 -0.047515094 16 20
1.1365093 0.17452051 0.10656891 9 26
1.1032964 0.16947952 0.050426558 65 24
1.0698824 0.16422312 0 68 22
1.0440946 0.16013201 -0.047631547 13 20
1.1346498 0.17018789 0.10633103 9 26
1.1112925 0.16672429 0.050775934 35 24
1.0704491 0.16048753 0 72 22
1.0421767 0.15612164 -0.047515094 13 20
1.1327448 0.16606806 0.10609316 9 26
1.1069243 0.16213003 0.050543014 8 24
1.0685284 0.15639298 0 76 22
1.0402435 0.15212664 -0.047398631 12 20
1.1862048 0.16958641 0.18196844 6 28
1.1333176 0.16211304 0.10609316 9 26
1.1173471 0.15985386 0.05100885 6 24
1.06409 0.15215115 0 77 22
1.0432153 0.14902422 -0.047515094 16 20
1.1647671 0.16241629 0.17849132 9 28
1.1314111 0.15781699 0.10585528 9 26
1.1228464 0.15663306 0.05124177 6 24
1.0670915 0.14877602 0 74 22
1.0388061 0.1445218 -0.047282174 12 20
1.1678028 0.15847364 0.17887768 9 28
1.1270486 0.15300909 0.10537952 9 26
1.1184624 0.15185426 0.05100885 7 24
1.0651516 0.14453286 0 78 22
1.0492055 0.14221594 -0.047748011 13 20
1.1781459 0.15567219 0.18042305 9 28
1.1226143 0.14862719 0.10490377 9 26
1.1397486 0.30413482 0.079645962 5 25
1.1214621 0.14827168 0.051125307 7 24
1.0681288 0.14113632 0 74 22
1.0521722 0.13887431 -0.047864471 13 20
1.1762054 0.1514536 0.18003669 9 28
1.1255952 0.14502086 0.10514165 9 26
1.1190568 0.29459342 0.078084283 9 25
1.1145154 0.14360909 0.050775934 8 24
1.0685909 0.13759351 0 78 22
1.0476718 0.13475756 -0.047631547 15 20
1.1865324 0.14855614 0.18158208 6 28
1.1335043 0.14200464 0.10585528 9 26
1.1297289 0.29321182 0.078778364 10 25
1.1026171 0.13818964 0.050193641 8 24
1.0690646 0.1338626 0 77 22
1.0456799 0.13061239 -0.047515094 16 20
1.182164 0.14361967 0.18080939 8 28
1.1315461 0.13755366 0.1056174 10 26
1.1283811 0.2884464 0.07860484 9 25
1.1031163 0.13414742 0.050193641 47 24
1.0695481 0.12994337 0 73 22
1.0461296 0.1269615 -0.047515094 28 20
1.0259287 0.12401392 -0.089639343 15 18
1.182658 0.13949227 0.18080939 9 28
1.1344914 0.1338899 0.10585528 21 26
1.1366324 0.28634885 0.079125404 8 25
1.1060585 0.13058388 0.050310094 70 24
