# .PCD v0.7 - Point Cloud Data file format
VERSION 0.7
FIELDS x y z intensity ring
SIZE 4 4 4 4 2
TYPE F F F F U
COUNT 1 1 1 1 1
WIDTH 1139
HEIGHT 1
VIEWPOINT 0 0 0 1 0 0 0
POINTS 1139
DATA ascii
-0.020172317 -0.35289618 -0.4483203 6 0
0.046326302 -0.53774166 0.13470435 96 31
-0.021243181 -0.51916915 0.11216695 93 30
0.04573651 -0.5361703 0.09708707 96 29
-0.021054398 -0.51860052 0.075723588 95 28
0.044680446 -0.52933234 0.060588192 94 27
-0.021230867 -0.52226031 0.046623897 95 26
0.045822822 -0.54423779 0.035571728 91 25
-0.02120083 -0.52145517 0.022709418 95 24
0.044542562 -0.53290695 0.011605397 91 23
-0.020978056 -0.5144878 0 94 22
0.046202626 -0.55283237 -0.012069613 89 21
-0.02124729 -0.51645458 -0.022476502 92 20
0.044569261 -0.53434432 -0.034702662 88 19
-0.021698521 -0.52250177 -0.043813746 93 18
0.046028335 -0.5520938 -0.059420493 93 17
-0.022092635 -0.52721828 -0.068464667 95 16
0.04603475 -0.55017328 -0.090172507 97 15
-0.022761362 -0.52473551 -0.14031833 97 13
0.045727931 -0.54473025 -0.11720631 98 14
-0.022874627 -0.51638591 -0.1667129 98 12
0.046405133 -0.54046381 -0.20527431 97 11
-0.024245352 -0.51346397 -0.25443748 98 9
0.046658482 -0.53747314 -0.23701973 97 10
-0.025642674 -0.52208585 -0.29484978 99 8
0.049295168 -0.54195637 -0.34470412 95 7
-0.027149219 -0.52147919 -0.37108287 99 6
0.050483864 -0.53431094 -0.4248265 96 5
-0.029205708 -0.52017802 -0.46470326 96 4
0.047449183 -0.48345566 -0.47851059 13 3
-0.025932472 -0.43793392 -0.47702029 6 2
0.037322763 -0.37080631 -0.44347647 7 1
-0.021165572 -0.34848559 -0.4422068 6 0
0.043935705 -0.53309506 0.13341531 96 31
-0.023502827 -0.5263859 0.1138579 95 30
0.04377104 -0.53633434 0.09708707 96 29
-0.022835229 -0.51605278 0.075337246 91 28
0.042528939 -0.52701992 0.060285252 95 27
-0.023144905 -0.52217895 0.046623897 95 26
0.044250362 -0.54937208 0.035918768 90 25
-0.023233037 -0.52386832 0.022825878 94 24
0.042471223 -0.53056878 0.01154737 90 23
-0.023106983 -0.51940149 0 94 22
0.044176087 -0.55299795 -0.012069613 90 21
-0.023415899 -0.52386016 -0.022825878 92 20
0.042191371 -0.52953368 -0.034357365 90 19
-0.02361344 -0.52241874 -0.043813746 92 18
0.044309583 -0.55472606 -0.059704799 94 17
-0.023901718 -0.52466059 -0.068120621 95 16
0.044321805 -0.55278474 -0.090601899 97 15
-0.024470035 -0.52225244 -0.1396305 97 13
0.043525048 -0.54246598 -0.11664818 98 14
-0.02455377 -0.51394349 -0.16589567 97 12
0.044719469 -0.54293144 -0.20621163 97 11
-0.026249615 -0.5155763 -0.25561002 99 9
0.04517965 -0.54214084 -0.23914547 98 10
-0.027587354 -0.52412915 -0.296143 99 8
0.047212206 -0.54006362 -0.34330288 95 7
-0.029209429 -0.52535194 -0.3741121 100 6
0.047885615 -0.52688688 -0.41836527 94 5
-0.030553557 -0.51285958 -0.45779315 95 4
0.045416571 -0.48020661 -0.47487172 12 3
-0.0272019 -0.43300167 -0.47129604 5 2
0.03618785 -0.37244087 -0.44546515 7 1
-0.022381885 -0.34840956 -0.4422068 6 0
0.04247715 -0.53805935 0.13470435 96 31
-0.024957702 -0.51900381 0.11216695 95 30
0.041696202 -0.53403753 0.096613474 96 29
-0.024636449 -0.51596999 0.075337246 94 28
0.04068904 -0.52716523 0.060285252 95 27
-0.024489552 -0.51464343 0.045910265 93 26
0.041927196 -0.54455173 0.035571728 90 25
-0.025321191 -0.52877188 0.023058794 96 24
0.041225478 -0.53818715 0.011721451 91 23
-0.024659084 -0.51432449 0 91 22
0.042140286 -0.5506503 -0.012011586 90 21
-0.025113672 -0.52128136 -0.022709418 91 20
0.040342696 -0.52967769 -0.034357365 91 19
-0.025476899 -0.52482402 -0.044037286 93 18
0.041972842 -0.54992604 -0.059136182 94 17
-0.025772745 -0.52705121 -0.068464667 95 16
0.041794263 -0.54557174 -0.089313723 96 15
-0.026030414 -0.51736403 -0.13825484 97 13
0.041725926 -0.54260737 -0.11664818 98 14
-0.02661057 -0.51857269 -0.1675301 97 12
0.042531732 -0.53845763 -0.20433699 97 11
-0.027829386 -0.51328218 -0.25443748 99 9
0.043096028 -0.54004055 -0.2380826 98 10
-0.02919578 -0.52189922 -0.29484978 99 8
0.044959366 -0.53610063 -0.34050038 96 7
-0.03069816 -0.52128232 -0.37108287 99 6
0.047022697 -0.53654206 -0.42644182 95 5
-0.032131184 -0.51095247 -0.45606562 95 4
0.043823902 -0.48035461 -0.47487172 13 3
-0.028871993 -0.43613118 -0.4751122 6 2
0.034488566 -0.36803764 -0.43949908 7 1
-0.023317439 -0.34544539 -0.43813115 6 0
0.040692642 -0.53819722 0.13470435 96 31
-0.026949715 -0.5237819 0.11329425 95 30
0.040119346 -0.53661978 0.09708707 96 29
-0.026347334 -0.51588541 0.075337246 94 28
0.038746398 -0.52482325 0.059982307 95 27
-0.026698701 -0.52200931 0.046623897 94 26
0.040509909 -0.54966056 0.035918768 91 25
-0.027074521 -0.52868497 0.023058794 95 24
0.038664874 -0.52835375 0.011489342 89 23
-0.026364511 -0.51423991 0 94 22
0.040217899 -0.55079395 -0.012011586 90 21
-0.026981134 -0.52368867 -0.022825878 92 20
0.038200714 -0.52483541 -0.034012061 89 19
-0.027308721 -0.52473193 -0.044037286 91 18
0.040148985 -0.55006218 -0.059136182 95 17
-0.027472388 -0.52448571 -0.068120621 96 16
0.03979376 -0.54325187 -0.088884331 96 15
-0.02760672 -0.51487541 -0.137567 97 13
0.039831623 -0.5427497 -0.11664818 99 14
-0.028051479 -0.5137645 -0.16589567 97 12
0.040837374 -0.54091305 -0.20527431 97 11
-0.029620906 -0.51318192 -0.25443748 99 9
0.041304953 -0.5401805 -0.2380826 98 10
-0.031154322 -0.52392924 -0.296143 98 8
0.043181345 -0.53624678 -0.34050038 95 7
-0.032517586 -0.52117199 -0.37108287 99 6
0.044808965 -0.532902 -0.42321122 95 5
-0.034043748 -0.5126397 -0.45779315 95 4
0.042468395 -0.48391861 -0.47851059 13 3
-0.030025797 -0.43119583 -0.46938798 6 2
0.033801325 -0.37418613 -0.44745383 7 1
-0.025212437 -0.35402372 -0.45035812 6 0
0.038443953 -0.53351927 0.13341531 96 31
-0.028921915 -0.52611601 0.1138579 95 30
0.03824595 -0.53675663 0.09708707 96 29
-0.028147947 -0.51579034 0.075337246 93 28
0.037285462 -0.52990454 0.060588192 95 27
-0.028228106 -0.51694429 0.046148144 93 26
0.038219608 -0.54482454 0.035571728 90 25
-0.028773014 -0.52609426 0.022942336 95 24
0.037282463 -0.53596944 0.011663424 91 23
-0.028454171 -0.51913607 0 90 22
0.038110673 -0.54843849 -0.011953559 92 21
-0.028900366 -0.52358627 -0.022825878 91 20
0.036552429 -0.52745283 -0.034184713 88 19
-0.02914021 -0.52463341 -0.044037286 92 18
0.038132641 -0.55020565 -0.059136182 91 17
-0.029303016 -0.52438664 -0.068120621 95 16
0.037984464 -0.54585022 -0.089313723 96 15
-0.029789621 -0.51956862 -0.13894267 97 13
0.03757479 -0.53802508 -0.11553194 98 14
-0.029934332 -0.51365823 -0.16589567 98 12
0.038677551 -0.5387482 -0.20433699 97 11
-0.031412061 -0.51307535 -0.25443748 99 9
0.039499991 -0.54258424 -0.23914547 97 10
-0.032929633 -0.5216769 -0.29484978 99 8
0.040877048 -0.53227448 -0.33769789 96 7
-0.034427557 -0.52104932 -0.37108287 99 6
0.04269217 -0.53116161 -0.4215959 95 5
-0.03619406 -0.51611549 -0.46124819 95 4
0.040848959 -0.4857786 -0.48033002 12 3
-0.031787612 -0.4343088 -0.47320414 6 2
0.031997971 -0.36978316 -0.44148776 7 1
-0.026269479 -0.35104254 -0.44628248 6 0
0.03648825 -0.53365654 0.13341531 96 31
-0.030544164 -0.52114481 0.1127306 95 30
0.036278378 -0.53689319 0.09708707 96 29
-0.030192453 -0.51814884 0.075723588 93 28
0.035166446 -0.52756238 0.060285252 95 27
-0.030278008 -0.51932114 0.046386018 92 26
0.035869312 -0.53998554 0.035224687 87 25
-0.031168861 -0.53346258 0.023291713 96 24
0.034883101 -0.52861691 0.011489342 89 23
-0.029730549 -0.50904787 0 91 22
0.036100291 -0.54857451 -0.011953559 89 21
-0.030727847 -0.5234822 -0.022825878 91 20
0.034793813 -0.53007114 -0.034357365 89 19
-0.03122054 -0.52700806 -0.044260826 91 18
0.036385957 -0.55281305 -0.059420493 92 17
-0.031067155 -0.52180451 -0.067776576 95 16
0.036425889 -0.55089289 -0.090172507 97 15
-0.03144671 -0.51706308 -0.13825484 97 13
0.035602581 -0.53815919 -0.11553194 98 14
-0.031727146 -0.51355058 -0.16589567 98 12
0.036796737 -0.53887993 -0.20433699 97 11
-0.033598877 -0.51736218 -0.25678253 99 9
0.037438478 -0.54046226 -0.2380826 98 10
-0.034902651 -0.52369291 -0.296143 99 8
0.039829217 -0.54273421 -0.34470412 95 7
-0.036098409 -0.51894253 -0.36956823 99 6
0.040837806 -0.5313074 -0.4215959 95 5
-0.03799542 -0.51598597 -0.46124819 96 4
0.039301567 -0.48762631 -0.48214942 12 3
-0.033513542 -0.43579909 -0.4751122 6 2
0.030984238 -0.37290981 -0.44546515 7 1
-0.027870322 -0.35527703 -0.45239592 7 0
0.034960527 -0.53859997 0.13470435 96 31
-0.03252453 -0.52346528 0.11329425 95 30
0.034404051 -0.53701651 0.09708707 96 29
-0.031675279 -0.51311105 0.074950904 94 28
0.033492617 -0.5301578 0.060588192 94 27
-0.031926528 -0.51672906 0.046148144 91 26
0.034655757 -0.55006069 0.035918768 90 25
-0.032866165 -0.53085864 0.023175254 95 24
0.033707194 -0.5387103 0.011721451 91 23
-0.031837769 -0.51393008 0 94 22
0.03418519 -0.54869717 -0.011953559 90 21
-0.032389447 -0.52087992 -0.022709418 91 20
0.032777149 -0.52770084 -0.034184713 90 19
-0.032394666 -0.51695818 -0.043366667 91 18
0.034456056 -0.55293673 -0.059420493 92 17
-0.032888398 -0.52169293 -0.067776576 95 16
0.034172818 -0.54610211 -0.089313723 96 15
-0.033416137 -0.51934803 -0.13894267 97 13
0.033560209 -0.5358488 -0.11497381 98 14
-0.033848383 -0.51815057 -0.1675301 97 12
0.034915466 -0.53900504 -0.20433699 97 11
-0.03508272 -0.51283747 -0.25443748 99 9
0.035232846 -0.53607523 -0.23595686 98 10
-0.036730468 -0.52356791 -0.296143 98 8
0.037934478 -0.54286993 -0.34470412 96 7
-0.038064301 -0.5207963 -0.37108287 99 6
0.039433066 -0.53715324 -0.42644182 95 5
-0.039202765 -0.50864619 -0.4543381 96 4
0.037741769 -0.48946914 -0.48396885 13 3
-0.035314441 -0.43889791 -0.47892839 6 2
0.029815707 -0.3745248 -0.44745383 7 1
-0.028849805 -0.35229295 -0.4483203 6 0
0.032921009 -0.53630853 0.13405983 97 31
-0.034351565 -0.52334857 0.11329425 95 30
0.032209918 -0.53223431 0.096139885 96 29
-0.033294741 -0.51053339 0.074564554 93 28
0.031163983 -0.52284211 0.059679367 95 27
-0.033812188 -0.51910305 0.046386018 94 26
0.032735474 -0.55017829 0.035918768 92 25
-0.034372345 -0.52575815 0.022942336 95 24
0.031509187 -0.53383613 0.011605397 92 23
-0.033283621 -0.50882792 0 91 22
0.032207213 -0.54631323 -0.011895532 91 21
-0.034033258 -0.51827252 -0.02259296 92 20
0.03077746 -0.52532297 -0.034012061 90 19
-0.034632463 -0.5242995 -0.044037286 92 18
0.032368913 -0.55057478 -0.059136182 91 17
-0.034792677 -0.52405101 -0.068120621 95 16
0.031640921 -0.53638649 -0.087596148 97 15
-0.035748102 -0.52642 -0.14100617 96 13
0.031938642 -0.53838909 -0.11553194 97 14
-0.035311606 -0.51331657 -0.16589567 97 12
0.032974675 -0.53680533 -0.20339964 97 11
-0.036614917 -0.51051676 -0.25326493 99 9
0.033967543 -0.54522586 -0.24020834 98 10
-0.03846648 -0.52344322 -0.296143 99 8
0.03530094 -0.53267336 -0.33769789 95 7
-0.039629873 -0.5186848 -0.36956823 98 6
0.037076667 -0.52967036 -0.41998059 95 5
-0.041661069 -0.5175159 -0.46297571 97 4
0.035981514 -0.48788252 -0.48214942 11 3
-0.036624409 -0.43716961 -0.47702029 6 2
0.028573573 -0.3746216 -0.44745383 7 1
-0.030287951 -0.35507911 -0.45239592 6 0
0.030991117 -0.53400403 0.13341531 96 31
-0.035552993 -0.51594442 0.11160329 93 30
0.030596359 -0.53478825 0.096613474 96 29
-0.03498755 -0.51042014 0.074564554 94 28
0.02958107 -0.52541953 0.059982307 94 27
-0.035443027 -0.51649976 0.046148144 94 26
0.03030704 -0.54032624 0.035224687 89 25
-0.036297228 -0.52813196 0.023058794 95 24
0.029345622 -0.52895319 0.011489342 89 23
-0.034970768 -0.50871474 0 89 22
0.030150497 -0.54392749 -0.011837505 92 21
-0.036025058 -0.52064109 -0.022709418 91 20
0.029035255 -0.52542216 -0.034012061 89 19
-0.036645625 -0.52665859 -0.044260826 91 18
0.030446852 -0.55068445 -0.059136182 92 17
-0.036438663 -0.52145696 -0.067776576 95 16
0.030359505 -0.54632735 -0.089313723 96 15
-0.037041027 -0.5191021 -0.13894267 96 13
0.030353267 -0.54336214 -0.11664818 98 14
-0.03728405 -0.5155459 -0.1667129 97 12
0.031006964 -0.53692257 -0.20339964 97 11
-0.03857265 -0.51258677 -0.25443748 98 9
0.031345844 -0.53404993 -0.23489399 97 10
-0.040210173 -0.52116632 -0.29484978 99 8
0.033862721 -0.53899026 -0.34190163 96 7
-0.04169919 -0.52051789 -0.37108287 100 6
0.035545345 -0.53551221 -0.4248265 95 5
-0.043557581 -0.51735979 -0.46297571 98 4
0.034585021 -0.4931398 -0.48760772 12 3
-0.037848409 -0.4338226 -0.47320414 5 2
0.027077507 -0.37321383 -0.44546515 7 1
-0.031448863 -0.3535243 -0.45035812 6 0
0.029033685 -0.534114 0.13341531 97 31
-0.037630647 -0.51823908 0.11216695 94 30
0.02835088 -0.52999562 0.095666289 95 29
-0.037235364 -0.51521403 0.075337246 94 28
0.02751313 -0.52304691 0.059679367 95 27
-0.03733585 -0.51636642 0.046148144 91 26
0.028751917 -0.54790348 0.035745248 90 25
-0.0384234 -0.53048539 0.023175254 94 24
0.027499054 -0.52905238 0.011489342 90 23
-0.036643706 -0.50609052 0 91 22
0.028156701 -0.5440343 -0.011837505 93 21
-0.038033806 -0.52300215 -0.022825878 90 20
0.026969202 -0.52303493 -0.033839412 88 19
-0.037998691 -0.51907313 -0.043590207 92 18
0.028384905 -0.54830742 -0.058851875 93 17
-0.038733911 -0.52625746 -0.068464667 95 16
0.02817389 -0.54151219 -0.088454939 96 15
-0.038852807 -0.5189696 -0.13894267 96 13
0.027947076 -0.53617084 -0.11497381 98 14
-0.039272487 -0.51776767 -0.1675301 97 12
0.029132564 -0.53702754 -0.20339964 97 11
-0.040267128 -0.51024169 -0.25326493 98 9
0.029617248 -0.5364148 -0.23595686 97 10
-0.041847128 -0.51889098 -0.2935566 99 8
0.031847838 -0.53703898 -0.34050038 96 7
-0.043691304 -0.52235031 -0.37259749 100 6
0.033285506 -0.52992213 -0.41998059 95 5
-0.04536324 -0.51720458 -0.46297571 98 4
0.032863434 -0.49325752 -0.48760772 12 3
-0.039124623 -0.43046561 -0.46938798 6 2
0.025892129 -0.37481648 -0.44745383 7 1
-0.03297339 -0.35629416 -0.45443374 7 0
0.027035108 -0.53180027 0.13277079 96 31
-0.039244071 -0.5156768 0.11160329 95 30
0.026768746 -0.53499353 0.096613474 96 29
-0.039033569 -0.51508093 0.075337246 94 28
0.02582052 -0.52561772 0.059982307 94 27
-0.039336801 -0.51871359 0.046386018 90 26
0.026839202 -0.54800057 0.035745248 92 25
-0.039477263 -0.52039075 0.022709418 94 24
0.025784696 -0.53164101 0.01154737 89 23
-0.038610131 -0.50845146 0 91 22
0.026389172 -0.54662514 -0.011895532 91 21
-0.039458629 -0.51788771 -0.02259296 92 20
0.025274703 -0.52561647 -0.034012061 90 19
-0.039810363 -0.51893735 -0.043590207 91 18
0.026601641 -0.55088359 -0.059136182 91 17
-0.039968424 -0.51871479 -0.067432538 95 16
0.026283486 -0.54160726 -0.088454939 96 15
-0.040465917 -0.5164355 -0.13825484 97 13
0.026075322 -0.53626513 -0.11497381 98 14
-0.040882301 -0.51527303 -0.1667129 97 12
0.027129246 -0.53481191 -0.20246232 97 11
-0.042239629 -0.51229763 -0.25443748 99 9
0.02787252 -0.53877407 -0.23701973 97 10
-0.043468688 -0.51661062 -0.29226339 99 8
0.02997303 -0.53714693 -0.34050038 95 7
-0.045514379 -0.52219462 -0.37259749 99 6
0.031682458 -0.53384328 -0.42321122 95 5
-0.047168348 -0.51704305 -0.46297571 98 4
0.031022737 -0.49165881 -0.48578829 12 3
-0.040789388 -0.43193358 -0.47129604 6 2
0.024359073 -0.37188298 -0.44347647 7 1
-0.033465028 -0.34897506 -0.44424465 6 0
0.025304189 -0.53430367 0.13341531 96 31
-0.041451499 -0.52039087 0.1127306 95 30
0.02477563 -0.53263217 0.096139885 96 29
-0.040625479 -0.51248008 0.074950904 92 28
0.023736246 -0.52074784 0.059376426 95 27
-0.040849756 -0.51610029 0.046148144 95 26
0.024677282 -0.54310918 0.035398208 91 25
-0.041917823 -0.52771556 0.023058794 95 24
0.023804931 -0.52923155 0.011489342 88 23
-0.040175963 -0.50582236 0 90 22
0.024576353 -0.54670972 -0.011895532 92 21
-0.041266154 -0.51774681 -0.02259296 90 20
0.023439804 -0.52570152 -0.034012061 87 19
-0.041321784 -0.5163213 -0.043366667 91 18
0.024189742 -0.54104996 -0.057998952 89 17
-0.042315107 -0.52598161 -0.068464667 94 16
0.024270738 -0.53923583 -0.08802554 96 15
-0.041855257 -0.51150191 -0.13687916 97 13
0.024296859 -0.5363487 -0.11497381 98 14
-0.042886201 -0.51748091 -0.1675301 97 12
0.02559738 -0.53952789 -0.20433699 97 11
-0.04354031 -0.50775677 -0.25209242 99 9
0.025751669 -0.53434885 -0.23489399 97 10
-0.045378108 -0.51859415 -0.2935566 99 8
0.027979037 -0.53518134 -0.33909914 95 7
-0.046867982 -0.51808089 -0.36956823 99 6
0.029911997 -0.53394538 -0.42321122 95 5
-0.048703179 -0.51508564 -0.46124819 98 4
0.029505201 -0.49346977 -0.48760772 13 3
-0.042053781 -0.43018934 -0.46938798 5 2
0.023340253 -0.37498406 -0.44745383 7 1
-0.03508753 -0.35318172 -0.45035812 6 0
0.023532234 -0.53438467 0.13341531 96 31
-0.042753235 -0.51539773 0.11160329 95 30
0.023126567 -0.53516334 0.096613474 96 29
-0.042110715 -0.50988191 0.074564554 94 28
0.022242185 -0.52578133 0.059982307 95 27
-0.042866632 -0.51843387 0.046386018 94 26
0.022876132 -0.54318804 0.035398208 91 25
-0.043018509 -0.52011001 0.022709418 95 24
0.022049805 -0.52930754 0.011489342 89 23
-0.041853108 -0.50568634 0 91 22
0.022553146 -0.54429543 -0.011837505 91 21
-0.043200057 -0.52009493 -0.022709418 91 20
0.021696389 -0.52577633 -0.034012061 87 19
-0.043341711 -0.51865435 -0.043590207 92 18
0.022623366 -0.54608953 -0.058567569 94 17
-0.043498252 -0.51843077 -0.067432538 95 16
0.022254694 -0.53439295 -0.087166756 96 15
-0.043551233 -0.51136023 -0.13687916 97 13
0.022650694 -0.54129875 -0.11609006 98 14
-0.044601992 -0.51733583 -0.1675301 97 12
0.023601107 -0.53729904 -0.20339964 96 11
-0.045725726 -0.5119983 -0.25443748 98 9
0.024204584 -0.53895134 -0.23701973 97 10
-0.047799915 -0.52482194 -0.29743618 99 8
0.026204159 -0.53527111 -0.33909914 95 7
-0.048676133 -0.51791418 -0.36956823 99 6
0.027716495 -0.52833194 -0.41836527 94 5
-0.050686628 -0.51671004 -0.46297571 99 4
0.027675427 -0.49185857 -0.48578829 11 3
-0.044248492 -0.43646383 -0.47702029 5 2
0.021521244 -0.36750555 -0.4375104 7 1
-0.036480322 -0.35449642 -0.45239592 6 0
0.021448437 -0.52963746 0.13212627 97 31
-0.044331726 -0.51281971 0.11103964 95 30
0.021040784 -0.53033614 0.095666289 96 29
-0.043890279 -0.50973183 0.074564554 92 28
0.02040673 -0.52585578 0.059982307 95 27
-0.044003278 -0.51084548 0.045672391 94 26
0.021302354 -0.55073947 0.035918768 91 25
-0.045283835 -0.52493095 0.022942336 95 24
0.020003242 -0.52688777 0.011431315 89 23
-0.04406945 -0.5105167 0 91 22
0.020335158 -0.5368796 -0.011663424 88 21
-0.045106009 -0.5199331 -0.022709418 90 20
0.019755209 -0.52335703 -0.033839412 87 19
-0.044925347 -0.51602024 -0.043366667 92 18
0.020516817 -0.54368716 -0.058283258 93 17
-0.04598609 -0.52567333 -0.068464667 94 16
0.02061045 -0.54185277 -0.088454939 96 15
-0.045201894 -0.50880408 -0.13619132 96 13
0.020656472 -0.53893983 -0.11553194 98 14
-0.04605395 -0.51246446 -0.16589567 96 12
0.021318668 -0.5304361 -0.20058766 97 11
-0.046869721 -0.50524288 -0.25091991 99 9
0.022020616 -0.53451562 -0.23489399 97 10
-0.049299654 -0.52038515 -0.29484978 99 8
0.024346501 -0.53743136 -0.34050038 96 7
-0.050777126 -0.51971084 -0.37108287 99 6
0.025883395 -0.53033525 -0.41998059 95 5
-0.052580122 -0.5165208 -0.46297571 99 4
0.025670916 -0.48853356 -0.48214942 12 3
-0.045056019 -0.42988527 -0.46938798 5 2
0.020463459 -0.37211764 -0.44347647 7 1
-0.037283026 -0.35004419 -0.44628248 6 0
0.019306457 -0.52488571 0.13083725 97 31
-0.046898648 -0.51992822 0.1127306 94 30
0.018997068 -0.52795696 0.095192693 95 29
-0.04622142 -0.51448566 0.075337246 94 28
0.018183062 -0.51848817 0.059073485 96 27
-0.045875326 -0.51068074 0.045672391 92 26
0.018890258 -0.54084575 0.035224687 88 25
-0.047441646 -0.52724767 0.023058794 95 24
0.018261626 -0.52945179 0.011489342 92 23
-0.046644799 -0.51781857 0 90 22
0.018657705 -0.54444289 -0.011837505 91 21
-0.046685629 -0.5172863 -0.02259296 91 20
0.017933486 -0.52591813 -0.034012061 89 19
-0.046816356 -0.51585209 -0.043366667 93 18
0.018715084 -0.54623741 -0.058567569 93 17
-0.047206916 -0.51810622 -0.067432538 95 16
0.018815167 -0.54438233 -0.088884331 96 15
-0.047672536 -0.51582015 -0.13825484 97 13
0.01858535 -0.53657693 -0.11497381 98 14
-0.048302796 -0.51700342 -0.1675301 97 12
0.019563217 -0.53282291 -0.20152499 96 11
-0.049388304 -0.51165795 -0.25443748 98 9
0.019962002 -0.53006768 -0.23276827 97 10
-0.051554207 -0.52446645 -0.29743618 98 8
0.022276033 -0.53337681 -0.33769789 95 7
-0.052170999 -0.51557475 -0.36805359 99 6
0.02412889 -0.53232795 -0.4215959 95 5
-0.054382797 -0.51633412 -0.46297571 96 4
0.024060272 -0.49033213 -0.48396885 12 3
-0.047185786 -0.43453136 -0.4751122 5 2
0.018890899 -0.36765015 -0.4375104 7 1
-0.038504682 -0.3499119 -0.44628248 6 0
0.017933561 -0.53701866 0.13405983 97 31
-0.048237897 -0.51491338 0.11160329 95 30
0.017245272 -0.53047311 0.095666289 96 29
-0.047296524 -0.50694644 0.074178211 92 28
0.016463157 -0.52102846 0.059376426 95 27
-0.048383608 -0.51794809 0.046386018 92 26
0.017181536 -0.54589313 0.035571728 91 25
-0.049524624 -0.52956438 0.023175254 95 24
0.016502354 -0.53201008 0.01154737 89 23
-0.047721472 -0.51018834 0 91 22
0.016580936 -0.53950906 -0.011721451 92 21
-0.048734702 -0.51960558 -0.022709418 92 20
0.015921758 -0.52099252 -0.033666763 88 19
-0.048861008 -0.5181635 -0.043590207 92 18
0.016808245 -0.5462994 -0.058567569 93 17
-0.049502727 -0.52286661 -0.068120621 93 16
0.016651791 -0.53706086 -0.087596148 96 15
-0.049232826 -0.51325911 -0.137567 96 13
0.016886577 -0.54150921 -0.11609006 98 14
-0.048915427 -0.50507867 -0.16344401 97 12
0.017791359 -0.53520393 -0.20246232 97 11
-0.051404063 -0.51367849 -0.25561002 99 9
0.018200044 -0.53239524 -0.23383114 97 10
-0.052704781 -0.51790082 -0.2935566 99 8
0.020504013 -0.53551978 -0.33909914 94 7
-0.054404125 -0.51934367 -0.37108287 98 6
0.022090139 -0.52859706 -0.41836527 96 5
-0.055570155 -0.51075476 -0.45779315 98 4
0.022526219 -0.49383759 -0.48760772 13 3
-0.047750201 -0.42634377 -0.46557182 6 2
0.018122774 -0.37678906 -0.44944251 7 1
-0.039374888 -0.34690028 -0.4422068 7 0
0.015808536 -0.52983582 0.13212627 97 31
-0.049788851 -0.51231873 0.11103964 95 30
0.015393469 -0.5305301 0.095666289 96 29
-0.049812052 -0.51415044 0.075337246 94 28
0.014807153 -0.52604318 0.059982307 95 27
-0.049439404 -0.51034802 0.045672391 93 26
0.015194962 -0.54345709 0.035398208 89 25
-0.050366849 -0.51944989 0.022709418 95 24
0.01448469 -0.52706832 0.011431315 89 23
-0.049249865 -0.5075314 0 89 22
0.014776975 -0.54206175 -0.011779478 87 21
-0.0502958 -0.51694775 -0.02259296 90 20
0.014182268 -0.5235377 -0.033839412 89 19
-0.050416511 -0.5155127 -0.043366667 93 18
0.014822316 -0.54387224 -0.058283258 92 17
-0.051075187 -0.52022731 -0.067776576 94 16
0.014697919 -0.53465414 -0.087166756 96 15
-0.050527502 -0.50830281 -0.13619132 96 13
0.014760243 -0.53425801 -0.11441568 98 14
-0.050924737 -0.5072546 -0.16426124 97 12
0.016003115 -0.537579 -0.20339964 96 11
-0.053196818 -0.51349592 -0.25561002 98 9
0.016260974 -0.53019416 -0.23276827 98 10
-0.055214386 -0.52409375 -0.29743618 98 8
0.018634574 -0.53558809 -0.33909914 95 7
-0.055769086 -0.51519793 -0.36805359 99 6
0.020244857 -0.52867097 -0.41836527 95 5
-0.057986133 -0.51594186 -0.46297571 99 4
0.020470833 -0.48706305 -0.48033002 11 3
-0.049238127 -0.42617449 -0.46557182 5 2
0.016807424 -0.37685004 -0.44944251 7 1
-0.04040505 -0.3453238 -0.44016898 6 0
0.013958967 -0.52988774 0.13212627 97 31
-0.052340653 -0.51940864 0.1127306 95 30
0.013615589 -0.53303421 0.096139885 96 29
-0.051349141 -0.51151693 0.074950904 91 28
0.012825322 -0.52113068 0.059376426 94 27
-0.051739093 -0.51512259 0.046148144 91 26
0.013370097 -0.54599977 0.035571728 92 25
-0.052960273 -0.52672195 0.023058794 95 24
0.012716319 -0.52961397 0.011489342 89 23
-0.051282067 -0.50984269 0 89 22
0.012884737 -0.54211009 -0.011779478 91 21
-0.051316869 -0.50931823 -0.022243585 90 20
0.012425202 -0.52607709 -0.034012061 89 19
-0.052738819 -0.52028596 -0.043813746 93 18
0.012993977 -0.54640347 -0.058567569 93 17
-0.053151794 -0.52250832 -0.068120621 94 16
0.012761054 -0.53224039 -0.086737365 97 15
-0.053584799 -0.52007222 -0.1396305 96 13
0.012825076 -0.53187037 -0.11385756 98 14
-0.053204589 -0.5117715 -0.16589567 96 12
0.014126517 -0.53763157 -0.20339964 97 11
-0.054988928 -0.51330709 -0.25561002 98 9
0.014482808 -0.53250933 -0.23383114 98 10
-0.056319099 -0.51752025 -0.2935566 99 8
0.016613897 -0.53151184 -0.33629668 95 7
-0.056644436 -0.50709802 -0.3619951 98 6
0.018476235 -0.53064489 -0.41998059 95 5
-0.059786752 -0.51573628 -0.46297571 99 4
0.019154944 -0.49569568 -0.48942721 12 3
-0.051128674 -0.42920536 -0.46938798 5 2
0.015416543 -0.3753933 -0.44745383 7 1
-0.041239172 -0.34230813 -0.43609333 6 0
0.01217583 -0.5323478 0.13277079 97 31
-0.053627312 -0.51437998 0.11160329 94 30
0.011820412 -0.53553236 0.096613474 95 29
-0.053134352 -0.51133454 0.074950904 92 28
0.011006158 -0.52117229 0.059376426 95 27
-0.053804796 -0.51741302 0.046386018 91 26
0.01146412 -0.5460431 0.035571728 94 25
-0.054798547 -0.5265339 0.023058794 94 24
0.010993162 -0.53465223 0.011605397 93 23
-0.053061437 -0.5096606 0 88 22
0.010930404 -0.53965318 -0.011721451 90 21
-0.05390352 -0.51658404 -0.02259296 91 20
0.010465164 -0.52113074 -0.033666763 89 19
-0.054554638 -0.52009875 -0.043813746 92 18
0.01084039 -0.53651339 -0.057430334 89 17
-0.054705787 -0.51985806 -0.067776576 95 16
0.010903111 -0.5322817 -0.086737365 95 15
-0.054869864 -0.51510423 -0.13825484 97 13
0.011153418 -0.53922021 -0.11553194 98 14
-0.054990675 -0.51158267 -0.16589567 96 12
0.012249747 -0.53767759 -0.20339964 96 11
-0.056274336 -0.50872511 -0.25326493 99 9
0.012688676 -0.53481853 -0.23489399 98 10
-0.058374114 -0.51944554 -0.29484978 99 8
0.014690191 -0.52949733 -0.33489543 96 7
-0.05960203 -0.51677078 -0.36956823 99 6
0.016623827 -0.53070617 -0.41998059 95 5
-0.061586648 -0.51552445 -0.46297571 99 4
0.017282721 -0.49233332 -0.48578829 11 3
-0.052626576 -0.42902425 -0.46938798 5 2
0.014036039 -0.37393147 -0.44546515 7 1
-0.042433802 -0.3421621 -0.43609333 6 0
0.010375689 -0.5348019 0.13341531 96 31
-0.05569401 -0.51661009 0.11216695 95 30
0.009894006 -0.53311628 0.096139885 96 29
-0.05436999 -0.50623667 0.074178211 92 28
0.0093531637 -0.52865046 0.060285252 95 27
-0.054504398 -0.50732911 0.045434512 90 26
0.0093934806 -0.53859967 0.035051167 88 25
-0.056358658 -0.52385759 0.022942336 95 24
0.0090186372 -0.52968985 0.011489342 89 23
-0.05456192 -0.50698781 0 90 22
0.0090465965 -0.53968799 -0.011721451 87 21
-0.055984776 -0.51887447 -0.022709418 90 20
0.0087522184 -0.526151 -0.034012061 87 19
-0.055533234 -0.51248217 -0.043143127 92 18
0.0091261929 -0.54399765 -0.058283258 92 17
-0.05624193 -0.51720345 -0.067432538 93 16
0.0090450356 -0.53231651 -0.086737365 96 15
-0.056940921 -0.51729751 -0.13894267 96 13
0.009164799 -0.53438324 -0.11441568 98 14
-0.056776103 -0.51138759 -0.16589567 96 12
0.010372828 -0.5377171 -0.20339964 96 11
-0.058310442 -0.51071811 -0.25443748 99 9
0.010764869 -0.53259748 -0.23383114 97 10
-0.060699556 -0.52348685 -0.29743618 98 8
0.01290287 -0.53161484 -0.33629668 95 7
-0.060916614 -0.51261181 -0.36653897 98 6
0.014771214 -0.530761 -0.41998059 96 5
-0.063155852 -0.51351392 -0.46124819 99 4
0.015369291 -0.48725075 -0.48033002 13 3
-0.054549418 -0.43204045 -0.47320414 5 2
0.012730689 -0.3739782 -0.44546515 7 1
-0.044214536 -0.3463167 -0.4422068 6 0
0.0084093306 -0.53000486 0.13212627 96 31
-0.05693708 -0.51157355 0.11103964 93 30
0.0079846131 -0.53069329 0.095666289 96 29
-0.056419786 -0.50849748 0.074564554 92 28
0.0075077722 -0.52867985 0.060285252 93 27
-0.057040703 -0.51456249 0.046148144 90 26
0.0074672229 -0.53613567 0.034877647 89 25
-0.058186918 -0.52365768 0.022942336 95 24
0.0070335283 -0.52222139 0.011315262 89 23
-0.056618221 -0.50927776 0 88 22
0.0072568767 -0.53971499 -0.011721451 88 21
-0.05722158 -0.51371437 -0.022476502 89 20
0.0068711578 -0.52368474 -0.033839412 90 19
-0.056945328 -0.50982183 -0.042919587 91 18
0.0073156608 -0.54899293 -0.058851875 94 17
-0.058529381 -0.52193326 -0.068120621 95 16
0.007097445 -0.52741992 -0.085878581 96 15
-0.058464605 -0.51470864 -0.13825484 96 13
0.0074828318 -0.53928369 -0.11553194 97 14
-0.057722814 -0.50414807 -0.16344401 97 12
0.0085415039 -0.53543144 -0.20246232 96 11
-0.059199918 -0.5039469 -0.25091991 98 9
0.008905692 -0.53263181 -0.23383114 97 10
-0.062171828 -0.52115941 -0.296143 99 8
0.011208614 -0.53786576 -0.34050038 95 7
-0.063118167 -0.51635313 -0.36956823 99 6
0.012839252 -0.52508539 -0.41513467 94 5
-0.064150751 -0.5079267 -0.45606562 100 4
0.013812664 -0.48901248 -0.48214942 13 3
-0.055981815 -0.43185717 -0.47320414 5 2
0.011370977 -0.37099075 -0.44148776 7 1
-0.044761825 -0.34186533 -0.43609333 6 0
0.00669346 -0.53244501 0.13277079 97 31
-0.059497111 -0.5186376 0.1127306 94 30
0.0061844564 -0.5282625 0.095192693 96 29
-0.058688056 -0.5132131 0.075337246 94 28
0.00552329 -0.51381415 0.058467604 95 27
-0.059129883 -0.51683158 0.046386018 92 26
0.0056892917 -0.53615749 0.034877647 89 25
-0.059628725 -0.52098197 0.022825878 93 24
0.0052105924 -0.52224278 0.011315262 89 23
-0.057716444 -0.50412214 0 87 22
0.0054090805 -0.54223615 -0.011779478 90 21
-0.059014432 -0.51351154 -0.022476502 90 20
0.0050622635 -0.51871711 -0.033494111 90 19
-0.059907336 -0.51950938 -0.043813746 90 18
0.0052926345 -0.54156458 -0.057998952 92 17
-0.059761092 -0.51680863 -0.067432538 93 16
0.0052924678 -0.52990407 -0.086307973 94 15
-0.059680924 -0.50972956 -0.13687916 96 13
0.0054906076 -0.53199661 -0.11385756 97 14
-0.060344845 -0.51097876 -0.16589567 97 12
0.0066186311 -0.53777641 -0.20339964 96 11
-0.061234239 -0.50592792 -0.25209242 98 9
0.0070874766 -0.53492206 -0.23489399 97 10
-0.064623788 -0.52517259 -0.29872939 98 8
0.0091446042 -0.52962214 -0.33489543 96 7
-0.064752035 -0.51414615 -0.36805359 98 6
0.011015194 -0.52894378 -0.41836527 93 5
-0.067466617 -0.51843292 -0.46643078 98 4
0.012073208 -0.49077359 -0.48396885 12 3
-0.057041559 -0.42845961 -0.46938798 5 2
0.010173731 -0.37557197 -0.44745383 7 1
-0.045808971 -0.34026545 -0.43405554 6 0
0.0047090244 -0.53005069 0.13212627 97 31
-0.06080395 -0.5135811 0.11160329 93 30
0.0041856864 -0.52337253 0.094245501 96 29
-0.059968363 -0.50809121 0.074564554 94 28
0.0036694808 -0.51631236 0.058770545 96 27
-0.059511624 -0.5042603 0.045196638 92 26
0.0037815936 -0.54116237 0.035224687 92 25
-0.061537813 -0.52075994 0.022825878 95 24
0.0034155103 -0.52475691 0.011373288 89 23
-0.060172237 -0.50887007 0 89 22
0.0033675598 -0.53725404 -0.011663424 92 21
-0.060806561 -0.51330239 -0.022476502 90 20
0.0032150107 -0.52371991 -0.033839412 89 19
-0.060896792 -0.51187253 -0.043143127 89 18
0.0034290659 -0.54406339 -0.058283258 92 17
-0.061654888 -0.51658612 -0.067432538 94 16
0.0034977449 -0.5348447 -0.087166756 96 15
-0.062056493 -0.51428795 -0.13825484 96 13
0.0035407052 -0.53201318 -0.11385756 98 14
-0.061832413 -0.50842094 -0.16507845 97 12
0.0046467502 -0.53084397 -0.20058766 96 11
-0.062520921 -0.50132072 -0.24974738 98 9
0.0051870327 -0.53268099 -0.23383114 97 10
-0.065621018 -0.51857984 -0.29484978 98 8
0.0073352065 -0.53172088 -0.33629668 94 7
-0.066546343 -0.51391697 -0.36805359 98 6
0.0091251461 -0.52707142 -0.41674998 93 5
-0.0685298 -0.51282442 -0.46124819 99 4
0.010266065 -0.48738497 -0.48033002 13 3
-0.059300222 -0.43304443 -0.4751122 5 2
0.0087159555 -0.37106264 -0.44148776 7 1
-0.047417551 -0.34296912 -0.43813115 7 0
0.0028343224 -0.52764851 0.13148175 97 31
-0.063206844 -0.51819861 0.1127306 95 30
0.0024041629 -0.52829319 0.095192693 95 29
-0.062050279 -0.51032937 0.074950904 92 28
0.001908771 -0.521285 0.059376426 93 27
-0.062204603 -0.51145697 0.045910265 91 26
0.001932607 -0.54615998 0.035571728 92 25
-0.063667357 -0.52301967 0.022942336 94 24
0.0016221327 -0.52976412 0.011489342 92 23
-0.061948158 -0.50865692 0 87 22
0.0014372098 -0.52976465 -0.011489342 89 21
-0.062597953 -0.51308703 -0.022476502 90 20
0.0013685853 -0.52123398 -0.033666763 89 19
-0.06330993 -0.51659721 -0.043590207 90 18
0.0015663235 -0.54903948 -0.058851875 93 17
-0.063770227 -0.51882416 -0.067776576 93 16
0.0016118539 -0.53239089 -0.086737365 96 15
-0.063851319 -0.51406819 -0.13825484 96 13
0.0017027506 -0.53445911 -0.11441568 97 14
-0.063302875 -0.50585896 -0.16426124 97 12
0.0027937305 -0.53085697 -0.20058766 97 11
-0.06485299 -0.50547677 -0.25209242 98 9
0.0033023227 -0.53043318 -0.23276827 97 10
-0.067716733 -0.520468 -0.296143 99 8
0.0055112685 -0.53381336 -0.33769789 95 7
-0.067251876 -0.50580055 -0.3619951 98 6
0.0073961578 -0.5328232 -0.4215959 96 5
-0.070319466 -0.51258206 -0.46124819 100 4
0.0086057037 -0.48913187 -0.48214942 13 3
-0.059635803 -0.42484429 -0.46557182 5 2
0.0074642738 -0.37260514 -0.44347647 7 1
-0.048398893 -0.34136939 -0.43609333 6 0
0.00099246763 -0.52765518 0.13148175 96 31
-0.06438791 -0.51314408 0.11160329 94 30
0.00056006107 -0.52829838 0.095192693 96 29
-0.063831285 -0.51010966 0.074950904 92 28
8.9135254e-05 -0.52128851 0.059376426 95 27
-0.063581087 -0.50877976 0.045672391 91 26
-7.8107696e-06 -0.53868163 0.035051167 92 25
-0.06453032 -0.51536447 0.02259296 92 24
-0.00026897551 -0.51976937 0.011257235 90 23
-0.063080214 -0.50347912 0 88 22
-0.00028946181 -0.53726447 -0.011663424 93 21
-0.065353498 -0.52029485 -0.022825878 89 20
-0.00044129265 -0.52372962 -0.033839412 89 19
-0.065022685 -0.51638442 -0.043590207 89 18
-0.00037880242 -0.54159027 -0.057998952 90 17
-0.065811001 -0.52106518 -0.068120621 94 16
-0.00027749594 -0.5250048 -0.085449189 95 15
-0.065015428 -0.50907665 -0.13687916 96 13
-0.000102764 -0.52715123 -0.11274131 96 14
-0.065380327 -0.50797683 -0.16507845 96 12
0.0010175547 -0.52854574 -0.19965033 96 11
-0.067424402 -0.51182216 -0.25561002 98 9
0.0014681218 -0.53270423 -0.23383114 97 10
-0.068563409 -0.5138824 -0.29226339 98 8
0.0036478783 -0.53382933 -0.33769789 96 7
-0.070321433 -0.51542151 -0.36956823 99 6
0.0055985739 -0.53093696 -0.41998059 96 5
-0.071497135 -0.50876969 -0.45779315 101 4
0.0070189452 -0.49087191 -0.48396885 13 3
-0.06152517 -0.4278388 -0.46938798 5 2
0.0061900304 -0.37111336 -0.44148776 7 1
-0.050411876 -0.34693247 -0.44424465 7 0
-0.0007573053 -0.5276556 0.13148175 97 31
-0.066732615 -0.51775634 0.1127306 95 30
-0.0011978407 -0.52584261 0.094719097 96 29
-0.064546354 -0.50254989 0.073791869 94 28
-0.0016395202 -0.52128589 0.059376426 95 27
-0.066012368 -0.51348865 0.046148144 92 26
-0.0018002372 -0.53369069 0.034704126 94 25
-0.066567957 -0.51762313 0.022709418 94 24
-0.0019882293 -0.52476424 0.011373288 90 23
-0.065079242 -0.50574535 0 88 22
-0.0021635545 -0.53975952 -0.011721451 91 21
-0.065429248 -0.50769824 -0.022243585 92 20
-0.002179346 -0.52123123 -0.033666763 90 19
-0.067485154 -0.52109033 -0.044037286 91 18
-0.0021721772 -0.54655361 -0.058567569 92 17
-0.067629457 -0.5208323 -0.068120621 94 16
-0.0020077268 -0.53731519 -0.087596148 96 15
-0.066703223 -0.50885826 -0.13687916 96 13
-0.0019403126 -0.52958453 -0.11329944 97 14
-0.06738431 -0.51009816 -0.16589567 96 12
-0.00080436398 -0.53549898 -0.20246232 96 11
-0.068292126 -0.50502366 -0.25209242 98 9
-0.00030827033 -0.53044331 -0.23276827 97 10
-0.070957497 -0.51787663 -0.29484978 98 8
0.0018595492 -0.5317682 -0.33629668 95 7
-0.071834758 -0.51320451 -0.36805359 99 6
0.0037212479 -0.52904534 -0.41836527 95 5
-0.073272631 -0.50851703 -0.45779315 99 4
0.0053347638 -0.49260768 -0.48578829 13 3
-0.062772222 -0.426025 -0.46747988 5 2
0.0049278778 -0.37264732 -0.44347647 7 1
-0.051397279 -0.3453238 -0.4422068 6 0
-0.0025978975 -0.52040327 0.12954821 96 31
-0.068209387 -0.5151071 0.11216695 94 30
-0.0030333668 -0.52583522 0.094719097 96 29
-0.067301989 -0.50966334 0.074950904 92 28
-0.0034448449 -0.51383227 0.058467604 95 27
-0.066794999 -0.50585765 0.045434512 88 26
-0.00368013 -0.54116303 0.035224687 93 25
-0.068036787 -0.5149132 0.02259296 94 24
-0.0038976145 -0.51975483 0.011257235 89 23
-0.066167377 -0.50056112 0 89 22
-0.0040254067 -0.5322507 -0.01154737 89 21
-0.068306372 -0.51487756 -0.02259296 90 20
-0.0039839698 -0.51623243 -0.033321463 92 19
-0.067948528 -0.51098424 -0.043143127 92 18
-0.0041675791 -0.5440582 -0.058283258 92 17
-0.069447085 -0.52059305 -0.068120621 94 16
-0.003956439 -0.52991575 -0.086307973 96 15
-0.06889943 -0.51099086 -0.137567 96 13
-0.0038127135 -0.53932208 -0.11553194 98 14
-0.06925346 -0.50984782 -0.16589567 96 12
-0.0027654422 -0.53085715 -0.20058766 96 11
-0.071309701 -0.51352453 -0.25678253 98 9
-0.0022524404 -0.53043866 -0.23276827 97 10
-0.073779479 -0.52396476 -0.29872939 99 8
-8.9491252e-05 -0.53177142 -0.33629668 95 7
-0.073422648 -0.51097047 -0.36653897 97 6
0.0017482068 -0.52523941 -0.41513467 96 5
-0.075956926 -0.51360387 -0.46297571 99 4
0.0034831488 -0.48919514 -0.48214942 13 3
-0.063755788 -0.42261204 -0.4636637 5 2
0.0035065007 -0.36963347 -0.43949908 7 1
-0.053584781 -0.35085201 -0.45035812 6 0
-0.0045330776 -0.52763665 0.13148175 97 31
-0.069079973 -0.50761783 0.11047598 91 30
-0.0049259253 -0.51845646 0.093298309 96 29
-0.068483755 -0.50452119 0.074178211 91 28
-0.0053419708 -0.51629776 0.058770545 95 27
-0.069685094 -0.51300311 0.046148144 91 26
-0.0056635672 -0.54114598 0.035224687 93 25
-0.070616961 -0.51960659 0.022825878 94 24
-0.005727577 -0.5222373 0.011315262 88 23
-0.068001583 -0.50031525 0 91 22
-0.0060259039 -0.53973019 -0.011721451 87 21
-0.069755666 -0.51216298 -0.022476502 90 20
-0.0058925701 -0.51870835 -0.033494111 88 19
-0.069820926 -0.51073176 -0.043143127 90 18
-0.0060337251 -0.53907287 -0.057714641 93 17
-0.070661172 -0.5154314 -0.067432538 94 16
-0.0057752179 -0.52497315 -0.085449189 95 15
-0.070002891 -0.50598854 -0.13619132 96 13
-0.0057447441 -0.53199393 -0.11385756 97 14
-0.070359595 -0.50492585 -0.16426124 96 12
-0.0046362607 -0.53547949 -0.20246232 96 11
-0.07190422 -0.50452203 -0.25209242 98 9
-0.0040976843 -0.5281648 -0.2317054 97 10
-0.074661493 -0.51735562 -0.29484978 98 8
-0.0019489717 -0.52969748 -0.33489543 96 7
-0.075804785 -0.51464361 -0.36956823 100 6
-7.4907904e-05 -0.52715033 -0.41674998 95 5
-0.077189498 -0.50976503 -0.45952067 100 4
0.0017925743 -0.49091882 -0.48396885 12 3
-0.066334002 -0.42875424 -0.47129604 5 2
0.0022836404 -0.37418786 -0.44546515 7 1
-0.052924901 -0.33923149 -0.43405554 6 0
-0.0063571394 -0.52520221 0.13083725 96 31
-0.071198858 -0.50978434 0.11103964 95 30
-0.0067960545 -0.52580005 0.094719097 96 29
-0.070244439 -0.50427908 0.074178211 92 28
-0.0071216319 -0.51379448 0.058467604 96 27
-0.069971234 -0.50291562 0.045196638 91 26
-0.0075524841 -0.54112285 0.035224687 93 25
-0.072074965 -0.5168851 0.022709418 94 24
-0.0075749177 -0.52471334 0.011373288 90 23
-0.069035314 -0.49512583 0 88 22
-0.0077908174 -0.53720808 -0.011663424 92 21
-0.071186841 -0.50944465 -0.022360044 89 20
-0.0077031641 -0.51868463 -0.033494111 89 19
-0.071514189 -0.51049745 -0.043143127 89 18
-0.0079154037 -0.53904849 -0.057714641 93 17
-0.073079795 -0.52009553 -0.068120621 93 16
-0.0076798936 -0.53233796 -0.086737365 96 15
-0.071768694 -0.50574106 -0.13619132 96 13
-0.0075318348 -0.53440875 -0.11441568 97 14
-0.073500633 -0.51402664 -0.1675301 97 12
-0.0063787801 -0.53082597 -0.20058766 96 11
-0.073247865 -0.50209749 -0.25091991 98 9
-0.0059270803 -0.52588445 -0.2306425 97 10
-0.076376691 -0.51710522 -0.29484978 98 8
-0.0038019237 -0.53175783 -0.33629668 95 7
-0.076287001 -0.50652832 -0.36350971 98 6
-0.00183499 -0.52142298 -0.41190404 93 5
-0.078879505 -0.50950623 -0.45952067 100 4
0.00017598993 -0.49263653 -0.48578829 11 3
-0.066704594 -0.42215663 -0.4636637 5 2
0.00099042384 -0.36964875 -0.43949908 7 1
-0.054770343 -0.34333846 -0.44016898 6 0
-0.0081501696 -0.53000891 0.13212627 96 31
-0.0721782 -0.50472629 0.10991233 91 30
-0.008511357 -0.52332008 0.094245501 96 29
-0.072635382 -0.50893062 0.074950904 91 28
-0.0088253971 -0.51376802 0.058467604 95 27
-0.073175356 -0.51251692 0.046148144 92 26
-0.0092833219 -0.53610724 0.034877647 92 25
-0.073788628 -0.51664323 0.022709418 91 24
-0.0092167426 -0.51718801 0.011199208 88 23
-0.071769856 -0.50231409 0 89 22
-0.0095988009 -0.53217942 -0.01154737 89 21
-0.072875828 -0.50920576 -0.022360044 91 20
-0.0094901752 -0.52364379 -0.033839412 87 19
-0.074024931 -0.51517099 -0.043590207 89 18
-0.0096695311 -0.5365358 -0.057430334 90 17
-0.073441051 -0.51003975 -0.066744447 94 16
-0.0093484344 -0.52492166 -0.085449189 95 15
-0.074869767 -0.51500827 -0.13894267 96 13
-0.0093028061 -0.52706915 -0.11274131 98 14
-0.074499831 -0.50910759 -0.16589567 96 12
-0.0082316697 -0.53080052 -0.20058766 96 11
-0.076346658 -0.51056749 -0.25561002 98 9
-0.0077143861 -0.53038734 -0.23276827 97 10
-0.079170965 -0.52317733 -0.29872939 98 8
-0.0055544348 -0.52967197 -0.33489543 95 7
-0.078680359 -0.51018733 -0.36653897 97 6
-0.003660413 -0.52522957 -0.41513467 96 5
-0.080657534 -0.50922781 -0.45952067 100 4
-0.0015490195 -0.49091962 -0.48396885 12 3
-0.068982616 -0.42669988 -0.46938798 5 2
-0.0002877342 -0.37116486 -0.44148776 7 1
-0.055477988 -0.34029064 -0.43609333 6 0
-0.0099660493 -0.52756196 0.13148175 96 31
-0.074303381 -0.50687963 0.11047598 94 30
-0.010374877 -0.52574158 0.094719097 95 29
-0.073675305 -0.50378925 0.074178211 91 28
-0.010697552 -0.51869667 0.059073485 95 27
-0.074222222 -0.50733662 0.045672391 92 26
-0.011154629 -0.5360716 0.034877647 88 25
-0.075591601 -0.51638252 0.022709418 91 24
-0.011063449 -0.51965171 0.011257235 90 23
-0.073895805 -0.50453252 0 90 22
-0.011456395 -0.5321427 -0.01154737 88 21
-0.075025842 -0.51141757 -0.022476502 90 20
-0.011233533 -0.51862019 -0.033494111 90 19
-0.075076357 -0.50998574 -0.043143127 90 18
-0.01158438 -0.53898221 -0.057714641 94 17
-0.076336943 -0.51712453 -0.067776576 93 16
-0.011303198 -0.53227335 -0.086737365 96 15
-0.075209476 -0.50524086 -0.13619132 95 13
-0.011102585 -0.52459687 -0.11218318 97 14
-0.076637119 -0.51117945 -0.1667129 96 12
-0.01008446 -0.53076851 -0.20058766 97 11
-0.077095605 -0.50375485 -0.25209242 98 9
-0.0095361173 -0.52809459 -0.2317054 97 10
-0.080322154 -0.51867217 -0.296143 98 8
-0.0073852334 -0.52757901 -0.33349419 95 7
-0.079181924 -0.50205725 -0.36048046 98 6
-0.0054937839 -0.5252136 -0.41513467 96 5
-0.081838056 -0.50537848 -0.45606562 100 4
-0.0032644351 -0.49605489 -0.48942721 13 3
-0.070197821 -0.42486459 -0.46747988 5 2
-0.0016108388 -0.36510178 -0.43353304 7 1
-0.056915719 -0.34152132 -0.43813115 6 0
-0.011813597 -0.52269173 0.13019273 97 31
-0.076533303 -0.50901079 0.11103964 95 30
-0.012347586 -0.52815437 0.095192693 96 29
-0.075144269 -0.50107485 0.073791869 92 28
-0.012404575 -0.50872952 0.057861723 96 27
-0.075701326 -0.50460166 0.045434512 91 26
-0.013168973 -0.53852063 0.035051167 88 25
-0.077483721 -0.51610196 0.022709418 93 24
-0.013069188 -0.52460527 0.011373288 90 23
-0.076126546 -0.50672895 0 88 22
-0.013458188 -0.53459585 -0.011605397 88 21
-0.076517731 -0.50867128 -0.022360044 90 20
-0.013082934 -0.51608199 -0.033321463 89 19
-0.076945044 -0.50970715 -0.043143127 91 18
-0.013508621 -0.53645283 -0.057430334 94 17
-0.078231782 -0.51684129 -0.067776576 93 16
-0.013154282 -0.52730364 -0.085878581 95 15
-0.077433869 -0.5073362 -0.13687916 96 13
-0.013074162 -0.52698904 -0.11274131 97 14
-0.078140989 -0.50856149 -0.16589567 96 12
-0.012071013 -0.53304529 -0.20152499 97 11
-0.080350466 -0.51218778 -0.25678253 97 9
-0.011471617 -0.52805609 -0.2317054 97 10
-0.081877626 -0.51626277 -0.29484978 98 8
-0.0093445135 -0.52961862 -0.33489543 95 7
-0.08200223 -0.50764936 -0.36502433 99 6
-0.007435069 -0.52709788 -0.41674998 93 5
-0.084604181 -0.51041877 -0.46124819 99 4
-0.005061897 -0.49089599 -0.48396885 12 3
-0.072313882 -0.42778626 -0.47129604 5 2
-0.0029437044 -0.37115332 -0.44148776 7 1
-0.05867799 -0.34416139 -0.4422068 6 0
-0.013638059 -0.52264732 0.13019273 96 31
-0.078309618 -0.50874054 0.11103964 94 30
-0.014136707 -0.5256539 0.094719097 96 29
-0.076892897 -0.50080943 0.073791869 92 28
-0.014351795 -0.51612586 0.058770545 96 27
-0.077850714 -0.50679249 0.045672391 91 26
-0.015048681 -0.5384714 0.035051167 92 25
-0.078894988 -0.51336169 0.02259296 94 24
-0.015018961 -0.52955371 0.011489342 89 23
-0.077113591 -0.50152153 0 88 22
-0.015384386 -0.53704423 -0.011663424 92 21
-0.079074182 -0.51333416 -0.02259296 92 20
-0.014884317 -0.51603317 -0.033321463 91 19
-0.079505399 -0.51435369 -0.043590207 90 18
-0.015321291 -0.53391939 -0.057146024 89 17
-0.07925643 -0.51167434 -0.067088492 90 16
-0.014877927 -0.52233016 -0.08501979 96 15
-0.079204336 -0.50706279 -0.13687916 96 13
-0.014971031 -0.52937639 -0.11329944 98 14
-0.079915725 -0.50828564 -0.16589567 96 12
-0.013882269 -0.5306828 -0.20058766 96 11
-0.081418112 -0.5075472 -0.25443748 98 9
-0.013314807 -0.52801281 -0.2317054 97 10
-0.083679229 -0.51597381 -0.29484978 98 8
-0.011258934 -0.53372306 -0.33769789 94 7
-0.083440006 -0.50539923 -0.36350971 98 6
-0.009228982 -0.52325284 -0.41351935 93 5
-0.08607436 -0.50834024 -0.45952067 100 4
-0.0068011479 -0.4943043 -0.48760772 12 3
-0.073236264 -0.42435139 -0.46747988 5 2
-0.0042313212 -0.36811087 -0.4375104 7 1
-0.060660291 -0.34822831 -0.4483203 7 0
-0.015582072 -0.527426 0.13148175 96 31
-0.079306155 -0.50365549 0.10991233 93 30
-0.015908524 -0.52314746 0.094245501 96 29
-0.079034619 -0.5029763 0.074178211 90 28
-0.016153324 -0.51607263 0.058770545 95 27
-0.0800163 -0.50897443 0.045910265 89 26
-0.016928205 -0.53841555 0.035051167 91 25
-0.07949125 -0.5056873 0.022243585 87 24
-0.016595194 -0.51950443 0.011257235 90 23
-0.079263024 -0.50371724 0 87 22
-0.017190013 -0.53448892 -0.011605397 93 21
-0.080865569 -0.51305497 -0.02259296 90 20
-0.016685519 -0.5159781 -0.033321463 90 19
-0.081300348 -0.51407307 -0.043590207 92 18
-0.017390378 -0.54131114 -0.057998952 92 17
-0.081042014 -0.51139456 -0.067088492 90 16
-0.016768157 -0.52473706 -0.085449189 94 15
-0.080584168 -0.50441152 -0.13619132 96 13
-0.016818807 -0.52932096 -0.11329944 98 14
-0.081303999 -0.50567257 -0.16507845 96 12
-0.015734613 -0.53063107 -0.20058766 96 11
-0.082821831 -0.50508273 -0.25326493 98 9
-0.015050421 -0.52343875 -0.22957964 97 10
-0.084760293 -0.51146042 -0.29226339 98 8
-0.013041692 -0.52954054 -0.33489543 95 7
-0.08622545 -0.51098365 -0.36805359 99 6
-0.011114695 -0.52703315 -0.41674998 96 5
-0.087848276 -0.50803667 -0.45952067 100 4
-0.0084888469 -0.49084866 -0.48396885 12 3
-0.075007841 -0.42568207 -0.46938798 5 2
-0.0054977331 -0.36506394 -0.43353304 7 1
-0.062140863 -0.3494381 -0.45035812 6 0
-0.017423037 -0.52736837 0.13148175 96 31
-0.081859358 -0.50818145 0.11103964 93 30
-0.017663013 -0.52063501 0.093771905 96 29
-0.081594966 -0.50757122 0.074950904 93 28
-0.017954655 -0.51601315 0.058770545 95 27
-0.080981255 -0.50378126 0.045434512 88 26
-0.018580342 -0.53087473 0.034530606 89 25
-0.083290994 -0.51772618 0.022825878 93 24
-0.018408502 -0.51944339 0.011257235 88 23
-0.079389304 -0.49357146 0 88 22
-0.018977989 -0.53192753 -0.01154737 88 21
-0.082655974 -0.51276958 -0.02259296 89 20
-0.018563986 -0.51840955 -0.033494111 87 19
-0.082686342 -0.51132977 -0.043366667 89 18
-0.019048348 -0.53379941 -0.057146024 90 17
-0.083233185 -0.51355118 -0.067432538 94 16
-0.01859973 -0.52467531 -0.085449189 95 15
-0.083140269 -0.50886786 -0.137567 95 13
-0.018666379 -0.52925903 -0.11329944 98 14
-0.08385586 -0.51004499 -0.1667129 96 12
-0.017521244 -0.52825624 -0.19965033 97 11
-0.08420933 -0.50261462 -0.25209242 99 9
-0.017062278 -0.53016895 -0.23276827 96 10
-0.086177982 -0.50905365 -0.29097021 98 8
-0.014890053 -0.52949172 -0.33489543 95 7
-0.087661155 -0.50872117 -0.36653897 99 6
-0.012881722 -0.52317572 -0.41351935 93 5
-0.089944534 -0.50950485 -0.46124819 100 4
-0.010227012 -0.49253041 -0.48578829 12 3
-0.075900681 -0.42224187 -0.46557182 5 2
-0.0068156379 -0.36958724 -0.43949908 7 1
-0.062008381 -0.34210533 -0.44016898 6 0
-0.019187074 -0.52489007 0.13083725 96 31
-0.08485131 -0.5150972 0.1127306 94 30
-0.01948026 -0.52057016 0.093771905 95 29
-0.08336623 -0.50728333 0.074950904 91 28
-0.019755768 -0.51594728 0.058770545 94 27
-0.083153464 -0.5059495 0.045672391 90 26
-0.020348899 -0.52831411 0.034357082 89 25
-0.084266476 -0.51250738 0.02259296 91 24
-0.020221585 -0.51937592 0.011257235 88 23
-0.083194166 -0.50561666 0 88 22
-0.020834647 -0.53185803 -0.01154737 92 21
-0.084861837 -0.5149402 -0.022709418 89 20
-0.02037346 -0.5183416 -0.033494111 91 19
-0.084470704 -0.51103801 -0.043366667 89 18
-0.020911541 -0.53372967 -0.057146024 90 17
-0.084610216 -0.51081634 -0.067088492 93 16
-0.020431075 -0.52460718 -0.085449189 95 15
-0.084509842 -0.50620562 -0.13687916 97 13
