# .PCD v0.7 - Point Cloud Data file format
VERSION 0.7
FIELDS x y z intensity ring
SIZE 4 4 4 4 2
TYPE F F F F U
COUNT 1 1 1 1 1
WIDTH 1240
HEIGHT 1
VIEWPOINT 0 0 0 1 0 0 0
POINTS 1240
DATA ascii
1.1339544 -0.088627875 0 9 22
1.0632578 0.053831644 -0.023907118 36 21
1.1327305 -0.088927701 -0.051358223 10 20
1.0660603 0.053973895 -0.071477123 62 19
1.1015171 0.055651862 -0.12225268 64 17
1.1367778 0.057891715 -0.19236802 8 15
1.0033244 0.048866965 0.18707021 19 29
1.0610484 0.050917611 0.12541756 13 27
1.0412819 0.049564958 0.070102334 9 25
1.0409641 0.049190953 0.023384873 69 23
1.1286395 -0.092365913 0 9 22
1.0684406 0.050180178 -0.024023172 10 21
1.1324131 -0.092881128 -0.051358223 11 20
1.0737239 0.050434329 -0.07199508 38 19
1.1017046 0.051806509 -0.12225268 60 17
1.1369729 0.053923268 -0.19236802 9 15
0.99368107 0.04489674 0.18517582 17 29
1.0587409 0.047097519 0.12511462 14 27
1.0339749 0.045582674 0.069581769 10 25
1.0436262 0.04567213 0.023442902 67 23
1.1183481 -0.09543521 0 9 22
1.0686092 0.046450321 -0.024023172 8 21
1.1246186 -0.096180469 -0.05100885 13 20
1.0763848 0.046800032 -0.072167724 13 19
1.1043601 0.04807407 -0.122537 63 17
0.98647481 0.041102801 0.18375504 16 29
1.061378 0.043508917 0.12541756 12 27
1.039111 0.042187244 0.06992881 10 25
1.0462763 0.042135321 0.023500927 63 23
1.1254774 -0.10001684 0 10 22
1.0787456 0.043330301 -0.024255278 6 21
1.1317372 -0.10078453 -0.051358223 11 20
1.0790335 0.043147773 -0.072340377 9 19
1.1070026 0.044323713 -0.1228213 63 17
0.98415303 0.037731078 0.18328145 16 29
1.0540777 0.039691553 0.12450874 13 27
1.0417372 0.038839977 0.070102334 9 25
1.0563998 0.039058004 0.023733035 55 23
1.1176727 -0.10304529 0 17 22
1.0738956 0.039370008 -0.024139225 6 21
1.1264242 -0.10406779 -0.051125307 11 20
1.0791706 0.039569329 -0.072340377 8 19
1.1046617 0.040555868 -0.122537 61 17
1.0542098 0.036011893 0.12450874 12 27
1.0418665 0.035203401 0.070102334 10 25
1.0490427 0.034918938 0.023558956 34 23
1.1197942 -0.10718917 0 30 22
1.0765241 0.035709713 -0.024197252 6 21
1.1260353 -0.10819566 -0.051125307 13 20
1.0892721 0.036155466 -0.073030978 17 19
1.1023206 0.036419258 -0.12225268 62 17
1.046894 0.031903543 0.12359991 12 27
1.0394958 0.031303585 0.06992881 10 25
1.0616485 0.031658132 0.023849091 24 23
1.1094447 -0.11028387 0 44 22
1.084142 0.032001942 -0.024371332 7 21
1.1331042 -0.11288269 -0.051474687 23 20
1.0794262 0.031845998 -0.072340377 38 19
1.1098887 0.032807875 -0.12310562 60 17
1.0544406 0.028467268 0.12450874 11 27
1.0395988 0.027674876 0.06992881 10 25
1.0592542 0.027880564 0.023791064 17 23
1.1165121 -0.11493855 0 36 22
1.0767472 0.028193345 -0.024197252 7 21
1.0820237 0.028148413 -0.072513029 60 19
1.1099964 0.028933441 -0.12310562 58 17
1.0470868 0.024776876 0.12359991 10 27
1.0471643 0.024419231 0.070449375 10 25
1.059341 0.024367798 0.023791064 10 23
1.111154 -0.11810214 0 32 22
1.0868332 0.024684111 -0.02442936 8 21
1.0746315 0.02437342 -0.07199508 71 19
1.1150522 0.02537637 -0.12367423 39 17
1.0446861 0.021065842 0.12329696 11 27
1.0397631 0.020597966 0.06992881 10 25
1.0644168 0.020778904 0.023907118 9 23
1.1107349 -0.12198007 0 35 22
1.0894115 0.020943854 -0.024487386 9 21
1.0821903 0.020782717 -0.072513029 69 19
1.1250668 0.021697221 -0.12481146 29 17
1.0447532 0.017419079 0.12329696 11 27
1.0522964 0.017201252 0.070796415 9 25
1.0644858 0.016877484 0.023907118 9 23
1.1127858 -0.12614299 0 32 22
1.0819813 0.01700619 -0.024313306 36 21
1.0847499 0.017049873 -0.072685681 71 19
1.1301056 0.017661929 -0.12538008 24 17
1.0373662 0.013475412 0.12238815 11 27
1.0548458 0.01338171 0.070969932 9 25
1.0720356 0.013271552 0.024081198 9 23
1.127211 -0.13199417 0 27 22
1.0870345 0.013111951 -0.02442936 59 21
1.0872989 0.013109644 -0.072858326 70 19
1.1351274 0.013788108 -0.1259487 10 17
1.0324441 0.0097953435 0.12178227 11 27
1.0474049 0.0096133463 0.070449375 10 25
1.082072 0.0096410392 0.024313306 9 23
1.0845728 0.0094796615 -0.024371332 65 21
1.0923258 0.0093681579 -0.073203623 68 19
1.1376524 0.0098525677 -0.12623301 8 17
1.0423969 0.006456472 0.12299403 10 27
1.0524187 0.0061808899 0.070796415 10 25
1.082098 0.0060527059 0.024313306 9 23
1.0845993 0.0056937383 -0.024371332 65 21
1.084869 0.0056896727 -0.072685681 71 19
1.1327113 0.0060426416 -0.1256644 8 17
1.0349684 0.0027801071 0.1220852 11 27
1.0599158 0.0025424832 0.07131698 10 25
1.0821126 0.0022754418 0.024313306 9 23
1.0846125 0.0019077456 -0.024371332 60 21
1.0923643 0.001932773 -0.073203623 68 19
1.1352092 0.0020986747 -0.1259487 8 17
1.0548244 -0.0009855408 0.12450874 10 27
1.0624119 -0.0013397076 0.071490496 10 25
1.0771149 -0.0016942038 0.024197252 9 23
1.0821129 -0.002068443 -0.024313306 44 21
1.092364 -0.0020709548 -0.073203623 64 19
1.1302416 -0.0020638234 -0.12538008 9 17
1.0399249 -0.0046363743 0.12269108 10 27
1.0624007 -0.0050482089 0.071490496 10 25
1.0821012 -0.0054679858 0.024313306 9 23
1.0970961 -0.0057013417 -0.024661468 31 21
1.09235 -0.0058840038 -0.073203623 64 19
1.1302277 -0.0060090907 -0.12538008 8 17
1.0448669 -0.0081117172 0.12329696 10 27
1.0673659 -0.0085999575 0.071837537 10 25
1.082077 -0.0090563325 0.024313306 9 23
1.0945702 -0.0095147453 -0.024603439 23 21
1.0923246 -0.0095063355 -0.073203623 66 19
1.1500714 -0.0098853428 -0.12765455 8 17
1.0473137 -0.011781022 0.12359991 10 27
1.0723172 -0.012371846 0.072184578 9 25
1.084538 -0.012857421 0.024371332 9 23
1.1120248 -0.013509499 -0.02500963 10 21
1.0972725 -0.013368824 -0.073548928 64 19
1.1351278 -0.013751525 -0.1259487 8 17
1.0747614 -0.016146632 0.072358102 9 25
1.0869826 -0.016865516 0.02442936 9 23
1.1144698 -0.017424693 -0.025067655 9 21
1.0997131 -0.017232455 -0.07372158 64 19
1.1499711 -0.018114759 -0.12765455 8 17
1.0722013 -0.020044804 0.072184578 9 25
1.0919151 -0.020743443 0.024545414 9 23
1.1243944 -0.021680303 -0.025299765 9 21
1.0971488 -0.021220334 -0.073548928 64 19
1.0721246 -0.023787364 0.072184578 9 25
1.0918362 -0.024554811 0.024545414 9 23
1.1343116 -0.025612943 -0.025531873 9 21
1.0970681 -0.025049968 -0.073548928 64 19
1.0745333 -0.027400415 0.072358102 9 25
1.08925 -0.02811645 0.024487386 9 23
1.1367137 -0.029632026 -0.0255899 9 21
1.1019655 -0.028807098 -0.073894225 61 19
1.069445 -0.03101789 0.072011061 9 25
1.079146 -0.031836398 0.024255278 9 23
1.1366034 -0.033599716 -0.0255899 9 21
1.0993652 -0.032585166 -0.07372158 42 19
1.0693241 -0.034937393 0.072011061 9 25
1.0840247 -0.035756648 0.024371332 9 23
1.1364791 -0.037566997 -0.0255899 9 21
1.1042241 -0.036769263 -0.074066877 35 19
1.0716949 -0.038567197 0.072184578 9 25
1.0888958 -0.039521299 0.024487386 9 23
1.1438347 -0.041791573 -0.025763981 9 21
1.1040961 -0.040430799 -0.074066877 33 19
1.0590925 -0.041844413 0.07131698 9 25
1.0812587 -0.043040726 0.024313306 9 23
1.1386869 -0.045594782 -0.025647927 9 21
1.1114249 -0.044567872 -0.074584827 30 19
1.0688996 -0.046133209 0.072011061 9 25
1.0960768 -0.047620956 0.024661468 9 23
1.1435063 -0.049975544 -0.025763981 9 21
1.1162379 -0.048848286 -0.074930124 18 19
1.0587659 -0.049421981 0.07131698 9 25
1.1008974 -0.051669948 0.024777522 9 23
1.1333379 -0.053516801 -0.025531873 9 21
1.1185521 -0.052856654 -0.075102776 9 19
1.0834981 -0.054309677 0.07305219 9 25
1.0982139 -0.055392131 0.024719493 9 23
1.1456361 -0.057878714 -0.025822006 9 21
1.1357985 -0.057607558 -0.076311335 9 19
1.1130003 -0.059805397 0.025067655 9 23
1.1354432 -0.061359383 -0.0255899 9 21
1.1306199 -0.061115239 -0.07596603 9 19
1.1152693 -0.064022124 0.025125684 9 23
1.1476997 -0.0660135 -0.025880035 9 21
1.1378702 -0.065475211 -0.07648398 9 19
1.120029 -0.068207711 0.025241738 9 23
1.14745 -0.070219591 -0.025880035 9 21
1.1401124 -0.069792315 -0.076656632 9 19
1.1247731 -0.072427318 0.025357792 9 23
1.1447163 -0.073868647 -0.025822006 9 21
1.1249268 -0.072837234 -0.075620733 9 19
1.1220329 -0.075993337 0.025299765 9 23
1.1494393 -0.078192666 -0.02593806 9 21
1.132145 -0.077059172 -0.076138675 9 19
1.1192534 -0.079932675 0.025241738 9 23
1.1566395 -0.08272361 -0.026112143 9 21
1.1089966 -0.083113894 0.02500963 9 23
1.143865 -0.086051472 -0.025822006 9 21
1.1062076 -0.08679451 0.024951601 8 23
1.1510339 -0.090616405 -0.025996089 9 21
1.1009151 -0.09025795 0.024835547 8 23
1.1457278 -0.094234563 -0.025880035 9 21
1.1255172 -0.095977858 0.025415819 8 23
1.1503904 -0.098449089 -0.025996089 9 21
1.1500397 -0.10246409 -0.025996089 9 21
1.1496564 -0.10667852 -0.025996089 9 21
1.1542732 -0.11095814 -0.026112143 9 21
1.151391 -0.11474402 -0.026054114 8 21
1.1584436 -0.11951625 -0.026228197 8 21
1.1505405 -0.1229802 -0.026054114 8 21
1.1327107 -0.12511219 -0.025647927 9 21
1.1372573 -0.12942229 -0.025763981 10 21
1.1442473 -0.13424915 -0.02593806 8 21
0.90805602 0.52702123 0 7 22
0.89253658 0.51390576 0 39 22
0.90727568 0.51835686 0 27 22
0.90481377 0.51257277 0 27 22
0.91314369 0.51307136 0 28 22
0.91055644 0.50745595 0 26 22
0.90785348 0.50202334 0 23 22
0.90521139 0.49645633 0 17 22
0.93942523 0.51491278 -0.048330303 5 20
0.90262705 0.49075633 0 17 22
0.93471587 0.50790286 -0.047980927 28 20
0.92750508 0.50024039 0.047515094 9 24
0.91094375 0.49114785 0 20 22
0.9254787 0.4987365 -0.047398631 59 20
0.93356758 0.49950907 0.047748011 8 24
0.91036046 0.48694989 0 16 22
0.92712754 0.49566475 -0.047398631 53 20
0.91868788 0.4872694 0 26 22
0.92672902 0.4910987 -0.047282174 53 20
0.92046762 0.48389897 0 28 22
0.92843765 0.48786077 -0.047282174 51 20
0.93439907 0.48724163 0.047515094 4 24
0.91549319 0.47723037 0 30 22
0.93235195 0.48576614 -0.047398631 51 20
0.92499059 0.47826561 0.046932798 39 24
0.92382342 0.47746116 0 28 22
0.93404198 0.48250869 -0.047398631 56 20
0.92434698 0.47406068 0.046816342 36 24
0.9231745 0.47325927 0 29 22
0.9357205 0.47924536 -0.047398631 40 20
0.91939241 0.46728939 0.046466965 37 24
0.9293654 0.47212762 0 28 22
0.9373877 0.47597617 -0.047398631 30 20
0.92325056 0.46519625 0.046583425 35 24
0.92430222 0.46552134 0 29 22
0.93234462 0.46934664 -0.047049258 25 20
0.92039579 0.45974833 0.046350509 37 24
0.9214434 0.46006811 0 30 22
0.93397725 0.46608928 -0.047049258 25 20
0.92191529 0.45669365 0.046350509 37 24
0.92744952 0.4592191 0 29 22
0.93103671 0.46078366 -0.046816342 23 20
0.92358297 0.45331159 0.046350509 35 24
0.93362004 0.45800936 0 28 22
0.93720835 0.45955759 -0.047049258 24 20
0.92291176 0.44899729 0.046234049 42 24
0.93071187 0.45257068 0 27 22
0.94105518 0.45737022 -0.047165714 25 20
0.91546637 0.44145364 0.045768213 48 24
0.9300316 0.44823852 0 29 22
0.93814164 0.45192441 -0.046932798 15 20
0.91918051 0.43948776 0.045884673 48 24
0.92925483 0.44407883 0 25 22
0.94865793 0.45309722 -0.047398631 14 20
0.92070907 0.43627653 0.045884673 51 24
0.93758434 0.44402811 0 28 22
0.93901426 0.44430074 -0.046816342 23 20
0.98608476 0.46603644 -0.094780758 6 18
0.920039 0.43184283 0.045768213 48 24
0.93467444 0.43847486 0 27 22
0.94055945 0.44102028 -0.046816342 24 20
0.97424281 0.45611233 -0.093439519 18 18
0.92607403 0.43072525 0.046001129 38 24
0.93392998 0.43416053 0 29 22
0.94436008 0.43878186 -0.046932798 23 20
0.97122854 0.45079184 -0.09299244 21 18
0.92749727 0.42765191 0.046001129 37 24
0.93081915 0.42897809 0 30 22
0.94353956 0.43460792 -0.046816342 24 20
0.96373886 0.4432559 -0.092098281 16 18
0.91001737 0.41580266 0.092296287 40 26
0.93353176 0.4264774 0.046234049 36 24
0.94141626 0.42986056 0 28 22
0.94967455 0.43321002 -0.047049258 25 20
0.96301234 0.43886131 -0.091874748 15 18
0.91153532 0.4124645 0.092296287 55 26
0.92825621 0.41997948 0.045884673 43 24
0.9384253 0.42435682 0 29 22
0.94662541 0.42784503 -0.046816342 24 20
0.96915776 0.4373678 -0.092321828 14 18
0.91296953 0.40928009 0.092296287 47 26
0.92515451 0.41470364 0.045651756 54 24
0.94218451 0.42209575 0 27 22
0.94811302 0.42453808 -0.046816342 24 20
0.96612799 0.43195897 -0.091874748 15 18
0.91211593 0.40508568 0.092058413 60 26
0.93345016 0.41449744 0.046001129 56 24
0.94136494 0.41779509 0 29 22
0.94958919 0.42122597 -0.046816342 26 20
0.96763003 0.42858389 -0.091874748 15 18
0.91573423 0.40305629 0.092296287 50 26
0.92795581 0.40839675 0.045651756 77 24
0.93816411 0.41266775 0 30 22
0.95334208 0.41890845 -0.046932798 26 20
0.96219957 0.42238453 -0.091204129 16 18
0.91263807 0.39771891 0.091820531 54 26
0.92944646 0.40499288 0.045651756 81 24
0.93508178 0.40723988 0 31 22
0.95021486 0.41359457 -0.046699882 26 20
0.97288412 0.42280588 -0.092098281 14 18
0.92088199 0.39747438 0.092534162 47 26
0.92855948 0.40076149 0.045535296 84 24
0.94109297 0.4059439 0 42 22
0.95394814 0.41125897 -0.046816342 26 20
0.97893232 0.42136672 -0.09254536 10 18
0.91990471 0.39344484 0.092296287 46 26
0.93225116 0.3984943 0.045651756 86 24
0.935601 0.39972469 0 63 22
0.95078039 0.40597501 -0.046583425 25 20
0.97573954 0.41617393 -0.092098281 9 18
0.92127252 0.39023137 0.092296287 47 26
0.93126583 0.39443174 0.045535296 87 24
0.93231279 0.39468074 0 88 22
0.95442337 0.403788 -0.046699882 24 20
0.98636937 0.41662183 -0.09299244 10 18
0.91573787 0.38414037 0.091582656 44 26
0.93494195 0.39213949 0.045651756 34 24
0.93368483 0.39142397 0 88 22
0.91459417 0.53011662 -0.023733035 13 21
0.95589685 0.40028715 -0.046699882 24 20
0.97632205 0.4083958 -0.091874748 12 18
0.91713971 0.38078147 0.091582656 44 26
0.93406451 0.38775766 0.045535296 10 24
0.93511313 0.38799918 0 93 22
0.92302316 0.53051221 -0.023907118 22 21
0.95267075 0.39504477 -0.046466965 23 20
0.97781235 0.40481469 -0.091874748 14 18
1.0001981 0.41362575 -0.14553043 7 16
0.92070103 0.37867957 0.091820531 47 26
0.940036 0.38638362 0.045768213 8 24
0.93183279 0.38284266 0 95 22
0.93128192 0.53117818 -0.024081198 26 21
0.95173168 0.39077333 -0.046350509 23 20
0.97453785 0.39968985 -0.091427661 16 18
0.98321784 0.40283456 -0.14277808 18 16
0.91740334 0.37359643 0.091344781 41 26
0.94825697 0.38607433 0.046117589 8 24
0.91122532 0.51588559 0.023500927 8 23
0.93773252 0.38162518 0 95 22
0.92444038 0.52298152 -0.023849091 30 21
0.95302224 0.38761511 -0.046350509 25 20
0.98054522 0.39814961 -0.091874748 15 18
1.0006938 0.40588203 -0.14518638 15 16
0.92563248 0.37316811 0.092058413 48 26
0.94496244 0.3809047 0.045884673 7 24
0.90005046 0.50517166 0.023152767 18 23
0.94137979 0.37927875 0 96 22
0.93496752 0.52466369 -0.024081198 32 21
0.96834862 0.38968399 -0.047049258 26 20
0.97730446 0.3928766 -0.091427661 17 18
1.0044043 0.40330455 -0.14553043 11 16
0.92699397 0.36977297 0.092058413 54 26
0.94867373 0.37835884 0.046001129 9 24
0.89962757 0.50080597 0.02309474 31 23
0.94276363 0.37582585 0 96 22
0.92597783 0.5151329 -0.023791064 31 21
0.96505928 0.38446283 -0.046816342 26 20
0.98336917 0.39112282 -0.091874748 15 18
1.0058758 0.39962047 -0.14553043 11 16
0.92364562 0.36471722 0.091582656 56 26
0.93836468 0.37048495 0.045418836 9 24
0.90574038 0.50008911 0.023210794 27 23
0.94406974 0.37253276 0 96 22
0.93651241 0.51674742 -0.024023172 29 21
0.96407026 0.38018057 -0.046699882 26 20
0.98936599 0.3895025 -0.092321828 18 18
1.0049582 0.39520535 -0.14518638 11 16
0.90899009 0.35532141 0.1471974 10 28
0.92716968 0.36255342 0.091820531 64 26
0.93499631 0.36539939 0.04518592 10 24
0.90748054 0.49692443 0.023210794 28 23
0.94303375 0.36833057 0 96 22
0.9360314 0.51243377 -0.023965145 23 21
0.96306324 0.37590995 -0.046583425 26 20
0.9860087 0.38442022 -0.091874748 18 18
1.0062633 0.39187059 -0.14518638 10 16
0.89863616 0.3478733 0.14526567 23 28
0.92378378 0.35752866 0.091344781 69 26
0.9431957 0.36498532 0.045535296 10 24
0.90920961 0.49375373 0.023210794 30 23
0.94191635 0.3643046 0 95 22
0.93123317 0.50557059 -0.023791064 17 21
0.96670085 0.37344089 -0.046699882 26 20
0.98269457 0.37919301 -0.091427661 16 18
1.0030003 0.38658416 -0.14449829 10 16
0.91144854 0.34896687 0.1471974 82 28
0.92735219 0.35518682 0.091582656 75 26
0.93285602 0.35708779 0.044953004 10 24
0.90653217 0.4881964 0.02309474 28 23
0.94324517 0.36084986 0 95 22
0.93299222 0.50231689 -0.023791064 16 21
0.9703331 0.370951 -0.046816342 36 20
0.98168427 0.37487707 -0.091204129 17 18
1.0136054 0.38659146 -0.14587446 10 16
0.90797758 0.34420198 0.1464247 97 28
0.92625725 0.35107079 0.091344781 85 26
0.94104648 0.35663202 0.04530238 25 24
0.91263443 0.48739427 0.023210794 26 23
0.94209683 0.35683954 0 96 22
0.93253779 0.4978748 -0.023733035 16 21
0.97395957 0.36844027 -0.046932798 40 20
0.98531789 0.3723233 -0.091427661 16 18
1.0172672 0.38392064 -0.14621851 8 16
0.90923303 0.34087175 0.1464247 97 28
0.92287326 0.34593689 0.090869024 90 26
0.94702804 0.3549231 0.045535296 82 24
0.91433024 0.48420557 0.023210794 25 23
0.94574136 0.35425603 0 95 22
0.9277373 0.49093118 -0.023558956 15 21
0.97289914 0.36416784 -0.046816342 64 20
0.98667586 0.36870942 -0.091427661 15 18
1.0117024 0.37760618 -0.14518638 9 16
0.90809959 0.33684221 0.14603835 96 28
0.92401534 0.34287468 0.090869024 91 26
0.94357443 0.34988895 0.04530238 90 24
0.90938473 0.47750947 0.023036713 26 23
0.95166445 0.35267994 0 96 22
0.93157035 0.48901877 -0.023616981 15 21
0.96478963 0.35732034 -0.046350509 83 20
0.99490458 0.36801243 -0.092098281 14 18
1.0152736 0.37510267 -0.14553043 10 16
0.90921164 0.33382899 0.14603835 96 28
0.92520654 0.33964717 0.090869024 93 26
0.94472945 0.34675801 0.04530238 91 24
0.91539097 0.4768109 0.023152767 26 23
0.94813085 0.34781039 0 95 22
0.92884314 0.48344588 -0.023500927 16 21
0.96596926 0.35411903 -0.046350509 89 20
0.98916274 0.36198488 -0.091427661 17 18
1.0142492 0.37071109 -0.14518638 10 16
0.91501838 0.33232898 0.14681105 96 28
0.92872757 0.33725974 0.091106899 90 26
0.94358492 0.34261101 0.04518592 93 24
0.91713244 0.47345263 0.023152767 26 23
0.94933915 0.34449869 0 95 22
0.93052506 0.48020065 -0.023500927 15 21
0.9649111 0.34973028 -0.046234049 92 20
0.9927634 0.3593725 -0.091651201 17 18
1.0201979 0.36884275 -0.14587446 11 16
0.91157722 0.32731429 0.14603835 96 28
0.9323017 0.33468917 0.091344781 29 26
0.94953889 0.34082738 0.045418836 89 24
0.91655737 0.46910441 0.02309474 24 23
0.9482404 0.34017786 0 95 22
0.92783374 0.47450042 -0.023384873 16 21
0.96612597 0.34635997 -0.046234049 95 20
0.99642015 0.35656548 -0.091874748 15 18
1.0075421 0.36012936 -0.1438102 10 16
0.91737306 0.32577279 0.14681105 88 28
0.93111718 0.33060533 0.091106899 13 26
0.95072281 0.33751079 0.045418836 90 24
0.9204154 0.46703836 0.023152767 23 23
0.94706416 0.33603501 0 95 22
0.93393743 0.47352973 -0.023500927 15 21
0.96497351 0.3421559 -0.046117589 94 20
0.99530959 0.35225928 -0.091651201 16 18
1.0134658 0.35825112 -0.14449829 10 16
0.91384006 0.32094234 0.14603835 88 28
0.93925774 0.3299748 0.091820531 8 26
0.94717896 0.33254591 0.04518592 90 24
0.92203999 0.46382266 0.023152767 25 23
0.95295298 0.33437222 0 94 22
0.93773288 0.47155815 -0.023558956 15 21
0.96852046 0.33960676 -0.046234049 92 20
0.94257617 0.47379464 -0.070613876 8 19
0.99176866 0.34732068 -0.091204129 16 18
1.0193262 0.35651377 -0.14518638 11 16
0.91723424 0.31871557 0.1464247 84 28
0.93805128 0.32588273 0.091582656 8 26
0.95535892 0.33184594 0.045535296 39 24
0.91687155 0.45739937 0.022978684 26 23
0.95642006 0.33202502 0 93 22
0.93713897 0.46716169 -0.023500927 16 21
0.96964133 0.33639318 -0.046234049 94 20
0.93522424 0.46619478 -0.069923274 11 19
0.99532962 0.34466645 -0.091427661 16 18
1.0135391 0.35053992 -0.14415425 13 16
0.91834122 0.31551188 0.1464247 88 28
0.94624949 0.32501608 0.092296287 8 26
0.90078026 0.44578427 0.067499526 16 25
0.95178419 0.32689705 0.04530238 10 24
0.92077982 0.45514867 0.023036713 26 23
0.95520687 0.32787797 0 95 22
0.93652588 0.46277514 -0.023442902 15 21
0.98032391 0.33605611 -0.046699882 60 20
0.93907928 0.46403757 -0.070095927 15 19
0.99416929 0.34038842 -0.091204129 18 18
1.0217904 0.34938893 -0.14518638 11 16
0.91481006 0.3105666 0.14565201 81 28
0.9380008 0.3183673 0.091344781 8 26
0.91135436 0.44689351 0.068193607 32 25
0.96007568 0.32579848 0.045651756 8 24
0.92236304 0.45193177 0.023036713 24 23
0.95166361 0.32277915 0 95 22
0.93597353 0.45823523 -0.023384873 16 21
0.98622459 0.33422512 -0.046932798 14 20
0.94301111 0.46169445 -0.070268571 13 19
1.0001309 0.33832827 -0.091651201 20 18
1.0160215 0.34327829 -0.14415425 13 16
0.91823196 0.30815187 0.14603835 85 28
0.94141245 0.3160418 0.091582656 8 26
0.90842789 0.44151831 0.067846566 34 25
0.95883769 0.32165608 0.045535296 8 24
0.92168921 0.44761214 0.022978684 26 23
0.95752865 0.32103431 0 77 22
0.94422543 0.45841935 -0.023558956 18 21
0.98738527 0.33078054 -0.046932798 10 20
0.94237584 0.45730579 -0.070095927 13 19
1.0059732 0.3365801 -0.092098281 34 18
1.0218545 0.34146711 -0.14484234 12 16
0.92394078 0.30665055 0.14681105 86 28
0.94487357 0.31353223 0.091820531 8 26
0.91437513 0.44067985 0.068193607 34 25
0.96701491 0.32081836 0.045884673 8 24
0.91867006 0.44237378 0.02286263 26 23
0.9633373 0.31942064 0 19 22
0.94806939 0.45620951 -0.023616981 19 21
0.99084902 0.32828483 -0.047049258 10 20
0.94837683 0.45635158 -0.070441224 11 19
1.0071419 0.33306655 -0.092098281 37 18
1.0159816 0.33558276 -0.1438102 13 16
0.92500561 0.30342352 0.14681105 83 28
0.95069516 0.31177264 0.092296287 7 26
0.91365993 0.436405 0.068020083 33 25
0.96812892 0.3174409 0.045884673 9 24
0.92479169 0.44116667 0.022978684 27 23
0.96920115 0.31760275 0 53 22
0.94965607 0.45289734 -0.023616981 21 21
0.98254538 0.32156423 -0.046583425 10 20
0.94321799 0.44980186 -0.069923274 12 19
1.0059302 0.32878035 -0.091874748 45 18
1.0289246 0.33585203 -0.14553043 11 16
0.91670561 0.29700771 0.14526567 82 28
0.94472373 0.30600134 0.091582656 8 26
0.91525334 0.43305334 0.068020083 33 25
0.97166336 0.31465465 0.046001129 9 24
0.92406911 0.43686223 0.022920657 36 23
0.96083796 0.31098968 0 95 22
0.95582438 0.45155933 -0.023733035 19 21
0.9812842 0.3173691 -0.046466965 38 20
0.94486028 0.44634175 -0.069923274 11 19
1.002386 0.32357132 -0.091427661 78 18
1.0301487 0.33207858 -0.14553043 12 16
0.92009091 0.29455367 0.14565201 77 28
0.94815803 0.30345508 0.091820531 8 26
0.91450393 0.42879164 0.067846566 33 25
0.97275585 0.31126103 0.046001129 10 24
0.92558837 0.43363398 0.022920657 38 23
0.96191764 0.30763385 0 95 22
0.9551338 0.44715524 -0.02367501 19 21
0.97762525 0.31243166 -0.046234049 90 20
0.94415629 0.44197819 -0.069750629 10 19
1.0011356 0.31931874 -0.091204129 84 18
1.0360235 0.32997403 -0.14621851 10 16
0.91875678 0.29060072 0.14526567 76 28
0.94915909 0.30030921 0.091820531 10 26
0.91599512 0.42559683 0.067846566 33 25
0.9666881 0.30562067 0.045651756 10 24
0.92936075 0.43145826 0.022978684 34 23
0.96537107 0.30502227 0 95 22
0.94981754 0.44081309 -0.023500927 19 21
0.98347592 0.31051078 -0.046466965 93 20
0.94343328 0.43762496 -0.06957797 11 19
1.0069416 0.31748468 -0.091651201 86 18
1.0300217 0.32432005 -0.14518638 13 16
0.91735631 0.28682077 0.14487933 77 28
0.94544768 0.29551986 0.091344781 9 26
0.9219268 0.42465466 0.068193607 32 25
0.97246677 0.30389279 0.045884673 32 24
0.93086118 0.42821157 0.022978684 36 23
0.96637732 0.30181932 0 95 22
0.95135051 0.4374949 -0.023500927 19 21
0.97978258 0.305599 -0.046234049 95 20
0.94261593 0.43344674 -0.069405325 13 19
1.0032859 0.31249687 -0.091204129 90 18
1.0429775 0.3243756 -0.1469066 10 16
0.92312497 0.28490251 0.14565201 78 28
0.94176507 0.29059574 0.090869024 9 26
0.91667753 0.41815108 0.067673042 31 25
0.96402234 0.29740262 0.045418836 88 24
0.92099148 0.41974962 0.022688551 51 23
0.96269572 0.29681265 0 95 22
0.95067543 0.43296388 -0.023442902 19 21
0.98323143 0.30290714 -0.046350509 96 20
0.95100009 0.43310598 -0.069923274 14 19
1.0020429 0.30809078 -0.090980582 90 18
1.0394222 0.31910691 -0.14621851 11 16
0.91181326 0.27763155 0.21249717 36 30
0.91938519 0.28024903 0.14487933 82 28
0.95230246 0.29018715 0.091820531 8 26
0.92040163 0.41598138 0.067846566 31 25
0.96505463 0.29403573 0.045418836 92 24
0.92472643 0.41756624 0.022746576 61 23
0.96611911 0.29417339 0 95 22
0.9590081 0.43274257 -0.023616981 17 21
0.98189217 0.29875144 -0.046234049 95 20
0.94796431 0.42772153 -0.06957797 14 19
1.0054964 0.30530956 -0.091204129 88 18
1.0405297 0.31547672 -0.14621851 13 16
0.91511095 0.27514288 0.21306083 37 30
0.92272466 0.27774456 0.14526567 86 28
0.95569432 0.28757301 0.092058413 8 26
0.91957444 0.41174135 0.067673042 31 25
0.96128917 0.28923669 0.04518592 93 24
0.92389941 0.41330972 0.022688551 64 23
0.96953583 0.29151386 0 95 22
0.95823359 0.42836708 -0.023558956 18 21
0.98532218 0.29603559 -0.046350509 95 20
0.95627517 0.42747942 -0.070095927 13 19
1.0065559 0.30179787 -0.091204129 84 18
0.98192894 0.43901277 -0.1191253 7 17
1.0345036 0.30972657 -0.14518638 12 16
0.90199983 0.26797819 0.20967892 77 30
0.9189024 0.27328593 0.14449298 87 28
0.9470945 0.28158665 0.091106899 20 26
0.92321175 0.4097068 0.067846566 30 25
0.96463835 0.28675371 0.04530238 93 24
0.92526495 0.41024369 0.022688551 69 23
0.96809906 0.28759047 0 95 22
0.95280063 0.4221338 -0.023384873 19 21
0.98390293 0.29206103 -0.046234049 95 20
0.95085371 0.42125908 -0.06957797 12 19
1.0027733 0.29705396 -0.09075705 73 18
0.9833793 0.43575415 -0.1191253 9 17
1.037901 0.30699185 -0.14553043 12 16
0.91228497 0.26754773 0.21193352 104 30
0.92933691 0.27283803 0.14603835 87 28
0.94807172 0.27827895 0.091106899 83 26
0.92007506 0.40446329 0.067499526 30 25
0.96323574 0.28268674 0.04518592 93 24
0.93133456 0.40887001 0.022804603 71 23
0.96909714 0.2842094 0 95 22
0.95655459 0.41981512 -0.023442902 19 21
0.98736489 0.28914958 -0.046350509 93 20
0.95688123 0.41995272 -0.069923274 12 19
1.0061954 0.29424566 -0.090980582 19 18
0.98951429 0.43415317 -0.11969391 10 17
1.0342095 0.30198866 -0.14484234 14 16
0.90857685 0.26285955 0.21080622 107 30
0.92320853 0.2673851 0.14487933 76 28
0.95626128 0.27686262 0.091820531 50 26
0.91698259 0.39908662 0.067152485 32 25
0.96666563 0.27984363 0.04530238 91 24
0.92588729 0.40260997 0.022630524 70 23
0.97013229 0.28065559 0 92 22
0.96037686 0.41730779 -0.023500927 18 21
0.98356706 0.28432459 -0.046117589 93 20
0.95841396 0.41644278 -0.069923274 13 19
1.0168428 0.29329613 -0.091874748 8 18
0.98192102 0.42671585 -0.11855669 10 17
1.0353096 0.29819605 -0.14484234 14 16
0.91886336 0.26233909 0.21306083 104 30
0.92175984 0.26348752 0.14449298 28 28
0.90017819 0.38835475 0.11542051 20 27
0.95003873 0.27148765 0.091106899 15 26
0.9252336 0.39886197 0.067673042 34 25
0.97003925 0.2771484 0.045418836 89 24
0.92958009 0.40036973 0.022688551 69 23
0.97351146 0.27794859 0 93 22
0.95953423 0.41295946 -0.023442902 19 21
0.98935944 0.28224948 -0.046350509 94 20
0.96215045 0.41408604 -0.070095927 14 19
1.0250492 0.29177508 -0.09254536 7 18
0.99252111 0.42723456 -0.11969391 9 17
1.0291942 0.29256386 -0.1438102 25 16
0.9127357 0.2571651 0.21136987 104 30
0.9250527 0.26093343 0.14487933 9 28
0.90380788 0.38619095 0.11572345 39 27
0.96291697 0.27168819 0.092296287 7 26
0.92432892 0.39464498 0.067499526 37 25
0.9661907 0.27241585 0.04518592 90 24
0.92637891 0.3951501 0.022572497 69 23
0.96966016 0.27320328 0 95 22
0.95400822 0.40681791 -0.023268819 17 21
0.99033868 0.27879426 -0.046350509 87 20
0.95671391 0.40777507 -0.06957797 15 19
1.0380036 0.29171813 -0.093663067 6 18
0.99172372 0.42278814 -0.1194096 9 17
1.0373151 0.29114205 -0.14484234 35 16
0.92297572 0.25672579 0.21362448 104 30
0.93067479 0.2591787 0.14565201 7 28
0.90964913 0.38513815 0.11632933 46 27
0.95666265 0.26633897 0.091582656 7 26
0.92104352 0.38962308 0.067152485 42 25
0.97431058 0.27120364 0.045535296 52 24
0.9414829 0.39794737 0.022920657 37 23
0.97297084 0.27065098 0 95 22
0.96232295 0.40641865 -0.023442902 18 21
0.99848026 0.27749944 -0.046699882 27 20
0.96265137 0.40655166 -0.069923274 14 19
1.0414163 0.28875339 -0.093886599 6 18
0.99540615 0.42046884 -0.11969391 9 17
1.0239985 0.28358394 -0.14277808 37 16
0.921516 0.25286341 0.21306083 104 30
0.93157381 0.25592846 0.14565201 6 28
0.89955723 0.37713435 0.11481462 57 27
0.9599877 0.2636517 0.091820531 6 26
0.92239797 0.38640565 0.067152485 53 25
0.97525132 0.26780102 0.045535296 14 24
0.93832844 0.39255372 0.022804603 11 23
0.97390968 0.26725304 0 95 22
0.9637357 0.40305701 -0.023442902 18 21
0.99467081 0.27252844 -0.046466965 10 20
0.95946735 0.40125352 -0.06957797 12 19
1.0376117 0.2838124 -0.093439519 6 18
0.99236184 0.41489103 -0.1191253 9 17
1.0321523 0.28195047 -0.1438102 62 16
0.91537869 0.24759302 0.21136987 104 30
0.94204789 0.25507277 0.1471974 7 28
0.9032231 0.37479162 0.11511756 58 27
0.96094757 0.26013139 0.091820531 6 26
0.91690361 0.3801398 0.066631921 64 25
0.98346221 0.26616627 0.045884673 9 24
0.94661313 0.39216223 0.022978684 9 23
0.97246796 0.26303425 0 96 22
0.96520656 0.39952207 -0.023442902 22 21
0.99320382 0.26840839 -0.046350509 10 20
0.95632726 0.3958157 -0.069232672 13 19
1.0410504 0.28065068 -0.093663067 7 18
0.99838948 0.41333514 -0.11969391 9 17
1.0283939 0.27688795 -0.14312212 79 16
0.92330182 0.24626276 0.21306083 104 30
0.9381569 0.25051934 0.1464247 7 28
0.90681881 0.37258536 0.11542051 57 27
0.95218188 0.25439543 0.090869024 7 26
0.92052978 0.37788966 0.066805445 72 25
0.97955686 0.26145419 0.045651756 9 24
0.94335616 0.38694748 0.02286263 7 23
0.97579712 0.26027709 0 72 22
0.96190566 0.39441189 -0.023326848 30 21
0.99654919 0.2655777 -0.046466965 9 20
0.96231407 0.3943775 -0.06957797 12 19
1.0467906 0.27846733 -0.094110139 8 18
0.9929381 0.40700573 -0.11884099 9 17
1.0317011 0.27410707 -0.14346617 80 16
0.92411339 0.24319962 0.21306083 104 30
0.94376224 0.2486546 0.1471974 8 28
0.91034549 0.37051743 0.11572345 54 27
0.96269596 0.25358447 0.091820531 6 26
0.9240858 0.37578017 0.066978961 73 25
0.98525107 0.25946596 0.045884673 9 24
0.94000763 0.3819243 0.022746576 7 23
0.97181678 0.25577778 0 82 22
0.96096289 0.39010617 -0.023268819 36 21
0.99742436 0.26227158 -0.046466965 10 20
0.95669073 0.38835356 -0.069060028 12 19
1.0308876 0.27042398 -0.09254536 8 18
1.0057782 0.40840918 -0.12026253 9 17
1.0326515 0.27050406 -0.14346617 80 16
0.92259765 0.23936625 0.21249717 102 30
0.94462448 0.24535875 0.1471974 9 28
0.90473509 0.36453778 0.11481462 56 27
0.96598542 0.25084266 0.092058413 7 26
0.92539185 0.37255219 0.066978961 75 25
0.98373234 0.25540289 0.045768213 9 24
0.94835126 0.38129011 0.022920657 7 23
0.97754622 0.25362909 0 95 22
0.96000201 0.38581195 -0.023210794 49 21
1.0032166 0.25985619 -0.046699882 14 20
0.96497619 0.38781816 -0.06957797 10 19
1.0342374 0.26744226 -0.092768908 8 18
0.99805784 0.40099511 -0.1191253 9 17
1.0311906 0.26628363 -0.14312212 84 16
0.92583001 0.23658064 0.21306083 102 30
0.94072878 0.24068141 0.1464247 8 28
0.91067076 0.36306891 0.11542051 52 27
0.96689832 0.24730045 0.092058413 7 26
0.92443645 0.36822936 0.066805445 76 25
0.97982025 0.25056875 0.045535296 9 24
0.94503653 0.37611783 0.022804603 7 23
0.98089266 0.25065821 0 95 22
0.95676911 0.38043287 -0.02309474 64 21
0.99927562 0.25512752 -0.046466965 70 20
0.97102183 0.38613275 -0.069923274 10 19
1.0231395 0.26060203 -0.091651201 8 18
0.99253404 0.39473918 -0.11827236 9 17
1.0345608 0.26310772 -0.14346617 82 16
0.92665017 0.23334746 0.21306083 100 30
0.9487524 0.23919131 0.14758374 8 28
0.90962654 0.35897112 0.11511756 56 27
0.96771312 0.24409275 0.092058413 8 26
0.92339832 0.36407971 0.066631921 76 25
0.978266 0.24654198 0.045418836 10 24
0.9463436 0.37281677 0.022804603 8 23
0.98418725 0.24783795 0 96 22
0.95570207 0.37633672 -0.023036713 71 21
0.99531388 0.25042957 -0.046234049 95 20
0.97468245 0.38365987 -0.070095927 10 19
1.0288305 0.25841084 -0.092098281 8 18
1.003142 0.39493275 -0.1194096 9 17
1.0330244 0.25907812 -0.14312212 81 16
0.92505372 0.22969189 0.21249717 100 30
0.94954038 0.23604383 0.14758374 8 28
0.90850288 0.35504362 0.11481462 59 27
0.97097576 0.2413082 0.092296287 9 26
0.9246006 0.36101562 0.066631921 78 25
0.98635292 0.24508746 0.045768213 36 24
0.9405961 0.3669346 0.022630524 8 23
0.98257613 0.24397573 0 96 22
0.95933646 0.37391156 -0.02309474 73 21
1.0009891 0.24831982 -0.046466965 96 20
0.96666288 0.37678066 -0.069405325 11 19
1.027308 0.2542249 -0.091874748 30 18
0.99982208 0.38978907 -0.11884099 10 17
1.0315174 0.25488165 -0.14277808 82 16
0.92821705 0.22703458 0.21306083 99 30
0.94795811 0.2321458 0.1471974 13 28
0.91204888 0.35277122 0.11511756 55 27
0.96697503 0.23674448 0.091820531 9 26
0.92585516 0.35778594 0.066631921 79 25
0.97992152 0.23987749 0.045418836 89 24
0.94426417 0.36439013 0.022688551 8 23
0.98342174 0.24054439 0 96 22
0.96296549 0.37146559 -0.023152767 72 21
1.0018924 0.24464934 -0.046466965 96 20
0.9633227 0.37159783 -0.069060028 11 19
1.020928 0.2488834 -0.091204129 79 18
1.0035594 0.38702092 -0.1191253 9 17
1.0420296 0.25360176 -0.14415425 68 16
0.93141228 0.22419542 0.21362448 98 30
0.95360774 0.22981632 0.14797008 8 28
0.9156512 0.35031855 0.11542051 49 27
0.97267765 0.23435391 0.092296287 8 26
0.92716026 0.35439011 0.066631921 79 25
0.97836506 0.23570471 0.04530238 91 24
0.95252854 0.36378372 0.02286263 18 23
0.98672861 0.23751816 0 96 22
0.96432054 0.36793369 -0.023152767 70 21
1.000311 0.24057184 -0.046350509 95 20
0.96933436 0.36985379 -0.069405325 11 19
1.0242558 0.24571559 -0.091427661 83 18
1.0072227 0.38440639 -0.1194096 9 17
1.0453614 0.25035256 -0.14449829 10 16
0.92744666 0.21983047 0.21249717 97 30
0.94478601 0.22422677 0.1464247 8 28
0.91454989 0.34623578 0.11511756 55 27
0.96622169 0.22924984 0.091582656 8 26
0.92606121 0.35026354 0.066458404 80 25
0.98161292 0.23285922 0.045418836 91 24
0.94211346 0.35601076 0.022572497 45 23
0.98755175 0.23407237 0 96 22
0.965599 0.36456534 -0.023152767 68 21
1.0011446 0.23707864 -0.046350509 95 20
0.96828818 0.36558142 -0.069232672 11 19
1.0251071 0.24213879 -0.091427661 80 18
1.0062368 0.38000539 -0.1191253 9 17
1.0486403 0.24726541 -0.14484234 6 16
0.92820835 0.21659173 0.21249717 98 30
0.94075006 0.21981457 0.14565201 8 28
0.91575295 0.3430413 0.11511756 58 27
0.96940112 0.22660553 0.091820531 23 26
0.93427896 0.34966859 0.066978961 81 25
0.98241979 0.22943135 0.045418836 91 24
0.94568938 0.35360098 0.022630524 65 23
0.98592693 0.23006096 0 96 22
0.96446359 0.36048073 -0.02309474 69 21
1.0019661 0.23358256 -0.046350509 95 20
0.96489006 0.36044264 -0.068887375 12 19
1.0380363 0.24153447 -0.09254536 30 18
1.0122066 0.37824008 -0.11969391 9 17
1.0518675 0.24434197 -0.14518638 6 16
1.0245754 0.38328266 -0.18463893 9 15
0.93367147 0.21459253 0.21362448 98 30
0.95110697 0.21888761 0.1471974 8 28
0.9168855 0.34000266 0.11511756 54 27
0.96533316 0.22211507 0.091344781 82 26
0.93076032 0.34482414 0.066631921 79 25
0.98561019 0.2267268 0.045535296 89 24
0.94457597 0.34942493 0.022572497 69 23
0.98668444 0.22679023 0 95 22
0.9633739 0.3562395 -0.023036713 63 21
1.0052106 0.23063689 -0.046466965 93 20
0.97542852 0.36072323 -0.06957797 13 19
1.0340166 0.23680797 -0.092098281 8 18
1.0111928 0.37383789 -0.1194096 9 17
1.0502989 0.24012187 -0.14484234 6 16
1.0028292 0.37110293 -0.18034501 10 15
0.92732078 0.20957507 0.21193352 96 30
0.94467199 0.21378122 0.14603835 26 28
0.91812551 0.33663982 0.11511756 56 27
0.96128368 0.21748798 0.090869024 90 26
0.93435758 0.34227401 0.066805445 76 25
0.98156065 0.22202161 0.04530238 91 24
0.9481349 0.34699029 0.022630524 70 23
0.98994875 0.22371814 0 96 22
0.97405422 0.35616145 -0.023268819 35 21
1.0060096 0.22712664 -0.046466965 91 20
0.97908449 0.3580077 -0.069750629 18 19
1.0518898 0.23680982 -0.093663067 7 18
1.017153 0.37202284 -0.11997822 9 17
1.053589 0.23680876 -0.14518638 5 16
1.0272262 0.37612048 -0.18463893 10 15
0.92328912 0.20529081 0.21080622 95 30
0.9502368 0.21154487 0.14681105 63 28
0.91696423 0.33258089 0.11481462 57 27
0.96689785 0.21520166 0.091344781 81 26
0.933204 0.33815497 0.066631921 77 25
0.98476845 0.21913107 0.045418836 91 24
0.94934034 0.34367859 0.022630524 69 23
0.98584044 0.21918666 0 95 22
0.970595 0.3510479 -0.023152767 10 21
1.0092353 0.22414988 -0.046583425 89 20
0.97798479 0.35373402 -0.06957797 27 19
1.0502777 0.23260318 -0.093439519 6 18
1.0091107 0.36506879 -0.11884099 10 17
1.0544093 0.23312961 -0.14518638 5 16
1.0285329 0.37253252 -0.18463893 9 15
0.9287613 0.20309609 0.21193352 92 30
0.94855541 0.20770383 0.1464247 38 28
0.92045325 0.33022192 0.11511756 61 27
0.96517396 0.21146694 0.091106899 27 26
0.93672431 0.33574268 0.066805445 74 25
0.9855274 0.21569227 0.045418836 90 24
0.94348133 0.33781788 0.022456443 60 23
0.99148643 0.21680158 0 95 22
0.97175372 0.34782737 -0.023152767 8 21
1.0124525 0.22115335 -0.046699882 48 20
0.98859876 0.35370067 -0.070268571 30 19
1.0510433 0.22911906 -0.093439519 6 18
1.0150521 0.36322838 -0.1194096 10 17
1.0648592 0.23171817 -0.14656255 5 16
1.0275104 0.36810413 -0.18420956 9 15
0.92942971 0.2000151 0.21193352 87 30
0.90935153 0.3236737 0.17949268 9 29
0.95648617 0.20610157 0.14758374 16 28
0.9215433 0.32716778 0.11511756 67 27
0.97320825 0.20965266 0.091820531 9 26
0.93783253 0.33263457 0.066805445 75 25
0.99112213 0.21346393 0.045651756 86 24
0.95407045 0.33788264 0.022688551 29 23
0.98975474 0.21299186 0 96 22
0.98708636 0.349471 -0.023500927 6 21
1.0107756 0.21709867 -0.046583425 11 20
0.98271906 0.34790683 -0.069750629 39 19
1.0469651 0.22441515 -0.09299244 6 18
1.0116348 0.35801503 -0.11884099 10 17
1.0583942 0.22646029 -0.14553043 5 16
1.0264693 0.3636874 -0.18378015 9 15
0.92538828 0.19561107 0.21080622 89 30
0.89896417 0.31623545 0.17712471 20 29
0.95239991 0.20158258 0.14681105 7 28
0.9180572 0.32213289 0.11451168 70 27
0.98858547 0.20914286 0.093247794 6 26
0.93904543 0.32919496 0.066805445 73 25
0.98945355 0.20931831 0.045535296 63 24
0.95995772 0.33621392 0.022804603 9 23
0.99297583 0.20987447 0 96 22
0.98836064 0.34585083 -0.023500927 6 21
1.0139717 0.21407977 -0.046699882 9 20
0.9769311 0.34181491 -0.069232672 52 19
1.0575311 0.22260797 -0.093886599 6 18
1.010536 0.35365576 -0.11855669 10 17
1.0592171 0.22257957 -0.14553043 5 16
1.0347 0.3625612 -0.18506834 9 15
0.92367953 0.19188993 0.21024257 85 30
0.90469533 0.31472066 0.1780719 81 29
0.96277517 0.20024689 0.14835642 6 28
0.91917598 0.3189263 0.11451168 72 27
0.98443419 0.20468827 0.092772037 6 26
0.94018883 0.3259151 0.066805445 72 25
0.9950704 0.20686921 0.045768213 15 24
0.9587658 0.33203736 0.022746576 8 23
0.99615127 0.20691018 0 96 22
0.99664187 0.34486699 -0.02367501 6 21
1.0220516 0.21204549 -0.047049258 9 20
0.97811824 0.33840269 -0.069232672 64 19
1.0583018 0.21891515 -0.093886599 7 18
1.0188001 0.35257909 -0.1194096 9 17
1.0575614 0.21838503 -0.14518638 7 16
1.0243329 0.35488933 -0.18292136 9 15
0.92911887 0.18962735 0.21136987 83 30
0.90346926 0.31075633 0.17759831 96 29
0.96346837 0.19688495 0.14835642 5 28
0.92028362 0.31571582 0.11451168 76 27
0.98998612 0.202409 0.093247794 6 26
0.94132078 0.32263124 0.066805445 71 25
0.99333853 0.20290005 0.045651756 9 24
0.95755637 0.32787329 0.022688551 6 23
0.99686742 0.20343171 0 74 22
0.99069184 0.33911529 -0.023500927 6 21
1.0178895 0.20748937 -0.046816342 9 20
0.97693586 0.33417359 -0.069060028 67 19
1.0590219 0.2154045 -0.093886599 8 18
1.0129803 0.34659234 -0.11855669 9 17
1.0607076 0.21536461 -0.14553043 6 16
1.0348778 0.35452539 -0.18463893 8 15
0.92496425 0.18559822 0.21024257 78 30
0.90449482 0.30775863 0.17759831 97 29
0.96653855 0.19416991 0.14874277 7 28
0.92132556 0.3126623 0.11451168 76 27
0.98580468 0.19798274 0.092772037 6 26
0.94474542 0.32031456 0.066978961 45 25
0.99155653 0.19911857 0.045535296 9 24
0.96573424 0.32711866 0.02286263 7 23
1.0073454 0.20207062 0 52 22
0.98713833 0.33404168 -0.023384873 6 21
1.0210216 0.20459825 -0.046932798 9 20
0.98039907 0.33173707 -0.069232672 70 19
1.0548818 0.21074094 -0.093439519 8 18
1.014124 0.34323126 -0.11855669 9 17
1.0663117 0.21261927 -0.14621851 6 16
1.0267248 0.34790877 -0.18292136 9 15
0.92321563 0.18190321 0.20967892 80 30
0.90323889 0.30381081 0.17712471 98 29
0.95993745 0.1893772 0.14758374 7 28
0.92946339 0.31183001 0.11542051 53 27
0.99137509 0.19549271 0.093247794 6 26
0.94822049 0.31781316 0.067152485 19 25
1.0020502 0.19756731 0.046001129 9 24
0.96929497 0.32437572 0.022920657 6 23
0.99822903 0.19664158 0 87 22
0.99303514 0.33219075 -0.023500927 6 21
1.0266675 0.20180766 -0.047165714 10 20
0.97682446 0.32671937 -0.068887375 72 19
1.0604999 0.20800593 -0.093886599 8 18
1.0130213 0.33871895 -0.11827236 9 17
1.0573231 0.20701271 -0.14484234 7 16
1.0326604 0.34571764 -0.18378015 9 15
0.93105364 0.17988743 0.21136987 75 30
0.90434635 0.30049822 0.17712471 97 29
0.96790326 0.18724859 0.14874277 8 28
0.92353934 0.30606148 0.11451168 30 27
0.98230731 0.18998912 0.092296287 7 26
0.95411021 0.31591502 0.067499526 10 25
0.99786174 0.1929557 0.045768213 9 24
0.97279227 0.3217808 0.022978684 7 23
0.99894303 0.19298157 0 95 22
0.98950344 0.32696936 -0.023384873 6 21
1.0200064 0.19681886 -0.046816342 39 20
0.97801542 0.32313696 -0.068887375 68 19
1.0514706 0.20225644 -0.09299244 8 18
1.0189106 0.33675042 -0.11884099 9 17
1.0629404 0.20405978 -0.14553043 6 16
1.029188 0.34055284 -0.18292136 9 15
0.93885809 0.17798045 0.21306083 90 30
0.90538979 0.29733965 0.17712471 97 29
0.96369565 0.18295842 0.14797008 8 28
0.92224568 0.3020575 0.11420874 21 27
0.98296452 0.18655907 0.092296287 8 26
0.95047039 0.31101978 0.067152485 16 25
1.0108018 0.19177252 0.046350509 10 24
0.98103082 0.32073003 0.023152767 7 23
0.9996106 0.18949345 0 96 22
0.99776083 0.32585776 -0.023558956 7 21
1.0182327 0.19279779 -0.046699882 88 20
0.98150635 0.32050088 -0.069060028 72 19
1.0521702 0.19858488 -0.09299244 8 18
1.0130022 0.33086196 -0.11798806 9 17
1.0587775 0.19944142 -0.14484234 7 16
1.0256923 0.33541647 -0.18206258 9 15
0.93947369 0.17470214 0.21306083 83 30
0.90875506 0.29494125 0.17759831 96 29
0.9740454 0.18138029 0.14951546 8 28
0.93273056 0.30191699 0.11542051 40 27
0.99336785 0.18510051 0.093247794 8 26
0.95155025 0.3077001 0.067152485 40 25
1.0016406 0.18643633 0.045884673 65 24
0.97026205 0.31343368 0.02286263 7 23
1.000266 0.18600298 0 96 22
0.99408275 0.32100007 -0.023442902 7 21
1.0188994 0.18924233 -0.046699882 92 20
0.97787583 0.31552979 -0.06871473 68 19
1.0552722 0.1955433 -0.093215987 29 18
1.0094271 0.32578719 -0.11741945 10 17
1.0667404 0.19726518 -0.14587446 39 16
1.0362239 0.33488485 -0.18378015 9 15
0.94244492 0.1720175 0.21362448 75 30
0.90739274 0.29117 0.17712471 96 29
0.96491867 0.17639457 0.14797008 12 28
0.93136513 0.29805997 0.11511756 69 27
0.99400789 0.18163189 0.093247794 8 26
0.94307083 0.30148178 0.066458404 64 25
0.99733812 0.1822267 0.045651756 88 24
0.97372943 0.31081063 0.022920657 8 23
1.0033376 0.18312852 0 96 22
0.99995577 0.31905875 -0.023558956 7 21
1.0195538 0.18568456 -0.046699882 93 20
0.99078786 0.31610355 -0.06957797 68 19
1.0461452 0.19009821 -0.092321828 74 18
1.0200166 0.32530206 -0.11855669 10 17
1.0674225 0.19354036 -0.14587446 13 16
1.0373867 0.33126575 -0.18378015 9 15
0.94546765 0.16898507 0.21418814 69 30
0.90845382 0.2878423 0.17712471 96 29
0.96555871 0.17285679 0.14797008 9 28
0.92535818 0.2923834 0.11420874 79 27
0.98731482 0.17668843 0.092534162 9 26
0.9465459 0.29877985 0.066631921 73 25
1.0004585 0.17900456 0.045768213 89 24
0.96528113 0.30438024 0.022688551 8 23
1.0015401 0.17901534 0 96 22
0.99873638 0.31463501 -0.023500927 8 21
1.0201957 0.18212453 -0.046699882 95 20
0.98243177 0.30945024 -0.068887375 67 19
1.0419303 0.18540041 -0.091874748 80 18
1.0187786 0.3209877 -0.11827236 14 17
1.0608078 0.1883432 -0.14484234 6 16
1.0408838 0.32838893 -0.18420956 9 15
0.94605172 0.16568373 0.21418814 72 30
0.90711236 0.28393006 0.17665112 95 29
0.96858996 0.16990657 0.14835642 10 28
0.92874014 0.28989691 0.11451168 80 27
0.99283004 0.17408989 0.093009919 8 26
0.94996208 0.29622224 0.066805445 76 25
1.0010773 0.17551121 0.045768213 90 24
0.96633786 0.30100891 0.022688551 14 23
1.0046223 0.17594418 0 96 22
0.99028969 0.3081539 -0.023268819 8 21
1.0208253 0.17856225 -0.046699882 93 20
0.98350596 0.30601901 -0.068887375 68 19
1.0523865 0.1834524 -0.092768908 36 18
1.0222628 0.31817314 -0.11855669 25 17
1.0712208 0.18631653 -0.14621851 5 16
1.0443733 0.3254917 -0.18463893 9 15
0.95142734 0.16319275 0.21531545 71 30
0.91512781 0.28295553 0.1780719 96 29
0.96917725 0.16652451 0.14835642 11 28
0.92974645 0.28665322 0.11451168 80 27
0.98604113 0.16954766 0.092296287 30 26
0.9486087 0.29216447 0.066631921 76 25
1.0016838 0.17201574 0.045768213 91 24
0.96976966 0.29837465 0.022746576 39 23
1.0052304 0.17243631 0 95 22
0.99608052 0.30634895 -0.023384873 26 21
1.0263668 0.17583075 -0.046932798 93 20
0.9869504 0.3033224 -0.069060028 66 19
1.0554444 0.18037593 -0.09299244 8 18
1.0257396 0.31533813 -0.11884099 30 17
1.064507 0.18152943 -0.14518638 5 16
1.0502075 0.323304 -0.18549772 9 15
1.0673211 0.32900372 -0.24780764 8 14
0.95436621 0.16043504 0.2158791 69 30
0.91840684 0.28064275 0.17854549 94 29
0.96972406 0.16330969 0.14835642 16 28
0.92831993 0.28283921 0.11420874 81 27
0.98417193 0.16569695 0.092058413 84 26
0.95195639 0.28974923 0.066805445 72 25
0.99732167 0.16787477 0.045535296 90 24
0.96358532 0.29295871 0.022572497 61 23
1.008263 0.16951108 0 95 22
0.98758495 0.2999422 -0.023152767 47 21
1.0244808 0.17201795 -0.046816342 89 20
0.98795086 0.3000479 -0.069060028 66 19
1.0708077 0.17912558 -0.094333678 7 18
1.0244048 0.3112075 -0.11855669 38 17
1.072464 0.17902069 -0.14621851 6 16
1.0489192 0.31909749 -0.18506834 9 15
1.0707927 0.325991 -0.24836574 8 14
0.95011193 0.15632305 0.21475179 66 30
0.91233617 0.27528945 0.17712471 96 29
0.96785033 0.15952756 0.14797008 30 28
0.93167603 0.28031802 0.11451168 80 27
0.98228788 0.16186135 0.091820531 88 26
0.95057535 0.28570077 0.066631921 76 25
1.0028316 0.16519357 0.045768213 88 24
0.96943694 0.29087314 0.022688551 65 23
1.0063808 0.16558999 0 95 22
0.98623371 0.29576942 -0.02309474 51 21
1.0251043 0.16826189 -0.046816342 89 20
0.98660499 0.2958754 -0.068887375 64 19
1.0689683 0.17498945 -0.094110139 6 18
1.0160284 0.30457586 -0.11741945 52 17
1.075527 0.17567018 -0.14656255 5 16
1.0547962 0.31667784 -0.18592712 9 15
1.0672598 0.32083771 -0.2472495 8 14
0.9578954 0.1539827 0.21644275 68 30
0.91333902 0.27194378 0.17712471 96 29
0.96111012 0.15481742 0.14681105 74 28
0.93269724 0.27690142 0.11451168 79 27
0.98287451 0.15826002 0.091820531 90 26
0.94922692 0.28149983 0.066458404 74 25
1.0034302 0.1615169 0.045768213 88 24
0.9608677 0.28462461 0.022456443 66 23
1.0094501 0.16229182 0 96 22
0.99689072 0.29501215 -0.023326848 28 21
1.0306184 0.16546388 -0.047049258 67 20
0.99485224 0.29439732 -0.069405325 61 19
1.0794407 0.17262322 -0.095004298 6 18
1.0170854 0.30102742 -0.11741945 59 17
1.0688255 0.17057134 -0.14553043 5 16
1.0558952 0.312994 -0.18592712 9 15
1.0707632 0.31762204 -0.24780764 8 14
0.95842701 0.15063809 0.21644275 64 30
0.92134255 0.27084917 0.17854549 95 29
0.96408546 0.1518403 0.1471974 81 28
0.92889887 0.27223605 0.1139058 81 27
0.99079865 0.15597293 0.092534162 81 26
0.95259547 0.27889132 0.066631921 73 25
1.0039879 0.15801328 0.045768213 88 24
0.96904683 0.28339079 0.022630524 49 23
1.0100105 0.15876719 0 95 22
0.9931196 0.29011756 -0.023210794 9 21
1.0287218 0.16148329 -0.046932798 13 20
0.99108928 0.28951287 -0.069060028 63 19
1.075115 0.16809493 -0.094557218 6 18
1.0205125 0.29817739 -0.11770375 62 17
1.0743092 0.16759278 -0.14621851 6 16
1.0617056 0.31070036 -0.18678591 9 15
1.0601797 0.31043208 -0.24501701 8 14
0.96376348 0.14802006 0.21757005 58 30
0.91757101 0.26625106 0.17759831 95 29
0.96460962 0.14847408 0.1471974 85 28
0.93460763 0.27038327 0.11451168 79 27
0.9937976 0.15288644 0.092772037 30 26
0.95116895 0.27486616 0.066458404 71 25
1.0070025 0.15488204 0.045884673 86 24
0.97482926 0.28140441 0.022746576 22 23
1.0105585 0.15524063 0 95 22
0.996526 0.28734723 -0.023268819 8 21
1.0440946 0.16013201 -0.047631547 8 20
0.98969907 0.28535488 -0.068887375 51 19
1.0707707 0.16359897 -0.094110139 6 18
1.0215471 0.29461333 -0.11770375 62 17
1.0675414 0.16273725 -0.14518638 6 16
1.0580546 0.30561489 -0.18592712 9 15
1.0729547 0.31013903 -0.24780764 7 14
0.97391236 0.1460782 0.21982466 55 30
0.92321098 0.26441044 0.17854549 92 29
0.96267867 0.14474438 0.14681105 81 28
0.9331612 0.26643187 0.11420874 79 27
0.98445207 0.1481307 0.091820531 9 26
0.95212269 0.27154428 0.066458404 73 25
1.0050666 0.15100034 0.045768213 82 24
0.97100163 0.27661875 0.022630524 9 23
1.0086211 0.15134655 0 95 22
