# .PCD v0.7 - Point Cloud Data file format
VERSION 0.7
FIELDS x y z intensity ring
SIZE 4 4 4 4 2
TYPE F F F F U
COUNT 1 1 1 1 1
WIDTH 1230
HEIGHT 1
VIEWPOINT 0 0 0 1 0 0 0
POINTS 1230
DATA ascii
-0.43365699 1.0588969 -0.15413152 8 16
-0.445283 1.0951166 0.10966132 39 26
-0.44021472 1.0826011 0.052872188 41 24
-0.43299213 1.0652779 0 9 22
-0.43235275 1.0642312 -0.051940519 74 20
-0.43337756 1.0683627 -0.10036924 34 18
-0.42699623 1.053589 -0.15309937 41 16
-0.44257438 1.0988975 0.10989919 45 26
-0.43736121 1.0864494 0.052988645 39 24
-0.43112865 1.071425 0 9 22
-0.42770788 1.0634152 -0.051824059 74 20
-0.42798457 1.0651696 -0.099922165 35 18
-0.42350009 1.0549992 -0.15309937 41 16
-0.43690109 1.0958086 0.10942344 47 26
-0.43375602 1.0878937 0.052988645 41 24
-0.42573109 1.0682005 0 11 22
-0.42233968 1.0601842 -0.051591143 76 20
-0.42334804 1.0643417 -0.099698633 41 18
-0.42163473 1.0610769 -0.15378746 42 16
-0.43398264 1.0996438 0.10966132 53 26
-0.4281311 1.084752 0.052755725 42 24
-0.42291275 1.0720073 0 11 22
-0.419548 1.063977 -0.051707603 74 20
-0.41872245 1.0634942 -0.099475086 42 18
-0.41702643 1.0602362 -0.15344343 46 16
-0.42833912 1.0965123 0.10918555 67 26
-0.42343771 1.0839121 0.052639272 43 24
-0.42097789 1.078138 0 11 22
-0.41564551 1.0655075 -0.051707603 76 20
-0.41500762 1.0649494 -0.099475086 43 18
-0.41421682 1.0639948 -0.15378746 49 16
-0.42342469 1.0957519 0.10894768 79 26
-0.42214939 1.09245 0.052988645 45 24
-0.41702348 1.0796738 0 11 22
-0.41102868 1.0646204 -0.051591143 74 20
-0.40931937 1.0618131 -0.099028006 53 18
-0.41031429 1.0655056 -0.15378746 46 16
-0.42067364 1.0994759 0.10918555 90 26
-0.41744587 1.0915829 0.052872188 45 24
-0.4132522 1.0811229 0 11 22
-0.40730995 1.0660487 -0.051591143 76 20
-0.40314585 1.0561807 -0.098357394 63 18
-0.40502328 1.0622296 -0.15309937 47 16
-0.41683322 1.1009377 0.10918555 90 26
-0.41382375 1.0929612 0.052872188 49 24
-0.40702355 1.0754679 0 47 22
-0.40377256 1.0673937 -0.051591143 77 20
-0.40120718 1.0622437 -0.098804474 68 18
-0.40131295 1.0636369 -0.15309937 49 16
-0.41125026 1.0977217 0.1087098 90 26
-0.40913439 1.0920587 0.052755725 54 24
-0.40413919 1.0792248 0 76 22
-0.39917335 1.0664558 -0.051474687 77 20
-0.39749679 1.0636377 -0.098804474 71 18
-0.3975977 1.0650313 -0.15309937 49 16
-0.40722415 1.0992216 0.1087098 90 26
-0.40253967 1.0865209 0.052406352 63 24
-0.55571157 1.0574574 0.026924521 12 23
-0.40018097 1.0806988 0 74 22
-0.39439958 1.0655681 -0.051358223 77 20
-0.3935957 1.0650873 -0.098804474 72 18
-0.39283851 1.0641568 -0.15275535 47 16
-0.40338466 1.1006364 0.1087098 68 26
-0.40045443 1.0926121 0.052639272 68 24
-0.55317646 1.0616051 0.026982548 12 23
-0.39640617 1.0820892 0 72 22
-0.39238593 1.0716318 -0.051591143 74 20
-0.38817468 1.0617743 -0.098357394 66 18
-0.3891215 1.0655215 -0.15275535 47 16
-0.39973262 1.1019681 0.1087098 54 26
-0.39494455 1.0893046 0.052406352 66 24
-0.5471639 1.0590932 0.026866494 12 23
-0.3917793 1.0811143 0 74 22
-0.38779691 1.0706452 -0.051474687 76 20
-0.38465157 1.0630558 -0.098357394 13 18
-0.38474882 1.0644757 -0.1524113 53 16
-0.39588356 1.1033566 0.1087098 51 26
-0.39133009 1.0906082 0.052406352 67 24
-0.54479313 1.0631237 0.026924521 12 23
-0.38819206 1.0824076 0 72 22
-0.38508254 1.0742778 -0.051591143 77 20
-0.38427624 1.0737759 -0.099251553 11 18
-0.38185978 1.0681455 -0.15275535 50 16
-0.39202973 1.1047318 0.1087098 49 26
-0.38669008 1.0896126 0.052289892 66 24
-0.53975677 1.0628873 0.026866494 12 23
-0.38441136 1.0837561 0 75 22
-0.38031298 1.0733265 -0.051474687 76 20
-0.37887323 1.070413 -0.098804474 11 18
-0.37894979 1.0718081 -0.15309937 50 16
-0.38797808 1.1061612 0.1087098 49 26
-0.38351595 1.0933806 0.052406352 67 24
-0.53604329 1.0647649 0.026866494 12 23
-0.38043663 1.0851578 0 72 22
-0.37574279 1.072289 -0.051358223 79 20
-0.37576503 1.0741462 -0.099028006 11 18
-0.37258202 1.0661724 -0.15206726 66 16
-0.38268489 1.1027365 0.10823404 49 26
-0.37725538 1.0876298 0.052056976 68 24
-0.53456461 1.0710976 0.026982548 12 23
-0.37501776 1.0817517 0 67 22
-0.37443668 1.0806779 -0.051707603 41 20
-0.36815178 1.0636134 -0.097910315 18 18
-0.36823982 1.06506 -0.15172321 68 16
-0.38566637 1.1240655 0.18042305 16 28
-0.37883329 1.1040657 0.10823404 47 26
-0.37525868 1.0936022 0.052289892 56 24
-0.52767003 1.0661513 0.026808467 12 23
-0.37384793 1.0900884 0 34 22
-0.52841038 1.0685735 -0.026866494 11 21
-0.36843529 1.0748218 -0.051358223 72 20
-0.36523846 1.0672494 -0.098133847 53 18
-0.36292711 1.0616496 -0.15103512 74 16
-0.37542787 1.1066804 0.17733228 29 28
-0.37656707 1.1100978 0.1087098 45 26
-0.53094411 1.0812421 0.081381179 12 25
-0.3682479 1.0854397 0.051824059 22 24
-0.52505076 1.0702282 0.026866494 12 23
-0.36684763 1.08191 0 12 22
-0.52136314 1.0636855 -0.026692413 12 21
-0.36308736 1.071368 -0.051125307 79 20
-0.36151084 1.0685177 -0.098133847 75 18
-0.36000726 1.0652575 -0.15137917 72 16
-0.37312439 1.1126709 0.17810498 30 28
-0.37190309 1.1090446 0.10847192 47 26
-0.52497458 1.0786083 0.081034139 12 25
-0.36840433 1.0985645 0.052406352 11 24
-0.5211246 1.0721455 0.026866494 12 23
-0.36306879 1.083184 0 12 22
-0.51874387 1.0677447 -0.02675044 13 21
-0.3599464 1.0750612 -0.05124177 80 20
-0.35699371 1.0674103 -0.097910315 77 18
-0.35628664 1.0665077 -0.15137917 72 16
-0.36827138 1.1116847 0.17771864 29 28
-0.36861381 1.112764 0.1087098 45 26
-0.51992995 1.0782809 0.080860615 12 25
-0.36125216 1.0904191 0.051940519 11 24
-0.51737899 1.073958 0.026866494 13 23
-0.35987756 1.0868824 0 12 22
-0.51700407 1.0741385 -0.026866494 13 21
-0.35619158 1.0763111 -0.05124177 83 20
-0.35230255 1.0663457 -0.097686768 79 18
-0.35314661 1.0701593 -0.15172321 50 16
-0.3628605 1.1082658 0.17694594 29 28
-0.36318761 1.1093107 0.10823404 46 26
-0.51616287 1.0800891 0.080860615 12 25
-0.3582162 1.0940481 0.052056976 11 24
-0.51578999 1.080264 0.026982548 13 23
-0.35530847 1.0857544 0 60 22
-0.5089286 1.0669223 -0.026634384 13 21
-0.35320407 1.0799229 -0.051358223 80 20
-0.3493464 1.0699375 -0.097910315 76 18
-0.34711951 1.0643185 -0.15069108 12 16
-0.35974556 1.1118771 0.17733228 28 28
-0.36026904 1.1128782 0.10847192 42 26
-0.51131743 1.0796326 0.080687098 12 25
-0.35592353 1.1000469 0.052289892 11 24
-0.50986874 1.0775439 0.026866494 13 23
-0.352281 1.0893683 0 77 22
-0.50753421 1.0731184 -0.02675044 13 21
-0.34866887 1.0787715 -0.05124177 80 20
-0.34655675 1.0734612 -0.098133847 75 18
-0.3435882 1.0654639 -0.15069108 9 16
-0.35680455 1.1154178 0.17771864 28 28
-0.3556284 1.1117572 0.10823404 42 26
-0.50986373 1.085833 0.081034139 13 25
-0.3522737 1.1012211 0.052289892 11 24
-0.5062927 1.0792286 0.026866494 13 23
-0.34866661 1.0905304 0 77 22
-0.50485057 1.0771444 -0.026808467 13 21
-0.34508961 1.0799218 -0.05124177 80 20
-0.34205553 1.0722907 -0.097910315 75 18
-0.33762565 1.0595741 -0.14965895 9 16
-0.35216898 1.1143 0.17733228 32 28
-0.35174549 1.1129918 0.10823404 41 26
-0.50501353 1.0853471 0.080860615 13 25
-0.34842759 1.1024441 0.052289892 11 24
-0.5012759 1.0788127 0.026808467 13 23
-0.34336093 1.0869703 0 80 22
-0.50003016 1.0766355 -0.02675044 13 21
-0.34112921 1.0811793 -0.05124177 80 20
-0.33607912 1.0663491 -0.097239695 66 18
-0.33540267 1.065473 -0.15034704 9 16
-0.34662008 1.1108649 0.1765596 29 28
-0.34840056 1.1166507 0.10847192 42 26
-0.49998373 1.0849278 0.080687098 13 25
-0.3436453 1.1013285 0.052173436 54 24
-0.49540719 1.0760196 0.026692413 13 23
-0.34011436 1.0906094 0 81 22
-0.4939824 1.0739239 -0.026634384 14 21
-0.33587617 1.0775923 -0.05100885 81 20
-0.4814404 1.0468199 -0.077347234 12 19
-0.33290356 1.0699528 -0.097463235 12 18
-0.33003494 1.061963 -0.14965895 11 16
-0.34274033 1.1120679 0.1765596 26 28
-0.34396681 1.1154203 0.10823404 46 26
-0.49931523 1.093466 0.081207655 14 25
-0.33906785 1.1001332 0.052056976 74 24
-0.49269018 1.0800141 0.02675044 13 23
-0.33557403 1.0893995 0 81 22
-0.48937681 1.0732843 -0.026576359 14 21
-0.33357286 1.0835345 -0.05124177 80 20
-0.47882235 1.0507613 -0.077519879 14 19
-0.33008081 1.0734323 -0.097686768 11 18
-0.32867852 1.0701572 -0.15069108 11 16
-0.33976585 1.1155627 0.17694594 29 28
-0.33935067 1.1142322 0.10799617 46 26
-0.49362034 1.0905759 0.080860615 16 25
-0.3346948 1.0988613 0.051940519 76 24
-0.48600259 1.0748162 0.026576359 16 23
-0.332683 1.0928992 0 81 22
-0.48666105 1.0772614 -0.026634384 18 21
-0.32997793 1.0846347 -0.05124177 80 20
-0.47327229 1.0478019 -0.077174574 18 19
-0.32489407 1.06981 -0.097239695 11 18
-0.32279879 1.0641848 -0.14965895 11 16
-0.3330422 1.1072752 0.17540057 28 28
-0.3347469 1.1130253 0.10775829 49 26
-0.4898105 1.0922923 0.080860615 17 25
-0.33157164 1.1024158 0.052056976 77 24
-0.48308605 1.0788693 0.026634384 17 23
-0.32743591 1.0892627 0 81 22
-0.48289776 1.0789537 -0.026634384 20 21
-0.32528687 1.0834438 -0.051125307 79 20
-0.471659 1.0539963 -0.077519879 20 19
-0.32399988 1.0804834 -0.098133847 11 18
-0.31767055 1.0605581 -0.14897086 12 16
-0.330378 1.1132269 0.17617325 26 28
-0.32925826 1.1094704 0.10728253 58 26
-0.48377028 1.0895257 0.080513574 18 25
-0.32752889 1.1036236 0.052056976 76 24
-0.47422636 1.0691365 0.026344251 21 23
-0.32414767 1.0928538 0 83 22
-0.47283575 1.0670191 -0.026286222 28 21
-0.32079786 1.0821768 -0.05100885 54 20
-0.47185361 1.0648301 -0.078210473 22 19
-0.31933579 1.0792748 -0.097910315 11 18
-0.31656957 1.0712194 -0.15034704 12 16
-0.32786995 1.1191168 0.17694594 28 28
-0.32468835 1.1082234 0.10704467 67 26
-0.48097298 1.0934887 0.080687098 18 25
-0.32227942 1.0999645 0.051824059 76 24
-0.47150162 1.0730714 0.026402276 22 23
-0.32033092 1.0939785 0 79 22
-0.47112703 1.0732359 -0.026402276 38 21
-0.31841186 1.0880864 -0.05124177 12 20
-0.46511203 1.059626 -0.077692531 22 19
-0.31625986 1.0827742 -0.098133847 11 18
-0.31145084 1.0675611 -0.14965895 12 16
-0.32327986 1.1178802 0.1765596 26 28
-0.32307321 1.1164696 0.10775829 74 26
-0.47615221 1.0928764 0.080513574 18 25
-0.3177487 1.0986825 0.051707603 80 24
-0.4687553 1.0770004 0.026460305 25 23
-0.31719977 1.0974931 0 83 22
-0.46355829 1.0656332 -0.026170168 47 21
-0.31461179 1.0891911 -0.05124177 12 20
-0.46440828 1.0680983 -0.078210473 25 19
-0.31266752 1.083817 -0.098133847 11 18
-0.30790898 1.068588 -0.14965895 12 16
-0.31957105 1.1189462 0.1765596 26 28
-0.31849518 1.1151963 0.10752042 80 26
-0.47153223 1.0921618 0.080340058 22 25
-0.31546605 1.1045352 0.051940519 77 24
-0.46518126 1.0785488 0.026460305 29 23
-0.31219551 1.0937283 0 83 22
-0.4608295 1.0695381 -0.026228197 50 21
-0.31031778 1.0878257 -0.051125307 12 20
-0.45888036 1.0650557 -0.077865176 25 19
-0.30820528 1.0825058 -0.097910315 11 18
-0.30484962 1.0720395 -0.150003 12 16
-0.31566325 1.1200548 0.1765596 29 28
-0.31527096 1.1186979 0.10775829 76 26
-0.46968755 1.0983833 0.080687098 22 25
-0.31160855 1.1056297 0.051940519 79 24
-0.46141359 1.0801661 0.026460305 32 23
-0.30904895 1.0972191 0 81 22
-0.45610753 1.0688435 -0.026170168 51 21
-0.30786264 1.0937124 -0.051358223 12 20
-0.45220873 1.0597755 -0.077347234 26 19
-0.30375597 1.0811765 -0.097686768 11 18
-0.44843245 1.0509928 -0.12680162 16 17
-0.30110562 1.0730972 -0.150003 20 16
-0.31155592 1.1212044 0.1765596 28 28
-0.31050691 1.1174469 0.10752042 77 26
-0.46370485 1.095508 0.080340058 25 25
-0.3075541 1.1067644 0.051940519 79 24
-0.45647323 1.0795499 0.026402276 33 23
-0.30502537 1.0983444 0 14 22
-0.45414171 1.0751086 -0.026286222 51 21
-0.30186242 1.0876107 -0.05100885 13 20
-0.44929668 1.0637212 -0.077519879 28 19
-0.29913124 1.0798817 -0.097463235 12 18
-0.44846252 1.0617735 -0.12793887 24 17
-0.29848152 1.0789694 -0.15069108 71 16
-0.30569503 1.1151351 0.17540057 28 28
-0.30660442 1.118524 0.10752042 80 26
-0.45890915 1.0948219 0.080166534 29 25
-0.30368891 1.1078312 0.051940519 72 24
-0.45076188 1.0765301 0.026286222 41 23
-0.30250135 1.1042274 0 29 22
-0.44650874 1.0674725 -0.026054114 49 21
-0.30068314 1.0982974 -0.051474687 42 20
-0.44364631 1.0606854 -0.077174574 32 19
-0.29535991 1.0809193 -0.097463235 12 18
-0.44571674 1.0656217 -0.12822317 26 17
-0.29406619 1.0776144 -0.15034704 47 16
-0.30500111 1.1281232 0.17733228 29 28
-0.30160281 1.1147274 0.10704467 79 26
-0.45316303 1.0918142 0.079819486 30 25
-0.30046719 1.1112964 0.052056976 43 24
-0.44603929 1.0757902 0.026228197 49 23
-0.29540771 1.0932029 0 68 22
-0.44488981 1.0735611 -0.026170168 25 21
-0.29426217 1.0896915 -0.05100885 76 20
-0.43802261 1.0576231 -0.076829277 34 19
-0.29048657 1.0770819 -0.097016148 47 18
-0.43912843 1.0602928 -0.12737025 28 17
-0.29049107 1.0785836 -0.15034704 13 16
-0.29999405 1.1243531 0.1765596 29 28
-0.29834682 1.1181792 0.10728253 72 26
-0.44953996 1.093311 0.079819486 32 25
-0.29614115 1.1098726 0.051940519 12 24
-0.44342378 1.0795733 0.026286222 51 23
-0.29305977 1.0990102 0 84 22
-0.43827882 1.068177 -0.025996089 11 21
-0.2919237 1.0954901 -0.05124177 81 20
-0.43641624 1.0636806 -0.077174574 33 19
-0.28736034 1.080497 -0.097239695 70 18
-0.43655765 1.0640391 -0.12765455 29 17
-0.28546265 1.074802 -0.14965895 12 16
-0.29606754 1.1253933 0.1765596 30 28
-0.2931847 1.114398 0.10680678 38 26
-0.44383055 1.0902576 0.079472445 33 25
-0.29163444 1.1084833 0.051824059 64 24
-0.43775994 1.0764881 0.026170168 55 23
-0.28985277 1.1024457 0 84 22
-0.43549302 1.0720137 -0.026054114 9 21
-0.28683811 1.0916693 -0.05100885 83 20
-0.43270066 1.0651976 -0.077174574 41 19
-0.28421375 1.0839034 -0.097463235 13 18
-0.43284079 1.0655565 -0.12765455 28 17
-0.28233165 1.0781888 -0.150003 11 16
-0.29152188 1.124028 0.17617325 33 28
-0.44292903 1.0978861 0.14026166 29 27
-0.29115343 1.122645 0.10752042 12 26
-0.44002211 1.0918002 0.079472445 35 25
-0.28776333 1.1094944 0.051824059 80 24
-0.43399963 1.0780096 0.026170168 55 23
-0.28475758 1.0986083 0 84 22
-0.42987335 1.0688936 -0.02593806 9 21
-0.28240424 1.0902451 -0.05089239 88 20
-0.4261733 1.0597657 -0.076656632 47 19
-0.2804285 1.0848888 -0.097463235 11 18
-0.42818704 1.0647585 -0.12737025 29 17
-0.27610978 1.0695722 -0.1486268 11 16
-0.28759649 1.1250387 0.17617325 33 28
-0.43816873 1.0971228 0.13995872 46 27
-0.2847859 1.1140053 0.10656891 12 26
-0.43713737 1.095644 0.079645962 35 25
-0.28388873 1.1104922 0.051824059 83 24
-0.43097541 1.0819131 0.026228197 54 23
-0.28153512 1.1020188 0 85 22
-0.42706907 1.0727079 -0.025996089 9 21
-0.27963161 1.0961149 -0.051125307 85 20
-0.42247146 1.0612469 -0.076656632 50 19
-0.27785978 1.0906894 -0.097910315 11 18
-0.42428163 1.0663207 -0.12737025 30 17
-0.27479768 1.0801334 -0.150003 11 16
-0.28406945 1.1284815 0.1765596 30 28
-0.43322793 1.0964154 0.13965578 51 27
-0.28311256 1.1246996 0.10752042 35 26
-0.43219817 1.0949209 0.079472445 35 25
-0.28042167 1.1139482 0.051940519 81 24
-0.42719623 1.0834109 0.026228197 56 23
-0.27688891 1.1006178 0 87 22
-0.42129278 1.0696189 -0.025880035 9 21
-0.27459547 1.0922381 -0.05089239 81 20
-0.41949788 1.0651066 -0.076829277 51 19
-0.27446145 1.0941167 -0.098133847 11 18
-0.41781145 1.0608681 -0.12651731 35 17
-0.26964298 1.076327 -0.1493149 12 16
-0.27894861 1.1246694 0.1757869 32 28
-0.42939809 1.0979209 0.13965578 49 27
-0.2781916 1.1207992 0.10704467 79 26
-0.42837355 1.0964229 0.079472445 38 25
-0.27593502 1.1124953 0.051824059 84 24
-0.42341182 1.0848954 0.026228197 56 23
-0.27244857 1.0991497 0 88 22
-0.41774344 1.0710101 -0.025880035 11 21
-0.2701855 1.0907649 -0.050775934 63 20
-0.41577739 1.0665644 -0.076829277 51 19
-0.26964548 1.0901842 -0.097686768 11 18
-0.41319871 1.0600078 -0.12623301 38 17
-0.26901719 1.0892408 -0.15103512 12 16
-0.41465512 1.0626801 -0.19279741 41 15
-0.27405342 1.1207874 0.17501421 28 28
-0.42395279 1.0947144 0.13904989 46 27
-0.27369112 1.1193451 0.10680678 85 26
-0.42292589 1.0931892 0.079125404 41 25
-0.27165586 1.1109773 0.051707603 83 24
-0.41890597 1.0839641 0.026170168 56 23
-0.26939091 1.102477 0 84 22
-0.41762257 1.0817807 -0.026112143 18 21
-0.26597926 1.0892276 -0.050659474 12 20
-0.41043201 1.063288 -0.07648398 51 19
-0.26525378 1.0886985 -0.097463235 11 18
-0.40968132 1.0613723 -0.12623301 39 17
-0.26347166 1.0829519 -0.150003 13 16
-0.4093436 1.0594585 -0.19193862 38 15
-0.27186048 1.1289445 0.17617325 22 28
-0.42191491 1.1008184 0.13965578 42 27
-0.27093822 1.1251347 0.10728253 81 26
-0.41910738 1.0946589 0.079125404 43 25
-0.26777616 1.1119188 0.051707603 84 24
-0.41511968 1.0854198 0.026170168 56 23
-0.26554087 1.1034106 0 83 22
-0.41205007 1.0785661 -0.025996089 43 21
-0.26391301 1.0974369 -0.05100885 11 20
-0.40850791 1.0693699 -0.076829277 30 19
-0.2614519 1.0896177 -0.097463235 11 18
-0.40597394 1.0627959 -0.12623301 41 17
-0.25854549 1.0790465 -0.1493149 13 16
-0.40121984 1.0493885 -0.18979166 38 15
-0.26565698 1.1202691 0.17462789 28 28
-0.41895458 1.1046028 0.13995872 38 27
-0.26643956 1.123651 0.10704467 84 26
-0.41528374 1.0961151 0.079125404 46 25
-0.26389322 1.1128466 0.051707603 81 24
-0.41132832 1.0868622 0.026170168 56 23
-0.25997245 1.0970294 0 87 22
-0.4082827 1.0799979 -0.025996089 53 21
-0.25722721 1.0861955 -0.050426558 11 20
-0.40122521 1.0614654 -0.076138675 11 19
-0.25821453 1.0929481 -0.097686768 12 18
-0.40226161 1.0642066 -0.12623301 41 17
-0.25646862 1.0871758 -0.15034704 13 16
-0.39755434 1.0507826 -0.18979166 38 15
-0.26210564 1.1236416 0.17501421 28 28
-0.41490319 1.106131 0.13995872 38 27
-0.26288003 1.1270446 0.10728253 83 26
-0.4112635 1.0976298 0.079125404 50 25
-0.26037526 1.1162394 0.051824059 80 24
-0.40646103 1.0860237 0.026112143 56 23
-0.25820109 1.1077183 0 81 22
-0.40256116 1.0768086 -0.025880035 58 21
-0.25436792 1.0919975 -0.050659474 11 20
-0.39733204 1.0629288 -0.076138675 9 19
-0.25253037 1.0866078 -0.097016148 12 18
-0.3983584 1.0656738 -0.12623301 43 17
-0.25248218 1.0881085 -0.15034704 18 16
-0.3945685 1.0545374 -0.19022106 42 15
-0.25872988 1.1269581 0.17540057 26 28
-0.41103953 1.1075724 0.13995872 33 27
-0.25858855 1.1254836 0.10704467 81 26
-0.40742955 1.0990587 0.079125404 62 25
-0.25592315 1.1147065 0.051707603 80 24
-0.40266761 1.0874358 0.026112143 54 23
-0.25266999 1.1012995 0 16 22
-0.4016054 1.085164 -0.026054114 54 21
-0.25000131 1.0904434 -0.050543014 11 20
-0.3944895 1.0666466 -0.076311335 9 19
-0.24782407 1.0825826 -0.096569069 12 18
-0.39290288 1.0624022 -0.1256644 49 17
-0.24887252 1.0889398 -0.15034704 67 16
-0.38916489 1.0512928 -0.18936226 39 15
-0.25445125 1.1253996 0.17501421 26 28
-0.40650392 1.1066018 0.13965578 33 27
-0.25411418 1.1239511 0.10680678 81 26
-0.40205464 1.0957248 0.078778364 83 25
-0.25113314 1.1106753 0.051474687 84 24
-0.39992437 1.09111 0.026170168 55 23
-0.25010896 1.1070106 0 11 22
-0.39522231 1.0795238 -0.025880035 42 21
-0.24583873 1.0888295 -0.050426558 11 20
-0.38836294 1.0609283 -0.075793378 9 19
-0.24512829 1.0883014 -0.097016148 12 18
-0.38937768 1.0636994 -0.1256644 51 17
-0.24291594 1.0801342 -0.14897086 88 16
-0.386529 1.0548881 -0.18979166 42 15
-0.2505213 1.1262809 0.17501421 29 28
-0.40263867 1.1080142 0.13965578 33 27
-0.2501893 1.1248313 0.10680678 84 26
-0.39737153 1.094779 0.07860484 90 25
-0.24725464 1.1115452 0.051474687 84 24
-0.39525643 1.0901515 0.026112143 55 23
-0.24570556 1.1054354 0 11 22
-0.39059561 1.0785486 -0.025822006 13 21
-0.24471989 1.1018757 -0.05100885 12 20
-0.38807422 1.0716501 -0.07648398 9 19
-0.24239561 1.0940146 -0.097463235 12 18
-0.38481158 1.0627184 -0.12538008 55 17
-0.23967414 1.0833943 -0.1493149 88 16
-0.38284439 1.056231 -0.18979166 41 15
-0.25271016 1.1572571 0.2660442 13 30
-0.24658833 1.1271485 0.17501421 28 28
-0.39876857 1.1094128 0.13965578 32 27
-0.24573421 1.1232655 0.10656891 83 26
-0.39185229 1.0914683 0.078257799 90 25
-0.24337313 1.1124015 0.051474687 77 24
-0.39040986 1.0892419 0.026054114 53 23
-0.24237457 1.1087297 0 12 22
-0.38598052 1.0775543 -0.025763981 11 21
-0.23962422 1.0978836 -0.050775934 12 20
-0.38094684 1.0636137 -0.075793378 9 19
-0.23857531 1.0948542 -0.097463235 12 18
-0.38091388 1.0641217 -0.12538008 55 17
-0.23536934 1.0818037 -0.14897086 90 16
-0.3789705 1.0576271 -0.18979166 42 15
-0.24846688 1.1581756 0.2660442 14 30
-0.24451298 1.1377079 0.1765596 32 28
-0.3913568 1.1015203 0.13844401 30 27
-0.2426521 1.1290268 0.10704467 83 26
-0.39036644 1.099943 0.078778364 90 25
-0.23929432 1.113286 0.051474687 20 24
-0.38576531 1.0882441 0.025996089 53 23
-0.23934965 1.1145012 0 12 22
-0.38286772 1.081316 -0.025822006 9 21
-0.23682883 1.1035986 -0.05100885 12 20
-0.37955832 1.0720506 -0.076311335 9 19
-0.23352799 1.0908495 -0.097016148 58 18
-0.37552908 1.0607657 -0.12481146 58 17
-0.23191546 1.0850817 -0.1493149 90 16
-0.37610421 1.061263 -0.19022106 45 15
-0.24342646 1.1542674 0.2649169 16 30
-0.23952825 1.1337194 0.1757869 43 28
-0.38750938 1.1028798 0.13844401 30 27
-0.23839658 1.1273896 0.10680678 81 26
-0.38652453 1.1012989 0.078778364 56 25
-0.23540677 1.1141145 0.051474687 12 24
-0.38113242 1.0872271 0.02593806 49 23
-0.23392282 1.1079886 0 12 22
-0.377617 1.0778657 -0.025705952 9 21
-0.23297513 1.1044186 -0.05100885 12 20
-0.37415537 1.0686647 -0.07596603 9 19
-0.22940099 1.0891804 -0.096792616 85 18
-0.37264991 1.0644126 -0.12509578 56 17
-0.22781125 1.0834205 -0.14897086 90 16
-0.37157774 1.0602469 -0.18979166 46 15
-0.23959741 1.1550684 0.2649169 17 30
-0.23576739 1.1345075 0.1757869 49 28
-0.38466972 1.1065009 0.13874696 30 27
-0.2344598 1.1282148 0.10680678 81 26
-0.38369346 1.104929 0.07895188 47 25
-0.23271781 1.1197811 0.051707603 12 24
-0.37752494 1.0884849 0.02593806 21 23
-0.23226152 1.1185533 0 12 22
-0.37302914 1.0768175 -0.025647927 9 21
-0.22880886 1.1027389 -0.05089239 12 20
-0.37225237 1.0746093 -0.076311335 11 19
-0.22659731 1.094853 -0.097239695 81 18
-0.36830005 1.0632973 -0.12481146 58 17
-0.22402802 1.0842092 -0.14897086 90 16
-0.36724779 1.0591482 -0.18936226 50 15
-0.23700954 1.1630603 0.26660788 12 30
-0.23278475 1.1401656 0.1765596 51 28
-0.38080502 1.107837 0.13874696 29 27
-0.23199973 1.1363443 0.10752042 45 26
-0.37738967 1.0991904 0.078431323 47 25
-0.22781785 1.1156912 0.051474687 20 24
-0.37453893 1.0921588 0.025996089 9 23
-0.22736563 1.1144562 0 32 22
-0.37171283 1.0852011 -0.025822006 9 21
-0.22545224 1.1059787 -0.05100885 37 20
-0.36849904 1.0759021 -0.076311335 11 19
-0.22179155 1.0907553 -0.096792616 80 18
-0.36458623 1.0645764 -0.12481146 56 17
-0.22072981 1.0874121 -0.1493149 90 16
-0.36435232 1.0627515 -0.18979166 49 15
-0.23152775 1.1567129 0.2649169 12 30
-0.22928444 1.1433939 0.17694594 67 28
-0.37613219 1.1068115 0.13844401 29 27
-0.22657774 1.1298242 0.10680678 12 26
-0.3743571 1.1028608 0.07860484 50 25
-0.22538099 1.1238279 0.051824059 58 24
-0.37134051 1.0958896 0.026054114 8 23
-0.22201476 1.1078864 0 74 22
-0.36792251 1.0864921 -0.025822006 9 21
-0.21945687 1.0969987 -0.050543014 68 20
-0.36071625 1.065379 -0.075448081 11 19
-0.21798277 1.0915228 -0.096792616 51 18
-0.36228442 1.0706075 -0.12538008 60 17
-0.21741195 1.0906055 -0.14965895 90 16
-0.35965934 1.0617491 -0.18936226 47 15
-0.22682188 1.1551628 0.26435325 7 30
-0.22461998 1.1418021 0.1765596 75 28
-0.3712782 1.1058319 0.13814108 29 27
-0.22338662 1.1355325 0.10728253 35 26
-0.37031233 1.1042255 0.07860484 51 25
-0.21982837 1.1172928 0.051474687 84 24
-0.36511642 1.0900745 0.025880035 9 23
-0.219385 1.1160545 0 81 22
-0.36313987 1.0854647 -0.025763981 9 21
-0.21562628 1.0977581 -0.050543014 14 20
-0.35760537 1.0690575 -0.075620733 16 19
-0.21350682 1.08987 -0.096569069 13 18
-0.35854509 1.0718656 -0.12538008 59 17
-0.21341322 1.091395 -0.14965895 90 16
-0.35437661 1.0583307 -0.18850347 50 15
-0.22324462 1.15834 0.2649169 28 30
-0.22156033 1.1474313 0.17733228 77 28
-0.36820245 1.1094747 0.13844401 29 27
-0.21848716 1.1314166 0.10680678 76 26
-0.36645564 1.1055114 0.07860484 54 25
-0.21639575 1.1205063 0.051591143 85 24
-0.36209962 1.0937133 0.02593806 9 23
-0.21455014 1.1119022 0 81 22
-0.35934862 1.0867257 -0.025763981 9 21
-0.21226104 1.1009573 -0.050659474 12 20
-0.35465953 1.0726655 -0.075793378 45 19
-0.20877057 1.0857164 -0.096121989 12 18
-0.35323173 1.0683975 -0.12481146 62 17
-0.20821662 1.0848351 -0.1486268 90 16
-0.35223824 1.0642339 -0.18936226 50 15
-0.21964794 1.1615065 0.26548058 37 30
-0.2166433 1.1433424 0.1765596 80 28
-0.36121392 1.1013279 0.13723224 32 27
-0.21473405 1.1321348 0.10680678 81 26
-0.36181304 1.1044154 0.078431323 55 25
-0.2120229 1.1188002 0.051474687 84 24
-0.35515055 1.0854756 0.025705952 9 23
-0.21066758 1.1126446 0 84 22
-0.35496107 1.0855376 -0.025705952 11 21
-0.20795728 1.0992367 -0.050543014 12 20
-0.3501333 1.071528 -0.075620733 54 19
-0.20654061 1.0937458 -0.096792616 12 18
-0.34872362 1.0672649 -0.12452716 58 17
-0.20597945 1.0928223 -0.14965895 90 16
-0.34697947 1.0607789 -0.18850347 54 15
-0.21711533 1.169415 0.2671715 11 30
-0.21285065 1.1440544 0.1765596 80 28
-0.35910088 1.1072375 0.13783813 28 27
-0.21123137 1.135325 0.10704467 80 26
-0.35814869 1.1056093 0.078431323 56 25
-0.20876376 1.1219532 0.051591143 80 24
-0.35000017 1.0818946 0.0255899 9 23
-0.2065246 1.1108782 0 83 22
-0.35116965 1.0867699 -0.025705952 11 21
-0.20611592 1.109745 -0.05100885 12 20
-0.34734997 1.0750548 -0.075793378 53 19
-0.20272146 1.09446 -0.096792616 12 18
-0.34672004 1.0731391 -0.12509578 56 17
-0.20216353 1.0935347 -0.14965895 96 16
-0.34269682 1.0595821 -0.1880741 63 15
-0.2117368 1.1629746 0.26548058 30 30
-0.20929453 1.1472213 0.17694594 79 28
-0.35599607 1.1108458 0.13814108 26 27
-0.20682509 1.1336063 0.10680678 84 26
-0.35275662 1.1021054 0.078084283 59 25
-0.20484613 1.1226751 0.051591143 80 24
-0.34909531 1.0926869 0.025822006 9 23
-0.2017585 1.1066717 0 21 22
-0.34737402 1.0879892 -0.025705952 11 21
-0.20204712 1.1104931 -0.05100885 12 20
-0.34435889 1.0786349 -0.07596603 53 19
-0.19933993 1.0976117 -0.097016148 13 18
-0.34126428 1.0696735 -0.12452716 55 17
-0.19747154 1.089359 -0.14897086 97 16
-0.3365474 1.0537977 -0.18678591 66 15
-0.2078958 1.1661413 0.2660442 17 30
-0.20422886 1.143116 0.17617325 81 28
-0.35192221 1.1121432 0.13814108 28 27
-0.20266882 1.1343569 0.10680678 80 26
-0.34871486 1.1033909 0.078084283 59 25
-0.20072995 1.1234183 0.051591143 81 24
-0.34376419 1.0891352 0.025705952 11 23
-0.19943921 1.1172515 0 11 22
-0.34565365 1.0964013 -0.025880035 28 21
-0.19816954 1.1111916 -0.05100885 11 20
-0.33813831 1.0727587 -0.075448081 53 19
-0.19402236 1.0909779 -0.096345536 13 18
-0.33677649 1.068491 -0.12424285 58 17
-0.19476113 1.0973924 -0.150003 97 16
-0.3351059 1.0620072 -0.1880741 63 15
-0.20465307 1.1716602 0.2671715 12 30
-0.20107991 1.1486896 0.17694594 77 28
-0.34878337 1.1157318 0.13844401 30 27
-0.19913238 1.1375096 0.10704467 81 26
-0.34411281 1.1022222 0.077910759 59 25
-0.19638133 1.1216514 0.051474687 77 24
-0.34145844 1.0950973 0.025822006 18 23
-0.19426019 1.1105505 0 11 22
-0.3410762 1.0952165 -0.025822006 32 21
-0.19513968 1.1167983 -0.05124177 12 20
-0.33513829 1.0763122 -0.075620733 42 19
-0.19063547 1.0941023 -0.096569069 13 18
-0.33601898 1.0791394 -0.12538008 46 17
-0.18925193 1.0883037 -0.1486268 102 16
-0.33065861 1.0608207 -0.18764469 66 15
-0.19974959 1.1675644 0.2660442 12 30
-0.19624348 1.144514 0.17617325 81 28
-0.34414947 1.1145729 0.13814108 30 27
-0.19494288 1.13571 0.10680678 81 26
-0.34248325 1.1105618 0.078431323 55 25
-0.19288218 1.1247923 0.051591143 74 24
-0.33689302 1.0938956 0.025763981 43 23
-0.18954776 1.106292 0 11 22
-0.3352215 1.0891801 -0.025647927 12 21
-0.18957426 1.1076233 -0.050775934 12 20
-0.33211753 1.0798577 -0.075793378 12 19
-0.18659186 1.0922734 -0.096345536 16 18
-0.33004415 1.0731884 -0.12452716 17 17
-0.18605319 1.0913671 -0.14897086 103 16
-0.32622373 1.0596163 -0.18721531 66 15
-0.19746959 1.1778316 0.2682988 12 30
-0.19366109 1.1524682 0.17733228 74 28
-0.34191003 1.120452 0.13874696 28 27
-0.19097731 1.1363835 0.10680678 79 26
-0.33660233 1.104539 0.077910759 60 25
-0.1879237 1.1180352 0.05124177 18 24
-0.3339965 1.0973963 0.025822006 51 23
-0.18669647 1.111847 0 11 22
-0.33214948 1.0927333 -0.025705952 11 21
-0.18590021 1.108246 -0.050775934 12 20
-0.32999566 1.0857223 -0.076138675 11 19
-0.18480709 1.1052015 -0.097463235 45 18
-0.33012068 1.0861514 -0.1259487 12 17
-0.18264519 1.0944531 -0.1493149 105 16
-0.32415238 1.0654016 -0.1880741 67 15
-0.19218752 1.1713012 0.26660788 13 30
-0.18924089 1.1506993 0.17694594 77 28
-0.3351129 1.1121404 0.1375352 25 27
-0.18700942 1.1370434 0.10680678 79 26
-0.33491603 1.1128674 0.078431323 54 25
-0.18562213 1.1285442 0.051707603 11 24
-0.32852399 1.0938286 0.025705952 46 23
-0.18281426 1.112492 0 11 22
-0.32616222 1.0867093 -0.025531873 9 21
-0.18383336 1.1212455 -0.051358223 12 20
-0.32548168 1.0844805 -0.07596603 11 19
-0.18015359 1.1009234 -0.097016148 88 18
-0.3232626 1.0778439 -0.12481146 37 17
-0.17803533 1.0901948 -0.1486268 114 16
-0.3188183 1.061868 -0.18721531 71 15
-0.18675013 1.1647807 0.2649169 14 30
-0.18463485 1.1489456 0.1765596 74 28
-0.33103451 1.1133614 0.1375352 21 27
-0.18245055 1.1352632 0.10656891 76 26
-0.33011985 1.111698 0.078257799 56 25
-0.18070151 1.124284 0.051474687 11 24
-0.32541955 1.0973635 0.025763981 13 23
-0.17912708 1.1156237 0 11 22
-0.32360676 1.0926871 -0.025647927 9 21
-0.17913705 1.1169474 -0.051125307 12 20
-0.322218 1.0880561 -0.076138675 11 19
-0.17650554 1.1040361 -0.097239695 89 18
-0.31949827 1.0789658 -0.12481146 51 17
-0.17480886 1.0957321 -0.1493149 115 16
-0.31440452 1.0606147 -0.18678591 70 15
-0.18268315 1.1654255 0.2649169 17 30
-0.18100189 1.1520239 0.17694594 68 28
-0.32855406 1.1192693 0.13814108 22 27
-0.17963137 1.1432707 0.10728253 33 26
-0.32341069 1.1032764 0.077563718 58 25
-0.17754175 1.1298435 0.051707603 9 24
-0.31946498 1.0913012 0.0255899 11 23
-0.17561461 1.1187127 0 11 22
-0.31908405 1.0914125 -0.0255899 9 21
-0.17561914 1.1200339 -0.05124177 12 20
-0.31700799 1.0843894 -0.075793378 11 19
-0.17189138 1.0997236 -0.096792616 90 18
-0.31432584 1.0753095 -0.12424285 60 17
-0.17022958 1.0914408 -0.1486268 116 16
-0.31279141 1.0687922 -0.1880741 67 15
-0.17970659 1.173281 0.26660788 13 30
-0.17660925 1.1502066 0.1765596 13 28
-0.32325375 1.1156452 0.1375352 25 27
-0.17434543 1.1340183 0.10633103 11 26
-0.3216525 1.1115813 0.078084283 53 25
-0.17209959 1.1205801 0.05124177 11 24
-0.3177506 1.0996085 0.025763981 9 23
-0.17283133 1.1267344 0 11 22
-0.31476453 1.0900651 -0.025531873 9 21
-0.1702147 1.1107632 -0.050775934 12 20
-0.31322083 1.0854895 -0.075793378 11 19
-0.16787212 1.0978255 -0.096569069 90 18
-0.31126416 1.0787851 -0.12452716 64 17
-0.16697788 1.094448 -0.14897086 115 16
-0.30699244 1.0627837 -0.18678591 68 15
-0.17652731 1.1786894 0.26773518 11 30
-0.17388037 1.1581159 0.17771864 8 28
-0.31886461 1.1143266 0.13723224 26 27
-0.17002109 1.1321583 0.10609316 9 26
-0.31727418 1.1102452 0.077910759 46 25
-0.16874877 1.1236149 0.051358223 11 24
-0.31133842 1.0910486 0.025531873 9 23
-0.16726363 1.114936 0 11 22
-0.31233791 1.0959616 -0.025647927 11 21
-0.16653034 1.1113216 -0.050775934 63 20
-0.30893081 1.0841252 -0.075620733 20 19
-0.16440186 1.1008681 -0.096792616 90 18
-0.30699921 1.0774242 -0.12424285 64 17
-0.16351652 1.0974741 -0.1493149 110 16
-0.30414736 1.0661628 -0.18721531 70 15
-0.1710206 1.1696556 0.26548058 12 30
-0.32336882 1.1412348 0.22211629 12 29
-0.16948316 1.1562711 0.17733228 7 28
-0.31497294 1.115433 0.13723224 29 27
-0.1664243 1.1352078 0.10633103 11 26
-0.3154428 1.1185429 0.078431323 14 25
-0.16518307 1.1266687 0.051474687 11 24
-0.30870181 1.0969913 0.025647927 9 23
-0.16480049 1.1254103 0 11 22
-0.30714682 1.092236 -0.025531873 11 21
-0.1628122 1.1143962 -0.05089239 80 20
-0.30378395 1.080398 -0.075275436 47 19
-0.16091239 1.1039 -0.097016148 89 18
-0.3037253 1.0809318 -0.12452716 63 17
-0.15968466 1.0980382 -0.1493149 110 16
-0.29956537 1.064901 -0.18678591 71 15
-0.16741039 1.1750984 0.26660788 11 30
-0.32184577 1.1518635 0.22401066 12 29
-0.16627792 1.1642221 0.17849132 7 28
-0.31021187 1.1141907 0.13692932 26 27
-0.16295688 1.1407388 0.10680678 11 26
-0.31134105 1.1196915 0.078431323 9 25
-0.16070409 1.1247935 0.051358223 11 24
-0.30284935 1.0908418 0.025473846 9 23
-0.15928109 1.1161045 0 11 22
-0.30583337 1.1029825 -0.025763981 11 21
-0.15857369 1.1124848 -0.050775934 81 20
-0.3004936 1.0839061 -0.075448081 55 19
-0.15652008 1.1020164 -0.096792616 90 18
-0.29727522 1.0724173 -0.12338991 63 17
-0.15565906 1.0986161 -0.1493149 107 16
-0.29451841 1.0611969 -0.18592712 71 15
-0.1626464 1.1708494 0.26548058 11 30
-0.31256515 1.134059 0.22022191 12 29
-0.16154085 1.1599014 0.17771864 7 28
-0.30764541 1.1200498 0.1375352 29 27
-0.15897396 1.1413008 0.10680678 11 26
-0.30876023 1.1255789 0.078778364 8 25
-0.15711664 1.1278218 0.051474687 11 24
-0.30103597 1.0991197 0.025647927 9 23
-0.15538418 1.1166536 0 11 22
-0.30065224 1.0992247 -0.025647927 11 21
-0.15468943 1.1130315 -0.050775934 80 20
-0.29604506 1.0825441 -0.075275436 63 19
-0.15334566 1.1074903 -0.097239695 88 18
-0.2948508 1.0782373 -0.12395855 66 17
-0.15148932 1.0966991 -0.14897086 108 16
-0.29212373 1.0669665 -0.18678591 71 15
-0.15855838 1.1714101 0.26548058 11 30
-0.31249848 1.1493474 0.22306347 12 29
-0.15847364 1.1678028 0.17887768 7 28
-0.30438781 1.1235107 0.13783813 34 27
-0.15584925 1.1467547 0.10728253 11 26
-0.30351657 1.1218377 0.078431323 8 25
-0.15450343 1.1382643 0.051940519 26 24
-0.29588351 1.0953408 0.025531873 9 23
-0.15280969 1.1271011 0 45 22
-0.29503575 1.092981 -0.025473846 11 21
-0.15146384 1.1185154 -0.05100885 50 20
-0.29226449 1.083571 -0.075275436 62 19
-0.14934377 1.1055244 -0.097016148 87 18
-0.29238936 1.084053 -0.12452716 63 17
-0.14785169 1.0971954 -0.14897086 107 16
-0.28904495 1.0703559 -0.18721531 66 15
-0.15530121 1.1767601 0.26660788 12 30
-0.30804425 1.1480079 0.22258987 12 29
-0.15428078 1.1658727 0.17849132 8 28
-0.30259857 1.1317019 0.13874696 35 27
-0.15281086 1.1546952 0.10799617 12 26
-0.30044314 1.1252462 0.07860484 8 25
-0.14975916 1.1313415 0.051591143 63 24
-0.29484549 1.1059704 0.025763981 11 23
-0.14907125 1.1276016 0 12 22
-0.29381126 1.1036594 -0.025705952 35 21
-0.14549936 1.1016766 -0.050193641 14 20
-0.28802285 1.0821254 -0.075102776 63 19
-0.1458037 1.1085085 -0.097239695 85 18
-0.28814879 1.0826179 -0.12424285 64 17
-0.14433807 1.1001607 -0.1493149 104 16
-0.28421488 1.0665517 -0.1863565 68 15
-0.15149829 1.1797112 0.2671715 12 30
-0.30466792 1.151448 0.22306347 12 29
-0.15052105 1.1688545 0.17887768 8 28
-0.297371 1.1279547 0.13814108 39 27
-0.14815289 1.1502838 0.10752042 45 26
-0.29523343 1.1214672 0.078257799 8 25
-0.14580913 1.1318574 0.051591143 74 24
-0.29226425 1.1118246 0.025880035 11 23
-0.14419168 1.1206746 0 9 22
-0.28803787 1.0974301 -0.025531873 54 21
-0.14227977 1.1071327 -0.050426558 12 20
-0.28488216 1.0855352 -0.075275436 63 19
-0.1419334 1.1090107 -0.097239695 85 18
-0.2837323 1.0812162 -0.12395855 62 17
-0.14080556 1.1031148 -0.14965895 104 16
-0.2811214 1.069918 -0.18678591 63 15
-0.14767666 1.1826503 0.26773518 11 30
-0.29939768 1.1477566 0.22211629 12 29
-0.14644009 1.1693727 0.17887768 8 28
-0.2921733 1.124185 0.1375352 43 27
-0.14352755 1.145854 0.10704467 74 26
-0.28879058 1.1128402 0.077563718 9 25
-0.1424686 1.1373162 0.051824059 72 24
-0.28629217 1.1056337 0.025705952 11 23
-0.14119554 1.1286148 0 9 22
-0.28483665 1.100847 -0.0255899 63 21
-0.13761228 1.1026895 -0.050193641 11 20
-0.28109118 1.0865231 -0.075275436 60 19
-0.13775878 1.1070278 -0.097016148 84 18
-0.27914062 1.0798455 -0.12367423 63 17
-0.13635398 1.0986836 -0.14897086 105 16
-0.27782053 1.073324 -0.18721531 42 15
-0.14362942 1.1856022 0.2682988 12 30
-0.29642063 1.1535985 0.22306347 12 29
-0.14068657 1.157639 0.17694594 9 28
-0.2861895 1.1180401 0.13662636 49 27
-0.13932684 1.1463723 0.10704467 77 26
-0.28657815 1.1211363 0.078084283 9 25
-0.13800262 1.1353513 0.051707603 13 24
-0.28367755 1.1114671 0.025822006 11 23
-0.137058 1.1291248 0 9 22
-0.28079993 1.1018838 -0.0255899 62 21
-0.13553648 1.1180414 -0.05089239 12 20
-0.27710697 1.087546 -0.075275436 62 19
-0.13340686 1.1050527 -0.096792616 88 18
-0.27598807 1.0832188 -0.12395855 60 17
-0.13261724 1.101635 -0.1493149 105 16
-0.27345809 1.0719022 -0.18678591 25 15
-0.14060979 1.1957741 0.27055341 12 30
-0.29178444 1.1522478 0.22258987 12 29
-0.13721429 1.16303 0.17771864 9 28
-0.28350925 1.123842 0.13723224 51 27
-0.13523723 1.1443563 0.10680678 79 26
-0.27959132 1.1100441 0.077216677 9 25
-0.13461445 1.1407874 0.051940519 9 24
-0.27795169 1.1051831 0.025647927 18 23
-0.13225247 1.1221462 0 9 22
-0.27653006 1.1003863 -0.025531873 63 21
-0.13105889 1.1135463 -0.050659474 12 20
-0.27208373 1.0836712 -0.074930124 62 19
-0.13002697 1.1079625 -0.097016148 88 18
-0.27281538 1.0865831 -0.12424285 45 17
-0.12896337 1.1020688 -0.1493149 101 16
-0.27092642 1.0776244 -0.18764469 47 15
-0.28856155 1.1555895 0.22306347 12 29
-0.13391002 1.1683877 0.17849132 9 28
-0.2791768 1.1223691 0.13692932 51 27
-0.13096316 1.1423483 0.10656891 76 26
-0.27772763 1.1182226 0.077737242 9 25
-0.13027139 1.1362644 0.051707603 8 24
-0.27367845 1.1036741 0.0255899 47 23
-0.12797149 1.11761 0 9 22
-0.27268729 1.1013448 -0.025531873 64 21
-0.12820193 1.1214197 -0.05100885 12 20
-0.26969796 1.0894071 -0.075275436 60 19
-0.12615867 1.1084096 -0.097016148 80 18
-0.2674042 1.0802529 -0.12338991 21 17
-0.12538993 1.1049731 -0.14965895 105 16
-0.2661556 1.0737387 -0.18678591 67 15
-0.28097787 1.142295 0.22022191 12 29
-0.12902662 1.1614816 0.17733228 33 28
-0.27406588 1.1185188 0.13632344 53 27
-0.12778501 1.1502202 0.10728253 16 26
-0.27322474 1.1167638 0.077563718 11 25
-0.1268463 1.1416773 0.051940519 8 24
-0.27022934 1.1070967 0.025647927 51 23
-0.12542385 1.1304762 0 9 22
-0.26943862 1.1047167 -0.0255899 55 21
-0.12463027 1.1268475 -0.05124177 12 20
-0.26529738 1.08792 -0.075102776 62 19
-0.12255688 1.1113188 -0.097239695 79 18
-0.26522303 1.0884613 -0.12424285 12 17
-0.1215321 1.105404 -0.14965895 101 16
-0.26162919 1.0723156 -0.1863565 75 15
-0.27737188 1.1457019 0.2206955 12 29
-0.12528682 1.1668596 0.17810498 71 28
-0.27055132 1.1219268 0.13662636 51 27
-0.1243514 1.1581057 0.10799617 9 26
-0.27148566 1.1274515 0.078257799 20 25
-0.12239908 1.1396509 0.051824059 8 24
-0.26695257 1.110462 0.025705952 38 23
-0.12049434 1.1234696 0 11 22
-0.26656494 1.1105549 -0.025705952 37 21
-0.12121816 1.1322429 -0.051474687 12 20
-0.26072085 1.0864611 -0.074930124 49 19
-0.11822389 1.109284 -0.097016148 87 18
-0.25966728 1.0821387 -0.12338991 13 17
-0.11747978 1.1058421 -0.14965895 100 16
-0.25788453 1.0732223 -0.1863565 81 15
-0.27394524 1.1490496 0.2211691 12 29
-0.12096248 1.1648325 0.17771864 71 28
-0.26663342 1.1228644 0.13662636 51 27
-0.11980338 1.153581 0.10752042 8 26
-0.26638746 1.1235414 0.077910759 33 25
-0.11867345 1.1425557 0.051940519 8 24
-0.26191291 1.1065251 0.0255899 13 23
-0.11707813 1.1288577 0 11 22
-0.26152661 1.1066165 -0.0255899 12 21
-0.11625569 1.1227211 -0.05100885 49 20
-0.25866333 1.0946424 -0.075448081 29 19
-0.11435103 1.10969 -0.097016148 84 18
-0.25704128 1.0878706 -0.12395855 46 17
-0.11361895 1.1062455 -0.14965895 100 16
-0.25241944 1.0669298 -0.18506834 87 15
-0.26766878 1.1404446 0.21927471 13 29
-0.11641195 1.1603316 0.17694594 66 28
-0.26214224 1.1213733 0.13632344 53 27
-0.11622144 1.1564486 0.10775829 7 26
-0.26131985 1.1196095 0.077563718 12 25
-0.11468446 1.1429629 0.051940519 8 24
-0.25862128 1.1098655 0.025647927 11 23
-0.11338135 1.1317474 0 11 22
-0.25842753 1.1099107 -0.025647927 11 21
-0.11209225 1.1206347 -0.05089239 84 20
-0.25369999 1.0906827 -0.075102776 45 19
-0.11115479 1.1150196 -0.097463235 88 18
-0.25267428 1.0863431 -0.12367423 62 17
-0.11018981 1.1090808 -0.150003 99 16
-0.24869362 1.0678043 -0.18506834 90 15
-0.26500157 1.1461068 0.22022191 12 29
-0.11279724 1.16317 0.17733228 49 28
-0.25898418 1.1246535 0.13662636 51 27
-0.11171298 1.1518923 0.10728253 8 26
-0.25704169 1.1180407 0.077390201 9 25
-0.1118389 1.1532813 0.052406352 9 24
-0.25211763 1.0985432 0.025357792 9 23
-0.10915543 1.1271396 0 11 22
-0.25455165 1.1108061 -0.025647927 11 21
-0.10814003 1.1185141 -0.050775934 87 20
-0.25008178 1.091518 -0.075102776 55 19
-0.1070285 1.1129217 -0.097239695 90 18
-0.24907047 1.087175 -0.12367423 68 17
-0.1060864 1.1069932 -0.14965895 99 16
-0.24626352 1.0734217 -0.18592712 90 15
-0.26099926 1.1470248 0.22022191 12 29
-0.10828603 1.1586372 0.1765596 41 28
-0.25616401 1.1303886 0.13723224 47 27
-0.10791829 1.1547534 0.10752042 8 26
-0.25258192 1.1164997 0.077216677 9 25
-0.10781252 1.1536647 0.052406352 9 24
-0.24975584 1.1067704 0.025531873 9 23
-0.10613012 1.1374723 0 11 22
-0.25122765 1.1141248 -0.025705952 11 21
-0.10403974 1.1189029 -0.050775934 88 20
-0.24627015 1.0923843 -0.075102776 63 19
-0.10291822 1.1108085 -0.097016148 90 18
-0.24508408 1.0880806 -0.12367423 70 17
-0.10177622 1.1024244 -0.14897086 100 16
-0.24342223 1.0791197 -0.18678591 97 15
-0.25787529 1.1527625 0.2211691 12 29
-0.10490324 1.1688684 0.17810498 25 28
-0.24984035 1.1216357 0.13602048 13 27
-0.1036852 1.1551414 0.10752042 8 26
-0.24794146 1.1149846 0.077043161 9 25
-0.10336487 1.1515644 0.052289892 9 24
-0.24534406 1.1051966 0.025473846 9 23
-0.10217869 1.1403441 0 54 22
-0.24659644 1.1125993 -0.025647927 12 21
-0.10056872 1.1242348 -0.05100885 90 20
-0.24226469 1.0932796 -0.075102776 63 19
-0.099277653 1.1161398 -0.097463235 90 18
-0.24182716 1.0913533 -0.12395855 70 17
-0.098375946 1.1101911 -0.150003 98 16
-0.23803709 1.0727533 -0.18549772 100 15
-0.25331727 1.1512594 0.2206955 12 29
-0.10061492 1.1667663 0.17771864 17 28
-0.24699612 1.1273469 0.13662636 9 27
-0.099861473 1.157976 0.10775829 9 26
-0.24512412 1.1207138 0.077390201 9 25
-0.099764198 1.1568949 0.052522808 9 24
-0.24363828 1.115809 0.025705952 11 23
-0.097359009 1.1307291 0 80 22
-0.24271126 1.1134531 -0.025647927 32 21
-0.096852764 1.1270676 -0.051125307 89 20
-0.23844697 1.0941187 -0.075102776 67 19
-0.094966866 1.1115166 -0.097016148 90 18
-0.23748195 1.0897651 -0.12367423 68 17
-0.094705097 1.1129954 -0.15034704 99 16
-0.23482159 1.0759828 -0.18592712 101 15
-0.25034544 1.1569328 0.22164267 12 29
-0.097138397 1.1744963 0.17887768 18 28
-0.24517065 1.1379014 0.13783813 7 27
-0.096422717 1.1632619 0.10823404 9 26
-0.24174017 1.1239996 0.077563718 9 25
-0.095322989 1.1522579 0.052289892 9 24
-0.23921204 1.1142101 0.025647927 11 23
-0.093813293 1.1360458 0 80 22
-0.23742922 1.1069241 -0.025473846 54 21
-0.092917971 1.1273987 -0.051125307 85 20
-0.23462634 1.0949442 -0.075102776 63 19
-0.09167809 1.1167896 -0.097463235 90 18
-0.23420227 1.093015 -0.12395855 66 17
-0.091210634 1.1157718 -0.15069108 95 16
-0.2315864 1.0792025 -0.1863565 109 15
-0.24444261 1.1481572 0.2197483 13 29
-0.09305229 1.1723493 0.17849132 17 28
-0.24087614 1.1362816 0.1375352 7 27
-0.091784902 1.1561477 0.10752042 9 26
-0.23696853 1.1199175 0.077216677 9 25
-0.090922751 1.1450982 0.051940519 12 24
-0.23708117 1.12233 0.025822006 11 23
-0.089660183 1.1313655 0 83 22
-0.23408481 1.1101906 -0.025531873 66 21
-0.088986851 1.1252108 -0.05100885 90 20
-0.23099408 1.0957164 -0.075102776 67 19
-0.087779202 1.1171029 -0.097463235 90 18
-0.22902335 1.0864979 -0.12310562 64 17
-0.086938806 1.1111453 -0.150003 96 16
-0.22749223 1.0775561 -0.18592712 124 15
-0.23992547 1.146602 0.21927471 13 29
-0.090234771 1.1899097 0.18119575 14 28
-0.23793086 1.1419722 0.13814108 7 27
-0.087748639 1.1564611 0.10752042 9 26
-0.23305784 1.1207379 0.077216677 9 25
-0.086556673 1.1404277 0.051707603 66 24
-0.23213558 1.1182586 0.025705952 11 23
-0.086078361 1.1366581 0 80 22
-0.22969571 1.1085546 -0.025473846 67 21
-0.085058592 1.1255146 -0.05100885 87 20
-0.22665659 1.0940748 -0.074930124 64 19
-0.083879255 1.1174024 -0.097463235 83 18
-0.22573856 1.0897217 -0.12338991 63 17
-0.08323928 1.1139115 -0.15034704 95 16
-0.22372945 1.0783437 -0.18592712 132 15
-0.23642106 1.1498357 0.2197483 12 29
-0.086080655 1.1902173 0.18119575 14 28
-0.23243476 1.1355054 0.13723224 7 27
-0.083536386 1.1542778 0.10728253 9 26
-0.22964878 1.123987 0.077390201 9 25
-0.082750805 1.143214 0.051824059 74 24
-0.22702685 1.1142058 0.0255899 22 23
-0.081759639 1.1319638 0 81 22
-0.22582473 1.1093496 -0.025473846 67 21
-0.080758587 1.1233275 -0.05089239 87 20
-0.22283617 1.0948594 -0.074930124 63 19
-0.080151096 1.1201724 -0.097686768 87 18
-0.22124274 1.0881089 -0.12310562 50 17
-0.079350494 1.1141953 -0.15034704 96 16
-0.2202725 1.0815685 -0.1863565 137 15
-0.23269577 1.1530999 0.22022191 12 29
-0.081388608 1.185596 0.18042305 17 28
-0.22678971 1.129054 0.13632344 7 27
-0.079471 1.1570594 0.10752042 13 26
-0.22503212 1.1223768 0.077216677 9 25
-0.078726545 1.1460013 0.051940519 47 24
-0.22313617 1.1149917 0.0255899 49 23
-0.078108586 1.1397393 0 45 22
-0.22225212 1.1126198 -0.025531873 70 21
-0.077002466 1.1260943 -0.05100885 84 20
-0.21882182 1.0956688 -0.074930124 63 19
-0.075881213 1.117974 -0.097463235 84 18
-0.21941033 1.098613 -0.12424285 26 17
-0.075428188 1.1169497 -0.15069108 90 16
-0.21600734 1.0799171 -0.18592712 146 15
-0.22818702 1.1514981 0.2197483 13 29
-0.22430338 1.1371396 0.13723224 8 27
-0.075431623 1.1573297 0.10752042 71 26
-0.22062594 1.1207095 0.077043161 11 25
-0.075198792 1.153746 0.052289892 12 24
-0.21972996 1.1182152 0.025647927 58 23
-0.073342621 1.12753 0 12 22
-0.21739435 1.1084856 -0.025415819 67 21
-0.073227994 1.1288487 -0.051125307 83 20
-0.21402532 1.0915332 -0.074584827 62 19
-0.072288379 1.1232023 -0.097910315 80 18
-0.21460754 1.0944995 -0.12367423 12 17
-0.071068868 1.1097918 -0.14965895 90 16
-0.21271645 1.0830801 -0.1863565 154 15
-0.22068042 1.1294931 0.29776752 8 31
-0.22369233 1.1498792 0.21927471 13 29
-0.21842502 1.1281743 0.13602048 8 27
-0.071593359 1.1575736 0.10752042 71 26
-0.21766947 1.1263682 0.077390201 11 25
-0.071171008 1.1540016 0.052289892 9 24
-0.21582532 1.1189755 0.025647927 59 23
-0.07000117 1.1377614 0 11 22
-0.21419549 1.1116537 -0.025473846 68 21
-0.069139026 1.1266044 -0.05100885 85 20
-0.21116734 1.0971696 -0.074930124 58 19
-0.068416506 1.1209502 -0.097686768 79 18
-0.21126051 1.0976801 -0.12395855 12 17
-0.067678526 1.1149652 -0.15034704 90 16
-0.20940614 1.0862333 -0.18678591 163 15
-0.21831511 1.1373324 0.29970106 8 31
-0.22080968 1.1554348 0.22022191 12 29
-0.21655798 1.13864 0.13723224 8 27
-0.067552239 1.1578164 0.10752042 68 26
-0.21346278 1.1246345 0.077216677 14 25
-0.067343809 1.1542312 0.052289892 9 24
-0.21117255 1.1147757 0.025531873 62 23
-0.066227831 1.1379871 0 11 22
-0.21031377 1.1123945 -0.025473846 67 21
-0.065542534 1.129321 -0.051125307 81 20
-0.20612198 1.0905151 -0.074412182 56 19
-0.064226992 1.1162099 -0.097239695 70 18
-0.20761932 1.0983745 -0.12395855 12 17
-0.06351316 1.1102496 -0.14965895 90 16
-0.20533928 1.0845027 -0.1863565 178 15
-0.21524817 1.142833 0.3009901 7 31
-0.21677512 1.1561985 0.22022191 12 29
-0.21120112 1.1320736 0.13632344 9 27
-0.063904934 1.1655005 0.10823404 51 26
-0.20999753 1.1278236 0.077390201 45 25
-0.062786363 1.1444839 0.051824059 9 24
-0.20800819 1.1204549 0.025647927 59 23
-0.062123399 1.1357149 0 11 22
-0.20642951 1.1131219 -0.025473846 68 21
-0.061272223 1.1270597 -0.05100885 77 20
-0.20415437 1.1010329 -0.075102776 35 19
-0.060589191 1.1214006 -0.097686768 75 18
-0.20313442 1.0966868 -0.12367423 12 17
-0.059637282 1.1104647 -0.14965895 90 16
-0.20181774 1.0876688 -0.18678591 195 15
-0.21298459 1.1593987 0.2206955 12 29
-0.2075018 1.1352801 0.13662636 9 27
-0.059836194 1.1657166 0.10823404 41 26
-0.20586245 1.1285858 0.077390201 53 25
-0.058836926 1.1496949 0.052056976 11 24
-0.20454869 1.1236321 0.025705952 56 23
-0.058328062 1.1434259 0 12 22
-0.20209026 1.1113776 -0.025415819 67 21
-0.057215687 1.1247723 -0.05089239 74 20
-0.20011753 1.1017739 -0.075102776 12 19
-0.056674406 1.1216052 -0.097686768 79 18
-0.20110191 1.1071603 -0.12481146 12 17
-0.055999145 1.1156127 -0.15034704 89 16
-0.1989124 1.0932107 -0.18764469 235 15
-0.2082575 1.1552689 0.2197483 13 29
-0.20329268 1.1335205 0.13632344 17 27
-0.055880919 1.1684045 0.10847192 20 26
-0.20256342 1.131716 0.077563718 53 25
-0.055024076 1.1498836 0.052056976 9 24
-0.19948725 1.116926 0.025531873 58 23
-0.054650281 1.1461104 0 12 22
-0.19865349 1.1145358 -0.025473846 64 21
-0.053599216 1.1274507 -0.05100885 68 20
