# .PCD v0.7 - Point Cloud Data file format
VERSION 0.7
FIELDS x y z intensity ring
SIZE 4 4 4 4 2
TYPE F F F F U
COUNT 1 1 1 1 1
WIDTH 1227
HEIGHT 1
VIEWPOINT 0 0 0 1 0 0 0
POINTS 1227
DATA ascii
-0.26545772 1.1047709 -0.051358223 9 20
-0.43158078 1.129971 -0.081318185 8 19
-0.2626043 1.0944625 -0.097910315 7 18
-0.26083422 1.0886834 -0.15069108 38 16
-0.2730056 1.1515265 0.17965037 12 28
-0.27156556 1.1454544 0.10918555 44 26
-0.44371495 1.1706862 0.084678069 9 25
-0.26789388 1.1298635 0.052522808 62 24
-0.43979448 1.1616032 0.028027033 9 23
-0.26454628 1.1164994 0 66 22
-0.4349452 1.1500769 -0.027736897 9 21
-0.26065132 1.1007828 -0.051125307 9 20
-0.42517066 1.1244029 -0.080800228 9 19
-0.2576468 1.0905238 -0.097463235 8 18
-0.25759614 1.0919982 -0.15103512 58 16
-0.26842746 1.1500659 0.17926401 12 28
-0.26644331 1.1415462 0.1087098 56 26
-0.43874541 1.1698945 0.084504545 9 25
-0.26169613 1.1210599 0.052056976 67 24
-0.43641499 1.1655462 0.028085059 9 23
-0.25952089 1.1125447 0 51 22
-0.42652512 1.1398929 -0.027446764 11 21
-0.25549147 1.096864 -0.05089239 11 20
-0.42036444 1.123546 -0.080627583 9 19
-0.2538386 1.0914165 -0.097463235 8 18
-0.2515614 1.0832384 -0.14965895 47 16
-0.26311436 1.1462253 0.17849132 12 28
-0.26115316 1.1376619 0.10823404 67 26
-0.43445459 1.1714947 0.084504545 9 25
-0.25813964 1.1244466 0.052173436 65 24
-0.43234378 1.1670625 0.028085059 9 23
-0.25544146 1.1134883 0 11 22
-0.42496032 1.1484753 -0.027620843 22 21
-0.2522144 1.1001843 -0.05100885 11 20
-0.41363308 1.1180673 -0.080109626 9 19
-0.25148779 1.0996245 -0.098133847 9 18
-0.24922895 1.0913986 -0.15069108 12 16
-0.25803235 1.142316 0.17771864 12 28
-0.25663665 1.1361381 0.10799617 70 26
-0.42949903 1.1706643 0.084331021 9 25
-0.25366735 1.1229038 0.052056976 67 24
-0.42567345 1.1615295 0.027910979 9 23
-0.25046155 1.1094939 0 11 22
-0.41835737 1.1429158 -0.027446764 39 21
-0.24891728 1.1034952 -0.051125307 35 20
-0.40972781 1.1195042 -0.080109626 9 19
-0.24818975 1.1029261 -0.098357394 38 18
-0.24326549 1.0825936 -0.1493149 7 16
-0.25351211 1.1407976 0.17733228 13 28
-0.25286767 1.1369829 0.10799617 67 26
-0.42455465 1.1698139 0.084157504 9 25
-0.24974614 1.1237824 0.052056976 69 24
-0.41733411 1.1512685 0.027620843 9 23
-0.24766168 1.1152445 0 31 22
-0.41370893 1.1419486 -0.027388735 43 21
-0.24452759 1.1019183 -0.05100885 63 20
-0.40581748 1.1209276 -0.080109626 9 19
-0.24292943 1.0964468 -0.097686768 11 18
-0.40333307 1.1141269 -0.13163488 7 17
-0.24020419 1.0858133 -0.14965895 4 16
-0.24868125 1.1368042 0.1765596 13 28
-0.24837013 1.1354264 0.10775829 70 26
-0.42152068 1.1735607 0.084331021 9 25
-0.24601819 1.1246045 0.052056976 54 24
-0.41521135 1.1573476 0.027736897 11 23
-0.24290371 1.1111729 0 65 22
-0.40972024 1.1433858 -0.027388735 44 21
-0.24087216 1.1027232 -0.05100885 67 20
-0.40125209 1.1199211 -0.079936981 9 19
-0.23962601 1.099722 -0.097910315 7 18
-0.40216401 1.1224679 -0.1324878 8 17
-0.23432615 1.0769625 -0.14828277 7 16
-0.24419677 1.1352497 0.17617325 12 28
-0.24440524 1.1362864 0.10775829 69 26
-0.41406372 1.1656312 0.08363694 9 25
-0.24313208 1.1303413 0.052289892 48 24
-0.40844655 1.1518 0.027562818 12 23
-0.23902351 1.1120142 0 71 22
-0.40404734 1.140101 -0.027272681 46 21
-0.23630962 1.1011559 -0.05089239 69 20
-0.3948268 1.1142676 -0.079419032 11 19
-0.23320155 1.0883729 -0.096792616 7 18
-0.39804724 1.1239343 -0.1324878 8 17
-0.23056541 1.0777738 -0.14828277 7 16
-0.24155203 1.1433897 0.17733228 13 28
-0.23870957 1.1298668 0.10704467 67 26
-0.40812695 1.1624379 0.083289899 9 25
-0.23694138 1.1214476 0.051824059 70 24
-0.40525538 1.1555756 0.027620843 13 23
-0.23545784 1.1153299 0 69 22
-0.40152794 1.1462884 -0.027388735 30 21
-0.23195377 1.0995296 -0.050775934 67 20
-0.39239863 1.1204115 -0.079764329 11 19
-0.22971879 1.091658 -0.097016148 7 18
-0.39246988 1.1206319 -0.13191918 8 17
-0.2256051 1.0737629 -0.14759469 8 16
-0.23755939 1.144226 0.17733228 13 28
-0.23626795 1.1380062 0.10775829 43 26
-0.4040668 1.1638554 0.083289899 9 25
-0.23252238 1.1198218 0.051707603 70 24
-0.39792478 1.1475443 0.027388735 26 23
-0.23106004 1.113696 0 71 22
-0.39752418 1.147683 -0.027388735 9 21
-0.22861642 1.1027789 -0.05089239 65 20
-0.38684323 1.1170644 -0.079419032 13 19
-0.22740503 1.0997715 -0.097686768 4 18
-0.38610283 1.1149591 -0.13106626 9 17
-0.22334298 1.0818222 -0.1486268 9 16
-0.23356384 1.1450483 0.17733228 12 28
-0.23298609 1.141223 0.10799617 12 26
-0.3959296 1.1534728 0.082422301 11 25
-0.2291065 1.1230743 0.051824059 69 24
-0.392286 1.144201 0.027272681 38 23
-0.22568741 1.107144 0 73 22
-0.38964146 1.1371813 -0.027098602 7 21
-0.22575283 1.1084663 -0.051125307 12 20
-0.38538003 1.1254816 -0.079936981 35 19
-0.22179155 1.0907553 -0.096792616 7 18
-0.38058957 1.1116036 -0.13049763 8 17
-0.21975431 1.0825567 -0.1486268 11 16
-0.2288034 1.1409712 0.1765596 12 28
-0.22754705 1.134706 0.10728253 51 26
-0.39290902 1.1571393 0.082595818 11 25
-0.22489467 1.1213785 0.051707603 71 24
-0.38848957 1.1454957 0.027272681 44 23
-0.22201476 1.1078864 0 70 22
-0.38647628 1.1409 -0.027156627 4 21
-0.22013384 1.0994102 -0.050659474 7 20
-0.37842572 1.117311 -0.079246379 43 19
-0.21798277 1.0915228 -0.096792616 7 18
-0.37850466 1.1175613 -0.13106626 9 17
-0.21501561 1.0784585 -0.14793873 11 16
-0.22340162 1.13449 0.17540057 13 28
-0.22263254 1.1306082 0.10680678 69 26
-0.38806906 1.156141 0.082422301 11 25
-0.21954557 1.1148032 0.051358223 74 24
-0.38348967 1.1445438 0.027214656 47 23
-0.2171904 1.1037469 0 73 22
-0.37929773 1.1327686 -0.026924521 7 21
-0.21610281 1.1002096 -0.050659474 4 20
-0.37452328 1.1186252 -0.079246379 46 19
-0.21322279 1.0873884 -0.096345536 8 18
-0.37123382 1.1095259 -0.12992902 9 17
-0.21077898 1.0767714 -0.14759469 38 16
-0.37169456 1.1096712 -0.19795014 8 15
-0.22063299 1.1425792 0.1765596 13 28
-0.21801999 1.1289722 0.10656891 71 26
-0.38461867 1.1599212 0.082595818 11 25
-0.21686456 1.1229591 0.051707603 69 24
-0.37870154 1.1435044 0.027156627 48 23
-0.2131435 1.1045355 0 70 22
-0.37593314 1.1365227 -0.026982548 7 21
-0.21132514 1.0960511 -0.050426558 4 20
-0.36963278 1.1176243 -0.079073727 46 19
-0.20970117 1.0906086 -0.096569069 9 18
-0.36971307 1.1178846 -0.13078195 11 17
-0.20729287 1.0799695 -0.14793873 69 16
-0.36703971 1.1086254 -0.19752073 11 15
-0.2157329 1.138487 0.1757869 12 28
-0.21453644 1.1321722 0.10680678 74 26
-0.3790046 1.1565199 0.082248777 9 25
-0.21156266 1.1163456 0.051358223 71 24
-0.37392536 1.1424454 0.027098602 48 23
-0.20928667 1.1052728 0 66 22
-0.36961928 1.1307058 -0.026808467 8 21
-0.20841669 1.1016915 -0.050659474 4 20
-0.36728886 1.1236457 -0.079419032 40 19
-0.20634972 1.0937817 -0.096792616 9 18
-0.3658087 1.1191684 -0.13078195 11 17
-0.20352182 1.0806866 -0.14793873 70 16
-0.36316767 1.1098999 -0.19752073 9 15
-0.21041737 1.1319456 0.17462789 13 28
-0.20987977 1.1279824 0.10633103 73 26
-0.37573844 1.160207 0.082422301 9 25
-0.20811626 1.1195335 0.051474687 70 24
-0.36916119 1.1413672 0.027040575 48 23
-0.20678243 1.1133729 0 11 22
-0.36354691 1.1247954 -0.026634384 12 21
-0.20321737 1.0950434 -0.050310094 7 20
-0.36182135 1.1201775 -0.079073727 13 19
-0.20047827 1.0822138 -0.09567491 11 18
-0.35959476 1.1133527 -0.12992902 13 17
-0.20082761 1.0862272 -0.1486268 69 16
-0.35471499 1.0971102 -0.19494438 8 15
-0.20666255 1.1326371 0.17462789 13 28
-0.38039023 1.1864167 0.1478352 8 27
-0.20594111 1.1287081 0.10633103 73 26
-0.37035841 1.1566993 0.082075261 9 25
-0.20440261 1.1202174 0.051474687 70 24
-0.36384204 1.137827 0.026924521 48 23
-0.20131493 1.1042113 0 8 22
-0.36191434 1.1331956 -0.026808467 36 21
-0.19869964 1.0907959 -0.050077178 7 20
-0.35581374 1.1142484 -0.078555778 8 19
-0.19625936 1.0804563 -0.095451377 11 18
-0.35818234 1.1216325 -0.13078195 30 17
-0.19528756 1.077172 -0.14725064 74 16
-0.34881011 1.0912476 -0.19365619 8 15
-0.20356801 1.138216 0.17540057 13 28
-0.37247619 1.175916 0.14632048 9 27
-0.20156652 1.1269696 0.10609316 73 26
-0.36707553 1.1603614 0.082248777 9 25
-0.20005614 1.1184651 0.051358223 70 24
-0.35966927 1.139153 0.026924521 48 23
-0.19658934 1.0999836 0 8 22
-0.35719955 1.1320701 -0.02675044 47 21
-0.195134 1.0939761 -0.050193641 8 20
-0.3534328 1.1202375 -0.078901075 4 19
-0.1929182 1.0835871 -0.09567491 54 18
-0.35181338 1.1158359 -0.12992902 43 17
-0.19152632 1.0778471 -0.14725064 73 16
-0.34704715 1.0995598 -0.19494438 8 15
-0.19855234 1.134087 0.17462789 15 28
-0.36518216 1.1678054 0.14510871 9 27
-0.19701013 1.1252484 0.10585528 70 26
-0.35982695 1.1521826 0.081554696 9 25
-0.19552951 1.1167301 0.05124177 70 24
-0.35569069 1.1404015 0.026924521 48 23
-0.19383425 1.1080871 0 9 22
-0.35229966 1.1309869 -0.026692413 47 21
-0.19003892 1.087268 -0.049844261 8 20
-0.34633797 1.1120068 -0.078210473 4 19
-0.18810026 1.0793791 -0.09522783 69 18
-0.34568554 1.1099478 -0.12907609 46 17
-0.18715523 1.0761017 -0.1469066 75 16
-0.34099245 1.0937155 -0.19365619 8 15
-0.19417965 1.1323378 0.17424153 16 28
-0.36036637 1.1667033 0.14480577 9 27
-0.19349699 1.1283832 0.10609316 70 26
-0.35506293 1.1510501 0.081381179 11 25
-0.1916302 1.1174059 0.05124177 47 24
-0.35022631 1.1368623 0.026808467 48 23
-0.1891304 1.103827 0 9 22
-0.34834966 1.1322098 -0.026692413 27 21
-0.18665896 1.0903871 -0.049960721 8 20
-0.34466928 1.1203557 -0.07872843 4 19
-0.18433139 1.080029 -0.09522783 71 18
-0.34107369 1.1087751 -0.12879178 47 17
-0.18380858 1.0791901 -0.14725064 70 16
-0.33790255 1.0972515 -0.1940856 8 15
-0.19022587 1.1330088 0.17424153 17 28
-0.35629162 1.1679541 0.14480577 8 27
-0.18893857 1.1241084 0.1056174 75 26
-0.35250619 1.157051 0.08172822 11 25
-0.18609363 1.1082135 0.050775934 11 24
-0.34552339 1.1356882 0.02675044 48 23
-0.18486743 1.1020142 0 9 22
-0.3453252 1.1357485 -0.02675044 9 21
-0.18162806 1.0836408 -0.049611345 8 20
-0.33710632 1.109628 -0.077865176 4 19
-0.18074887 1.0806345 -0.09522783 67 18
-0.33647427 1.1075839 -0.12850748 48 17
-0.18022884 1.0797936 -0.14725064 70 16
-0.33334863 1.0960695 -0.19365619 9 15
-0.19257733 1.1737053 0.2671715 9 30
-0.18765618 1.1409473 0.17540057 19 28
-0.34809065 1.1548821 0.14298813 9 27
-0.18501355 1.1247612 0.1056174 73 26
-0.34794354 1.1558268 0.081554696 11 25
-0.18361932 1.1162194 0.051125307 9 24
-0.34103093 1.1344357 0.026692413 47 23
-0.1800103 1.0952179 0 9 22
-0.33846402 1.1273779 -0.02651833 7 21
-0.17923267 1.0916325 -0.049960721 8 20
-0.33486903 1.1155142 -0.078210473 4 19
-0.17697565 1.0812588 -0.09522783 69 18
-0.33279955 1.1086936 -0.12850748 48 17
-0.17606439 1.0779717 -0.1469066 71 16
-0.32685652 1.0877404 -0.19193862 11 15
-0.18542767 1.1551257 0.26266229 11 30
-0.18173406 1.1293986 0.17346883 27 28
-0.34263191 1.1513362 0.14238225 9 27
-0.18069567 1.1229423 0.10537952 74 26
-0.34247601 1.152256 0.081207655 11 25
-0.17854601 1.1094545 0.050775934 9 24
-0.33615503 1.1332834 0.026634384 47 23
-0.17579424 1.0933707 0 11 22
-0.33667248 1.1357367 -0.026692413 4 21
-0.17562109 1.0947485 -0.050077178 46 20
-0.32883179 1.1095071 -0.077692531 7 19
-0.17242296 1.076951 -0.094780758 69 18
-0.32873371 1.1099061 -0.12850748 48 17
-0.1723005 1.0785798 -0.1469066 74 16
-0.32427809 1.0936506 -0.19279741 12 15
-0.17970221 1.1461698 0.26040769 12 30
-0.1775934 1.1300571 0.17346883 35 28
-0.33911371 1.1549637 0.14268519 9 27
-0.17657869 1.123597 0.10537952 58 26
-0.33754385 1.1511117 0.081034139 11 25
-0.17562719 1.1175047 0.051125307 12 24
-0.33361176 1.1392441 0.02675044 36 23
-0.17255145 1.0989486 0 40 22
-0.32968158 1.1273736 -0.026460305 4 21
-0.17065249 1.0879512 -0.049727805 13 20
-0.32476303 1.1107049 -0.077692531 8 19
-0.16847457 1.0775757 -0.094780758 36 18
-0.3241553 1.1086642 -0.12822317 48 17
-0.16796945 1.0767565 -0.14656255 75 16
-0.31697348 1.0829651 -0.19065045 16 15
-0.17715707 1.1564231 0.26266229 15 30
-0.17512846 1.1404383 0.17501421 39 28
-0.33160174 1.14423 0.14117049 9 27
-0.17285173 1.1241764 0.10537952 12 26
-0.33212703 1.1474946 0.080687098 12 25
-0.1709767 1.1131728 0.05089239 50 24
-0.32753614 1.1332029 0.026576359 12 23
-0.16834007 1.0970724 0 66 22
-0.32594126 1.1284608 -0.026460305 4 21
-0.16760066 1.0934787 -0.049960721 8 20
-0.3201873 1.109437 -0.077519879 8 19
-0.1645288 1.0756665 -0.094557218 11 18
-0.31958959 1.1074041 -0.12793887 50 17
-0.16402932 1.074859 -0.14621851 74 16
-0.31525758 1.0911586 -0.19193862 26 15
-0.17296505 1.1545949 0.26209864 17 30
-0.17025939 1.1336832 0.17385519 56 28
-0.32711774 1.1429391 0.14086755 9 27
-0.16929139 1.1272347 0.1056174 12 26
-0.32762963 1.1461931 0.080513574 13 25
-0.16691825 1.1112634 0.050775934 73 24
-0.32446748 1.1366848 0.026634384 7 23
-0.1650672 1.1000977 0 66 22
-0.31923953 1.119983 -0.026228197 7 21
-0.16251266 1.0841467 -0.049494889 7 20
-0.31926134 1.1200809 -0.078210473 11 19
-0.16149879 1.0811609 -0.095004298 9 18
-0.31385791 1.1012961 -0.12708594 50 17
-0.1599163 1.072975 -0.14587446 75 16
-0.30959472 1.0850976 -0.19065045 43 15
-0.16893372 1.1551915 0.26209864 8 30
-0.16594748 1.1318259 0.17346883 67 28
-0.32516447 1.1512341 0.14177637 9 27
-0.16464309 1.1228927 0.10514165 50 26
-0.32499063 1.1521275 0.080860615 17 25
-0.16232321 1.1068959 0.050543014 75 24
-0.31757033 1.1282486 0.026402276 4 23
-0.15979639 1.0907699 0 70 22
-0.31464633 1.118686 -0.026170168 7 21
-0.15960653 1.0921503 -0.049844261 7 20
-0.31262827 1.1115907 -0.077519879 36 19
-0.15701528 1.0767889 -0.094557218 11 18
-0.31117359 1.1072185 -0.12765455 48 17
-0.15616997 1.0735267 -0.14587446 73 16
-0.30763224 1.0933329 -0.19193862 48 15
-0.16402064 1.1509792 0.26097134 8 30
-0.16283184 1.139764 0.17462789 70 28
-0.31893075 1.1452507 0.14086755 9 27
-0.15983196 1.11856 0.1046659 73 26
-0.31874615 1.1461068 0.080340058 32 25
-0.15826516 1.1074834 0.050543014 71 24
-0.31497771 1.1341639 0.02651833 4 23
-0.15753926 1.1037264 0 36 22
-0.31390887 1.1318668 -0.026460305 7 21
-0.15475057 1.0852818 -0.049494889 7 20
-0.30720893 1.1079252 -0.077174574 47 19
-0.15168661 1.0674934 -0.093663067 11 18
-0.30596924 1.103514 -0.12708594 50 17
-0.15257674 1.0765445 -0.14621851 67 16
-0.30381393 1.0944002 -0.19193862 51 15
-0.15967141 1.1491315 0.26040769 7 30
-0.15784413 1.1329844 0.17346883 75 28
-0.31294411 1.1391822 0.13995872 9 27
-0.15646084 1.1215494 0.10490377 74 26
-0.31341389 1.142405 0.079993017 42 25
-0.15405858 1.1055552 0.050426558 75 24
-0.30835527 1.12562 0.026286222 4 23
-0.15334585 1.1017927 0 9 22
-0.30815881 1.1256738 -0.026286222 8 21
-0.15197805 1.093238 -0.049844261 7 20
-0.3026765 1.1065866 -0.077001929 48 19
-0.14814584 1.0679904 -0.093663067 11 18
-0.30145496 1.102181 -0.12680162 50 17
-0.14867158 1.0745909 -0.14587446 62 16
-0.29999191 1.095454 -0.19193862 51 15
-0.15553734 1.1472405 0.25984403 13 30
-0.15408614 1.1335016 0.17346883 75 28
-0.31047353 1.1450012 0.14056461 9 27
-0.15188406 1.1171553 0.10442802 73 26
-0.30962384 1.143438 0.079993017 46 25
-0.15039156 1.1060599 0.050426558 71 24
-0.30725044 1.1362815 0.02651833 4 23
-0.14902835 1.0973393 0 7 22
-0.30619726 1.1339773 -0.026460305 8 21
-0.14769049 1.0887854 -0.049611345 8 20
-0.29900527 1.1075842 -0.077001929 47 19
-0.14408849 1.0660329 -0.093439519 20 18
-0.29779837 1.1031744 -0.12680162 48 17
-0.14394233 1.0677392 -0.14484234 52 16
-0.29506198 1.0916904 -0.19107984 52 15
-0.15090351 1.1429459 0.2587167 75 30
-0.15012854 1.1340327 0.17346883 74 28
-0.30582884 1.143682 0.14026166 9 27
-0.14798354 1.1176786 0.10442802 75 26
-0.30498216 1.1421037 0.079819486 47 25
-0.14652979 1.1065782 0.050426558 70 24
-0.30113804 1.130159 0.026344251 7 23
-0.1458427 1.102811 0 7 22
-0.30094078 1.1302115 -0.026344251 13 21
-0.14337724 1.0868429 -0.049494889 9 20
-0.29449049 1.1062125 -0.076829277 47 19
-0.14132598 1.0739374 -0.094110139 71 18
-0.29310933 1.1018596 -0.12651731 42 17
-0.14053154 1.0706909 -0.14518638 40 16
-0.29041967 1.0903863 -0.19065045 52 15
-0.14732394 1.1483243 0.25984403 50 30
-0.14597109 1.1345752 0.17346883 74 28
-0.30099767 1.1423968 0.13995872 9 27
-0.14388604 1.1182137 0.10442802 73 26
-0.30015451 1.1408033 0.079645962 47 25
-0.142473 1.1071079 0.050426558 69 24
-0.2978313 1.1336191 0.026402276 7 23
-0.14054467 1.0934172 0 7 22
-0.29615706 1.1288906 -0.026286222 40 21
-0.13958259 1.0873368 -0.049494889 9 20
-0.2917099 1.1121066 -0.077174574 38 19
-0.13707806 1.0719777 -0.093886599 75 18
-0.2867201 1.0932714 -0.12538008 13 17
-0.13722274 1.0761126 -0.14587446 35 16
-0.28471935 1.0842512 -0.18936226 54 15
-0.14272097 1.1439964 0.2587167 30 30
-0.14080232 1.1252719 0.17192346 74 28
-0.2963793 1.1410401 0.13965578 9 27
-0.13937359 1.1137689 0.10395226 75 26
-0.29553932 1.1394311 0.079472445 50 25
-0.13769197 1.1001627 0.050077178 17 24
-0.29387245 1.1346518 0.026402276 8 23
-0.13733727 1.0988637 0 7 22
-0.29032215 1.1226625 -0.026112143 34 21
-0.13578622 1.0878174 -0.049494889 11 20
-0.28530812 1.103465 -0.07648398 12 19
-0.13303319 1.0699781 -0.093663067 82 18
-0.28290212 1.0942656 -0.12538008 13 17
-0.13286629 1.0716691 -0.14518638 28 16
-0.28155535 1.0876213 -0.18979166 54 15
-0.13930359 1.1493248 0.25984403 27 30
-0.13716687 1.1282092 0.17230982 71 28
-0.293015 1.1444702 0.13995872 11 27
-0.13567942 1.1142249 0.10395226 74 26
-0.2896919 1.133211 0.07895188 50 25
-0.13474052 1.1080755 0.050426558 8 24
-0.28804028 1.1284096 0.026228197 12 23
-0.13231492 1.089407 0 7 22
-0.28597483 1.1211984 -0.026054114 12 21
-0.13050976 1.0758861 -0.048912596 12 20
-0.28207564 1.1068696 -0.076656632 8 19
-0.12948427 1.0704134 -0.093663067 82 18
-0.28031775 1.1000575 -0.1259487 40 17
-0.13018623 1.079481 -0.14621851 19 16
-0.27775714 1.0885974 -0.18979166 52 15
-0.13521115 1.1473608 0.25928038 27 30
-0.13342483 1.1286579 0.17230982 70 28
-0.28676805 1.1358165 0.13874696 9 27
-0.13178922 1.114692 0.10395226 73 26
-0.28593245 1.1341655 0.07895188 48 25
-0.13020028 1.1010746 0.050077178 7 24
-0.28368151 1.1269362 0.026170168 35 23
-0.12812518 1.0848731 0 8 22
-0.28328812 1.1270353 -0.026170168 8 21
-0.12665382 1.0738324 -0.04879614 12 20
-0.27656439 1.1005465 -0.076138675 8 19
-0.12489106 1.0634381 -0.09299244 79 18
-0.27544719 1.0961658 -0.12538008 50 17
-0.12641735 1.0799289 -0.14621851 16 16
-0.27353948 1.0871255 -0.18936226 52 15
-0.13066147 1.142985 0.25815308 28 30
-0.12893103 1.1242079 0.17153712 71 28
-0.28340569 1.1392175 0.13904989 9 27
-0.12734002 1.1101992 0.10347651 75 26
-0.28197172 1.1351566 0.07895188 47 25
-0.12579666 1.096559 0.049844261 7 24
-0.27954918 1.1279684 0.026170168 20 23
-0.12545563 1.0952511 0 8 22
-0.27571684 1.1134686 -0.025822006 7 21
-0.12383066 1.0842164 -0.049261972 54 20
-0.27272111 1.1015052 -0.076138675 8 19
-0.1211782 1.0638676 -0.09299244 89 18
-0.27142769 1.0971678 -0.12538008 51 17
-0.1223726 1.0779024 -0.14587446 20 16
-0.26895562 1.0857314 -0.18893288 54 15
-0.12594524 1.1386135 0.25702578 24 30
-0.12507735 1.1271282 0.17192346 69 28
-0.27982366 1.1426578 0.13935284 9 27
-0.12434862 1.1205544 0.10442802 43 26
-0.27840671 1.1386038 0.079125404 48 25
-0.12150617 1.0945303 0.049727805 8 24
-0.27321863 1.1192303 0.02593806 9 23
-0.12062919 1.0882474 0 8 22
-0.27223098 1.1168987 -0.025880035 7 21
-0.11896646 1.0747112 -0.04879614 77 20
-0.26808631 1.1000756 -0.07596603 9 19
-0.11754575 1.0667801 -0.093215987 86 18
-0.26818955 1.1005206 -0.1256644 51 17
-0.11921693 1.0857297 -0.1469066 15 16
-0.26575321 1.0890551 -0.18936226 52 15
-0.12196998 1.1390462 0.25702578 27 30
-0.12140123 1.1300144 0.17230982 66 28
-0.27524644 1.1412163 0.13904989 9 27
-0.11965341 1.113557 0.10371439 11 26
-0.27384159 1.1371453 0.07895188 47 25
-0.11847051 1.1023983 0.050077178 8 24
-0.27048892 1.1250349 0.026054114 4 23
-0.11656801 1.0861757 0 8 22
-0.2671535 1.1129841 -0.025763981 7 21
-0.11547533 1.0776035 -0.048912596 77 20
-0.26424468 1.1010046 -0.07596603 22 19
-0.11408025 1.0696604 -0.093439519 85 18
-0.26434636 1.1014502 -0.1256644 50 17
-0.11491293 1.0812135 -0.14621851 17 16
-0.26020771 1.082796 -0.1880741 52 15
-0.11823935 1.1418881 0.2575894 27 30
-0.1167046 1.1230595 0.17115077 40 28
-0.27126119 1.1421702 0.13904989 9 27
-0.11646564 1.1188991 0.10419014 9 26
-0.26929003 1.1356688 0.078778364 47 25
-0.11411524 1.0978361 0.049844261 8 24
-0.2665602 1.1259722 0.026054114 4 23
-0.11378814 1.0965246 0 8 22
-0.26171976 1.1065708 -0.0255899 7 21
-0.11146072 1.0755156 -0.04879614 79 20
-0.25924215 1.0970683 -0.075620733 46 19
-0.10978021 1.0626007 -0.092768908 85 18
-0.25877059 1.0951183 -0.12481146 51 17
-0.11207241 1.0889796 -0.14725064 16 16
-0.25585401 1.0813022 -0.18764469 52 15
-0.11326157 1.1301541 0.25477114 27 30
-0.11273745 1.1209823 0.17076443 8 28
-0.26690164 1.1406485 0.13874696 11 27
-0.11158265 1.1093923 0.10323863 8 26
-0.26609501 1.1389829 0.07895188 39 25
-0.11047405 1.0982085 0.049844261 8 24
-0.26397055 1.1317155 0.026170168 4 23
-0.10892718 1.084456 0 9 22
-0.2589995 1.1123435 -0.025705952 8 21
-0.10789358 1.0758792 -0.04879614 79 20
-0.25503194 1.0954942 -0.075448081 50 19
-0.10582826 1.0604994 -0.09254536 85 18
-0.25400075 1.0911347 -0.12424285 52 17
-0.10731081 1.0795059 -0.14587446 19 16
-0.25339586 1.0869392 -0.18850347 52 15
-0.11000481 1.1378168 0.2564621 24 30
-0.10835634 1.1164514 0.16999175 4 28
-0.26235637 1.139156 0.13844401 11 27
-0.10841597 1.1172074 0.10395226 9 26
-0.26042563 1.1326169 0.078431323 12 25
-0.10640361 1.0961015 0.049727805 8 24
-0.25925693 1.1302407 0.026112143 4 23
-0.10561334 1.0898073 0 47 22
-0.25567862 1.1156759 -0.025763981 8 21
-0.10418456 1.0787536 -0.048912596 77 20
-0.2512064 1.0963777 -0.075448081 51 19
-0.10235924 1.0633414 -0.092768908 82 18
-0.25111899 1.0968981 -0.12481146 51 17
-0.10307935 1.0749432 -0.14518638 20 16
-0.24829894 1.0830621 -0.18764469 51 15
-0.10539227 1.1333612 0.25533479 24 30
-0.10471305 1.1217604 0.17076443 4 28
-0.25707307 1.1352717 0.13783813 11 27
-0.10364122 1.1101623 0.10323863 9 26
-0.25793785 1.1408578 0.07895188 7 25
-0.10329429 1.1064318 0.050193641 12 24
-0.25308836 1.1213913 0.025880035 7 23
-0.10071022 1.0802283 0 56 22
-0.25047863 1.1117315 -0.025647927 9 21
-0.10019204 1.0766237 -0.04879614 58 20
-0.24718627 1.097291 -0.075448081 50 19
-0.098461211 1.0637094 -0.092768908 82 18
-0.24728855 1.0977679 -0.12481146 51 17
-0.099138796 1.0753137 -0.14518638 22 16
-0.24396954 1.0815209 -0.18721531 43 15
-0.10122319 1.1312959 0.25477114 22 30
-0.10014834 1.1147375 0.16960539 7 28
-0.25365338 1.1385831 0.13814108 11 27
-0.10020095 1.1154757 0.10371439 9 26
-0.25176758 1.132018 0.078257799 4 25
-0.098994449 1.1018102 0.049960721 51 24
-0.24971934 1.1247065 0.02593806 7 23
-0.096938908 1.0805733 0 17 22
-0.24659644 1.1125993 -0.025647927 27 21
-0.096433319 1.076967 -0.04879614 19 20
-0.24280961 1.0957135 -0.075275436 51 19
-0.094531849 1.0615659 -0.09254536 74 18
-0.24291247 1.0962008 -0.12452716 51 17
-0.094957322 1.0707194 -0.14449829 23 16
-0.23857602 1.0751565 -0.18592712 17 15
-0.097681224 1.1364965 0.25589845 15 30
-0.09584149 1.110158 0.1688327 7 28
-0.24967745 1.1394616 0.13814108 11 27
-0.095872693 1.1083622 0.10300075 28 26
-0.24942885 1.1401956 0.078778364 4 25
-0.094728142 1.0971721 0.049727805 71 24
-0.24579185 1.1255715 0.02593806 8 23
-0.093376048 1.0833964 0 8 22
-0.24182963 1.1085293 -0.025531873 47 21
-0.092046499 1.0698313 -0.04844676 11 20
-0.23791054 1.0916829 -0.074930124 51 19
-0.091011055 1.0618736 -0.09254536 63 18
-0.23855036 1.0946164 -0.12424285 51 17
-0.091611661 1.0734961 -0.14484234 22 16
-0.23429105 1.0735778 -0.18549772 12 15
-0.093911923 1.1368142 0.25589845 16 30
-0.25369501 1.1712772 0.22448425 9 29
-0.092558309 1.1153934 0.16960539 8 28
-0.24536926 1.1378586 0.13783813 12 27
-0.092204094 1.1111706 0.10323863 60 26
-0.24723651 1.1483275 0.079298921 4 25
-0.091089271 1.0974803 0.049727805 75 24
-0.24152771 1.123938 0.025880035 8 23
-0.090386957 1.0911757 0 7 22
-0.23742922 1.1069241 -0.025473846 52 21
-0.088498309 1.0701307 -0.04844676 11 20
-0.23587409 1.0997782 -0.075448081 51 19
-0.087105051 1.0597029 -0.092321828 81 18
-0.23386686 1.0905466 -0.12367423 43 17
-0.08707644 1.0639359 -0.14346617 24 16
-0.23229733 1.0815691 -0.18678591 13 15
-0.089755848 1.1347066 0.25533479 16 30
-0.24857247 1.1673559 0.22353706 9 29
-0.088282719 1.1107845 0.1688327 9 28
-0.23983662 1.1314285 0.13692932 13 27
-0.088132598 1.1090045 0.10300075 71 26
-0.24009755 1.1345505 0.078257799 4 25
-0.086679101 1.090322 0.049378429 22 24
-0.2358426 1.1174825 0.025705952 9 23
-0.086384833 1.0889919 0 7 22
-0.23356389 1.1077461 -0.025473846 52 21
-0.084958673 1.0754278 -0.048679676 11 20
-0.22995444 1.0908378 -0.074757479 51 19
-0.083595619 1.0624831 -0.09254536 85 18
-0.22986823 1.0913965 -0.12367423 15 17
-0.083738573 1.0691714 -0.14415425 24 16
-0.22679041 1.0751871 -0.18549772 46 15
-0.08559633 1.135028 0.25533479 13 30
-0.24276996 1.1610543 0.22211629 9 29
-0.084392667 1.113564 0.16921906 8 28
-0.23722069 1.1395853 0.13783813 19 27
-0.083884165 1.1068381 0.10276287 74 26
-0.23798786 1.1451858 0.07895188 4 25
-0.083049826 1.0956135 0.049611345 8 24
-0.23091479 1.1134068 0.0255899 9 23
-0.082576424 1.0917945 0 7 22
-0.22950222 1.1085948 -0.025473846 52 21
-0.080472626 1.0657555 -0.048213843 12 20
-0.22646563 1.0941144 -0.074930124 50 19
-0.079519808 1.060299 -0.092321828 83 18
-0.2245308 1.0848988 -0.1228213 11 17
-0.07964009 1.0670013 -0.1438102 26 16
-0.22303592 1.0759723 -0.18549772 52 15
-0.081803724 1.1377497 0.25589845 13 30
-0.23821656 1.1594909 0.22164267 11 29
-0.080331922 1.1113878 0.1688327 9 28
-0.23223658 1.135546 0.13723224 32 27
-0.080038399 1.1046277 0.102525 74 26
-0.23298088 1.1411245 0.07860484 7 25
-0.078699715 1.0884233 0.049261972 4 24
-0.22853968 1.1215497 0.025763981 34 23
-0.077890724 1.0796067 0 7 22
-0.22532088 1.1069015 -0.025415819 51 21
-0.076751947 1.0660299 -0.048213843 12 20
-0.22214276 1.0924554 -0.074757479 51 19
-0.076176107 1.0630407 -0.09254536 79 18
-0.22074245 1.085676 -0.1228213 9 17
-0.075759336 1.062319 -0.14312212 27 16
-0.21927871 1.0767442 -0.18549772 52 15
-0.078354053 1.1428752 0.25702578 13 30
-0.23486136 1.1626797 0.22211629 11 29
-0.076151036 1.1042547 0.16767366 9 28
-0.22945835 1.1411736 0.13783813 42 27
-0.076015815 1.1024172 0.10228712 73 26
-0.2277077 1.1345583 0.078084283 7 25
-0.075256735 1.0911698 0.049378429 4 24
-0.22283466 1.1125032 0.025531873 48 23
-0.074310184 1.0798591 0 8 22
-0.22096041 1.1052316 -0.025357792 50 21
-0.073880203 1.0762455 -0.048679676 44 20
-0.21753033 1.0882969 -0.074412182 51 19
-0.072300792 1.0608157 -0.092321828 77 18
-0.21910988 1.0961403 -0.12395855 9 17
-0.071725935 1.0576352 -0.14243403 27 16
-0.2157069 1.0774654 -0.18549772 52 15
-0.073904127 1.1358492 0.25533479 13 30
-0.22935338 1.1562721 0.2206955 11 29
-0.072765142 1.1119089 0.1688327 11 28
-0.22450183 1.1371005 0.13723224 46 27
-0.072482318 1.1076431 0.10276287 50 26
-0.22374596 1.1353463 0.078084283 7 25
-0.07144738 1.091426 0.049378429 4 24
-0.21894993 1.1132742 0.025531873 50 23
-0.070066772 1.0726267 0 9 22
-0.2171011 1.1059961 -0.025357792 47 21
-0.069808468 1.0715122 -0.04844676 77 20
-0.21373013 1.0890496 -0.074412182 42 19
-0.068441927 1.0585765 -0.092098281 77 18
-0.21383116 1.0895896 -0.12310562 22 17
-0.0678799 1.0554076 -0.14208999 30 16
-0.21194452 1.0782118 -0.18549772 52 15
-0.070518307 1.1458255 0.2575894 15 30
-0.22531584 1.1570655 0.2206955 11 29
-0.068587869 1.1072249 0.16806002 38 28
-0.22053126 1.1378772 0.13723224 48 27
-0.068168804 1.100437 0.10204925 9 26
-0.21690834 1.121435 0.077043161 8 25
-0.067338347 1.0866832 0.049145512 4 24
-0.2148681 1.1140693 0.025531873 43 23
-0.066769592 1.0803516 0 9 22
-0.21419549 1.1116537 -0.025473846 26 21
-0.065436408 1.0642823 -0.048097387 85 20
-0.20897304 1.0848932 -0.074066877 46 19
-0.064746395 1.0588088 -0.092098281 56 18
-0.20983617 1.0903661 -0.12310562 47 17
-0.064195424 1.0556383 -0.14208999 31 16
-0.20799126 1.0789814 -0.18549772 51 15
-0.066726051 1.1533718 0.25928038 16 30
-0.2192117 1.1482428 0.21880111 11 29
-0.0648067 1.1124011 0.1688327 66 28
-0.21542245 1.1338038 0.13662636 48 27
-0.064833984 1.1131029 0.10323863 7 26
-0.21279661 1.1222224 0.077043161 12 25
-0.062934183 1.0794426 0.04879614 4 24
-0.21191806 1.119722 0.025647927 19 23
-0.062389489 1.0731007 0 11 22
-0.20918125 1.1075213 -0.025357792 11 21
-0.062139168 1.0719843 -0.04844676 81 20
-0.2049953 1.0856518 -0.074066877 51 19
-0.061278313 1.0664976 -0.092768908 44 18
-0.20509627 1.0862125 -0.122537 52 17
-0.060053751 1.0509214 -0.1414019 30 16
-0.20329729 1.074863 -0.18463893 48 15
-0.21474522 1.1465892 0.21832752 11 29
-0.061053433 1.115087 0.16921906 73 28
-0.21100354 1.1321104 0.13632344 50 27
-0.061010893 1.1108267 0.10300075 7 26
-0.20980068 1.1278603 0.077390201 12 25
-0.059165843 1.0796558 0.04879614 7 24
-0.2061623 1.1106294 0.025415819 9 23
-0.058512017 1.0708154 0 11 22
-0.20412429 1.1008396 -0.025183709 9 21
-0.058135476 1.067207 -0.048213843 81 20
-0.20166402 1.0888119 -0.074239522 51 19
-0.058000237 1.0716683 -0.093215987 42 18
-0.20130342 1.0869219 -0.122537 52 17
-0.05656844 1.0511149 -0.1414019 32 16
-0.19908935 1.0731457 -0.18420956 39 15
-0.21183987 1.1521217 0.21927471 11 29
-0.057477277 1.1177504 0.16960539 70 28
-0.20634456 1.1279236 0.13571756 50 27
-0.056764398 1.1035761 0.10228712 7 26
-0.20424658 1.1187401 0.07669612 9 25
-0.055955142 1.0873288 0.049145512 8 24
-0.20293152 1.1137649 0.025473846 8 23
-0.055206735 1.0759976 0 27 22
-0.20073287 1.1040034 -0.025241738 9 21
-0.054596171 1.0673939 -0.048213843 79 20
-0.1976008 1.0870219 -0.074066877 51 19
-0.053775996 1.0619159 -0.092321828 36 18
-0.19679867 1.082698 -0.12196838 52 17
-0.05266054 1.0463591 -0.14071381 34 16
-0.19374277 1.0641119 -0.18249199 26 15
-0.20693572 1.1480243 0.21832752 11 29
-0.053348579 1.1130095 0.1688327 70 28
-0.2019628 1.1261953 0.1354146 48 27
-0.053026047 1.1062534 0.102525 7 26
-0.20034023 1.119446 0.07669612 4 25
-0.051930133 1.082528 0.048912596 8 24
-0.19770831 1.1070882 0.025299765 7 23
-0.051336184 1.0736862 0 75 22
-0.19687796 1.1046973 -0.025241738 15 21
-0.050528783 1.0600939 -0.047864471 85 20
-0.19380517 1.0877051 -0.074066877 52 19
-0.050405137 1.0695595 -0.09299244 36 18
-0.19301814 1.0833783 -0.12196838 52 17
-0.049007747 1.0465366 -0.14071381 34 16
-0.19090363 1.069629 -0.18335077 26 15
-0.20249493 1.1463232 0.21785392 11 29
-0.049358401 1.1107211 0.16844636 54 28
-0.19889992 1.1317799 0.13602048 43 27
-0.048953149 1.101459 0.10204925 7 26
-0.1964314 1.1201386 0.07669612 4 25
-0.048256971 1.0851978 0.049029056 8 24
-0.19297032 1.1028496 0.025183709 8 23
-0.047271326 1.0663656 0 81 22
-0.19258535 1.1029168 -0.025183709 46 21
-0.047038082 1.0652541 -0.048097387 81 20
-0.18957283 1.0859191 -0.073894225 51 19
-0.046257772 1.0597776 -0.092098281 36 18
-0.18923527 1.0840455 -0.12196838 52 17
-0.045048464 1.039279 -0.13968168 38 16
-0.18716876 1.0702888 -0.18335077 19 15
-0.19806856 1.1446052 0.21738032 11 29
-0.045192629 1.1034824 0.16728732 43 28
-0.19409561 1.1275778 0.1354146 15 27
-0.045108039 1.1016232 0.10204925 8 26
-0.19294769 1.1232746 0.076869637 4 25
-0.044468626 1.0853597 0.049029056 8 24
-0.18997464 1.1084416 0.025299765 8 23
-0.043645564 1.0690223 0 82 22
-0.18788087 1.098657 -0.025067655 52 21
-0.043319363 1.0654118 -0.048097387 79 20
-0.18535532 1.0841168 -0.07372158 52 19
-0.042842329 1.0673972 -0.092768908 38 18
-0.18587412 1.0871466 -0.12225268 50 17
-0.041607082 1.0443788 -0.14036977 38 16
-0.18427426 1.0757887 -0.18420956 12 15
-0.19365667 1.1428704 0.21690673 11 29
-0.041340485 1.1036335 0.16728732 42 28
-0.19057615 1.1306947 0.13571756 9 27
-0.040909763 1.0918256 0.10109774 9 26
-0.1881877 1.1190242 0.076522596 7 25
-0.040945128 1.0929954 0.049378429 8 24
-0.18507363 1.1042022 0.025183709 9 23
-0.039913714 1.0691681 0 77 22
-0.1840447 1.0993061 -0.025067655 52 21
-0.039414141 1.0655634 -0.048097387 81 20
-0.18156993 1.0847572 -0.07372158 51 19
-0.03903012 1.0650517 -0.09254536 38 18
-0.18022799 1.0780252 -0.12111545 24 17
-0.037876572 1.0420429 -0.14002572 42 16
-0.1799176 1.0740286 -0.18378015 12 15
-0.18987292 1.1459931 0.21738032 11 29
-0.037373628 1.1062461 0.16767366 35 28
-0.1847958 1.1215949 0.13450579 4 27
-0.037223902 1.1019179 0.10204925 9 26
-0.18326519 1.1147863 0.076175556 7 25
-0.036700886 1.0856501 0.049029056 27 24
-0.18121812 1.1048415 0.025183709 9 23
-0.035915788 1.0668085 0 79 22
-0.17960526 1.0975078 -0.02500963 52 21
-0.035537507 1.0607022 -0.047864471 83 20
-0.17718464 1.0829549 -0.073548928 52 19
-0.035280064 1.0701652 -0.09299244 40 18
-0.17565084 1.0737472 -0.12054683 11 17
-0.034208279 1.0471249 -0.14071381 40 16
-0.17495564 1.0673617 -0.18249199 12 15
-0.17800702 1.0929701 0.28616619 12 31
-0.18507558 1.1418045 0.21643312 12 29
-0.033372231 1.101432 0.16690096 35 28
-0.18087956 1.1222333 0.13450579 4 27
-0.033377267 1.102041 0.10204925 9 26
-0.17857011 1.1104962 0.075828515 7 25
-0.032981638 1.0882678 0.049145512 74 24
-0.17816305 1.1104013 0.025299765 22 23
-0.032261953 1.0694264 0 82 22
-0.17537268 1.095661 -0.024951601 52 21
-0.031904474 1.0633161 -0.047980927 79 20
-0.17340335 1.0835669 -0.073548928 51 19
-0.031407837 1.0653038 -0.09254536 42 18
-0.17269762 1.0792572 -0.12111545 7 17
-0.030619906 1.0497133 -0.14105786 40 16
-0.17162424 1.0703969 -0.18292136 12 15
-0.17419076 1.0935848 0.28616619 31 31
-0.18225734 1.1497145 0.21785392 12 29
-0.02952731 1.1015418 0.16690096 34 28
-0.17539462 1.1130557 0.13329403 4 27
-0.029660475 1.0996577 0.10181136 11 26
-0.17587084 1.1185013 0.07634908 8 25
-0.029120786 1.0858798 0.049029056 62 24
-0.17310783 1.1036114 0.025125684 47 23
-0.028467247 1.0670332 0 74 22
-0.17173839 1.0962366 -0.024951601 52 21
-0.028192613 1.063421 -0.047980927 79 20
-0.16883792 1.0792391 -0.073203623 52 19
-0.027635124 1.055445 -0.091651201 51 18
-0.16659284 1.0651349 -0.1194096 4 17
-0.027021222 1.044858 -0.14036977 42 16
-0.16866076 1.0758538 -0.18378015 12 15
-0.17094079 1.0965421 0.2868107 4 31
-0.17729934 1.1430377 0.21643312 12 29
-0.026086386 1.1115112 0.16844636 31 28
-0.17285311 1.1209866 0.13420284 4 27
-0.025821771 1.0997546 0.10181136 13 26
-0.17177624 1.1166143 0.076175556 8 25
-0.025412507 1.080977 0.04879614 20 24
-0.16944717 1.1041794 0.025125684 51 23
-0.024822226 1.0621228 0 34 22
-0.16791077 1.0968294 -0.024951601 52 21
-0.024718765 1.0660056 -0.048097387 69 20
-0.16525809 1.0797931 -0.073203623 50 19
-0.02384821 1.0505561 -0.091204129 46 18
-0.16420361 1.0730447 -0.12026253 4 17
-0.023423949 1.0474216 -0.14071381 44 16
-0.16509217 1.0764073 -0.18378015 12 15
-0.16785035 1.1019065 0.28809974 7 31
-0.17480032 1.1533546 0.21832752 12 29
-0.022161927 1.109126 0.16806002 32 28
-0.1689391 1.121583 0.13420284 4 27
-0.022072226 1.1048145 0.10228712 50 26
-0.16712558 1.1122762 0.075828515 9 25
-0.021728817 1.0860529 0.049029056 8 24
-0.16539901 1.1047931 0.025125684 51 23
-0.021159075 1.0647026 0 12 22
-0.16370605 1.0949378 -0.024893576 52 21
-0.020767905 1.063592 -0.047980927 74 20
-0.16261065 1.0877608 -0.07372158 27 19
-0.020223523 1.0531224 -0.091427661 48 18
-0.16064186 1.076095 -0.12054683 4 17
-0.019726139 1.0450211 -0.14036977 44 16
-0.16077587 1.0745702 -0.18335077 13 15
-0.16947958 1.1467049 0.21690673 12 29
-0.018238023 1.1190786 0.16960539 31 28
-0.16555904 1.1271036 0.13480872 4 27
-0.017880267 1.0949343 0.10133561 74 26
-0.16341469 1.1153482 0.076002039 9 25
-0.017712351 1.0836282 0.048912596 7 24
-0.16154155 1.1053637 0.025125684 51 23
-0.017327286 1.0697725 0 11 22
-0.15895987 1.0905856 -0.024777522 54 21
-0.017020285 1.061161 -0.047864471 77 20
-0.1578923 1.0834153 -0.073376283 11 19
-0.016330041 1.0506998 -0.091204129 48 18
-0.15615723 1.0717351 -0.11997822 7 17
-0.015895812 1.0450865 -0.14036977 40 16
-0.15666243 1.0726888 -0.18292136 15 15
-0.16654268 1.1545761 0.21832752 12 29
-0.014438505 1.1290147 0.17115077 32 28
-0.16126634 1.1252191 0.13450579 7 27
-0.014165841 1.1049442 0.10228712 79 26
-0.15987869 1.1183797 0.076175556 27 25
-0.013929674 1.0836834 0.048912596 7 24
-0.1573239 1.1034472 0.025067655 51 23
-0.013486514 1.0598271 0 11 22
-0.15586671 1.0960811 -0.024893576 52 21
-0.013316039 1.061214 -0.047864471 77 20
-0.15517926 1.0913649 -0.073894225 8 19
-0.012711857 1.0557301 -0.091651201 48 18
-0.15170498 1.0673571 -0.1194096 8 17
-0.012200143 1.0401833 -0.13968168 34 16
-0.154329 1.0829787 -0.18463893 12 15
-0.16147001 1.1478602 0.21690673 12 29
-0.1562912 1.1184042 0.13359696 7 27
-0.010426929 1.0950308 0.10133561 71 26
-0.15422544 1.1065843 0.07530795 45 25
-0.010165134 1.0862226 0.049029056 7 24
-0.15347119 1.1039896 0.025067655 50 23
-0.0098048355 1.0623677 0 12 22
-0.15223113 1.0965921 -0.024893576 50 21
-0.0095767602 1.0562594 -0.047631547 77 20
-0.15067282 1.0869607 -0.073548928 8 19
-0.0092273727 1.0582565 -0.091874748 47 18
-0.14867136 1.0727992 -0.11997822 8 17
-0.0088129379 1.0501227 -0.14105786 45 16
-0.14985883 1.0786335 -0.18378015 13 15
-0.15698449 1.1435268 0.21595953 12 29
-0.15224095 1.1164583 0.13329403 8 27
-0.0066144844 1.0975491 0.10157349 69 26
-0.15123801 1.1120307 0.075654998 48 25
-0.0065429863 1.0812559 0.04879614 8 24
-0.14946805 1.1020167 0.02500963 51 23
-0.0063010417 1.0673943 0 12 22
-0.14772138 1.0921646 -0.024777522 51 21
-0.0061106384 1.0662746 -0.048097387 75 20
-0.14672774 1.0849836 -0.073376283 8 19
-0.0055176667 1.0533022 -0.091427661 50 18
-0.14477465 1.0708257 -0.11969391 9 17
-0.0051196124 1.0402423 -0.13968168 46 16
-0.14729026 1.0864439 -0.18506834 13 15
-0.15431428 1.1537974 0.21785392 12 29
-0.14900698 1.1219014 0.13389991 8 27
-0.0027832829 1.0975655 0.10157349 50 26
-0.14735538 1.1125519 0.075654998 48 25
-0.0027699661 1.0837694 0.048912596 8 24
-0.14476338 1.0976028 0.024893576 50 23
-0.0025751018 1.0674098 0 62 22
-0.14523552 1.1025825 -0.02500963 35 21
-0.0022025055 1.0587978 -0.047748011 81 20
-0.14293954 1.0854892 -0.073376283 9 19
-0.0018417913 1.050825 -0.091204129 50 18
-0.14150761 1.076273 -0.12026253 9 17
-0.0014832717 1.0476824 -0.14071381 50 16
-0.14232495 1.0796534 -0.18378015 13 15
-0.14879766 1.144621 0.21595953 12 29
-0.14457095 1.1199795 0.13359696 31 27
0.0012395149 1.0975684 0.10157349 48 26
-0.14295287 1.1106116 0.075481474 43 25
0.0011787296 1.0762805 0.048563223 9 24
-0.14190204 1.1055362 0.025067655 40 23
0.0013122968 1.0599121 0 86 22
-0.14054784 1.0981506 -0.024893576 35 21
0.0014934023 1.0587991 -0.047748011 81 20
-0.13734964 1.07364 -0.072513029 13 19
0.0019996918 1.0483348 -0.090980582 52 18
-0.13742909 1.0742972 -0.11997822 11 17
0.0023782954 1.0526333 -0.1414019 47 16
-0.13823651 1.0777017 -0.18335077 13 15
-0.1444881 1.1426986 0.21548593 12 29
-0.14097506 1.122939 0.13389991 46 27
0.005037725 1.0925801 0.10109774 51 26
-0.13939041 1.1135778 0.075654998 26 25
0.0050018923 1.0862586 0.049029056 9 24
-0.13646723 1.0936278 0.024777522 16 23
0.0050290897 1.0624009 0 86 22
-0.13514313 1.0862368 -0.024603439 48 21
0.0051892912 1.0587875 -0.047748011 70 20
-0.13422798 1.0790614 -0.072858326 43 19
0.0056777387 1.0508114 -0.091204129 59 18
-0.13430257 1.0796987 -0.12054683 40 17
0.0060137603 1.0476662 -0.14071381 48 16
-0.133853 1.0732912 -0.18249199 15 15
-0.14019376 1.1407603 0.21501234 12 29
-0.13674855 1.1209614 0.13359696 48 27
0.0086855805 1.0950459 0.10133561 48 26
-0.13672858 1.1239579 0.07634908 11 25
0.0087430542 1.0812403 0.04879614 11 24
-0.13387424 1.1040195 0.02500963 11 23
0.0087375306 1.062377 0 86 22
-0.1321521 1.0916401 -0.024719493 52 21
0.0089112697 1.0612601 -0.047864471 60 20
-0.12985092 1.0745726 -0.072513029 50 19
0.0091623235 1.0507867 -0.091204129 62 18
-0.12992579 1.0752305 -0.11997822 52 17
0.0095155742 1.0501167 -0.14105786 48 16
-0.13131313 1.0835291 -0.18420956 16 15
-0.1370033 1.1460924 0.21595953 13 29
-0.13273288 1.1189452 0.13329403 46 27
0.012507952 1.095009 0.10133561 47 26
-0.13240401 1.1194531 0.076002039 8 25
0.012294968 1.0787083 0.048679676 11 24
-0.12961625 1.0994945 0.024893576 11 23
0.012226418 1.0598423 0 89 22
-0.12774628 1.0871315 -0.024603439 54 21
0.012361621 1.0562304 -0.047631547 70 20
-0.1259902 1.0725211 -0.072340377 51 19
0.012794563 1.0482585 -0.090980582 66 18
-0.12606409 1.0731893 -0.11969391 54 17
0.013144802 1.047601 -0.14071381 51 16
-0.12683804 1.0766227 -0.18292136 15 15
-0.13471822 1.1526656 0.30034557 12 31
-0.13300185 1.1465636 0.21595953 13 29
-0.1285371 1.1169369 0.13299108 35 27
0.01633017 1.0949587 0.10133561 42 26
-0.12820591 1.1174312 0.075828515 7 25
0.016102565 1.0811558 0.04879614 60 24
-0.12587453 1.1024446 0.024951601 30 23
0.0160114 1.0647924 0 87 22
-0.12395071 1.0875709 -0.024603439 52 21
0.016145647 1.0511843 -0.047398631 73 20
-0.12253359 1.0754317 -0.072513029 51 19
0.016453592 1.0482075 -0.090980582 71 18
-0.12184348 1.0711769 -0.1194096 56 17
0.01675659 1.045073 -0.14036977 52 16
-0.12317596 1.0795267 -0.18335077 16 15
-0.13187657 1.1651496 0.30356818 13 31
-0.12684447 1.1299717 0.21264437 20 29
-0.12388235 1.1124692 0.13238519 13 27
0.020292034 1.0924032 0.10109774 43 26
-0.12410944 1.1178935 0.075828515 7 25
0.019962234 1.0760959 0.048563223 81 24
-0.12174518 1.1003938 0.024893576 48 23
0.019862033 1.0622272 0 87 22
-0.11968428 1.0855343 -0.024545414 52 21
0.019867167 1.0536182 -0.047515094 90 20
-0.11803336 1.0709168 -0.072167724 51 19
0.020295354 1.0481402 -0.090980582 79 18
-0.11838136 1.0740639 -0.11969391 54 17
0.020586863 1.0450045 -0.14036977 51 16
-0.11913072 1.0775027 -0.18292136 15 15
-0.1272718 1.1608016 0.30227914 12 31
-0.12317002 1.1328474 0.21311797 28 29
-0.12026981 1.1153616 0.13268815 9 27
0.024165045 1.0948137 0.10133561 40 26
-0.11857487 1.1034454 0.074787393 8 25
0.023838675 1.0810128 0.04879614 74 24
-0.11736003 1.095843 0.024777522 51 23
0.02363042 1.0646505 0 83 22
-0.1167067 1.0933992 -0.024719493 52 21
0.023544859 1.0535425 -0.047515094 98 20
-0.11456466 1.0738016 -0.072340377 48 19
0.02395392 1.0480629 -0.090980582 74 18
-0.11490056 1.0769397 -0.11997822 51 17
0.024297139 1.0474017 -0.14071381 54 16
-0.11456572 1.0705673 -0.1816332 17 15
-0.12243896 1.1540345 0.30034557 12 31
-0.11921489 1.1332706 0.21311797 38 29
-0.11663856 1.1182421 0.13299108 4 27
0.027795443 1.0947276 0.10133561 40 26
-0.11524896 1.1088127 0.075134434 9 25
0.027543111 1.0784267 0.048679676 74 24
-0.11327112 1.0937604 0.024719493 52 23
0.027138494 1.0570644 0 90 22
-0.11203001 1.0838382 -0.024487386 54 21
0.027152538 1.0509576 -0.047398631 90 20
-0.11160039 1.0816358 -0.072858326 23 19
0.02742929 1.0479778 -0.090980582 81 18
-0.11140113 1.0798044 -0.12026253 51 17
0.027841186 1.0497907 -0.14105786 56 16
-0.11082805 1.0709606 -0.1816332 17 15
-0.11911552 1.1592387 0.30163461 12 31
-0.11545618 1.1336596 0.21311797 43 29
-0.11191108 1.1087489 0.13177931 4 27
0.031770322 1.0995989 0.10181136 39 26
-0.11106126 1.1042271 0.074787393 9 25
0.031119153 1.0783294 0.048679676 65 24
-0.10964345 1.09413 0.024719493 52 23
0.030643698 1.0569687 0 89 22
-0.10849991 1.0867091 -0.024545414 54 21
0.030637488 1.0508616 -0.047398631 90 20
-0.10750627 1.0770377 -0.072513029 11 19
0.030850008 1.0404096 -0.09030997 87 18
-0.10731517 1.0752261 -0.11969391 47 17
0.031505469 1.049687 -0.14105786 62 16
-0.10652291 1.0639721 -0.18034501 17 15
-0.11458092 1.1548411 0.30034557 12 31
-0.11174376 1.1364981 0.21359155 47 29
-0.10779409 1.1066633 0.13147637 7 27
-0.1069597 1.102126 0.074613869 32 25
0.034883033 1.0782143 0.048679676 78 24
-0.10563253 1.0945246 0.024719493 52 23
0.03433302 1.0568553 0 89 22
-0.10421553 1.0821067 -0.02442936 54 21
0.034488883 1.0507424 -0.047398631 90 20
-0.10399073 1.0798885 -0.072685681 7 19
0.034744825 1.0477607 -0.090980582 83 18
-0.1031303 1.0731401 -0.1194096 35 17
0.034993079 1.0446215 -0.14036977 66 16
-0.10262254 1.0643554 -0.18034501 17 15
-0.11175668 1.1696777 0.30421269 12 31
-0.10686787 1.1295701 0.21217078 48 29
-0.10326327 1.1021105 0.13087049 8 27
-0.10197028 1.0925802 0.073919788 50 25
0.038834654 1.0780792 0.048679676 87 24
-0.10086351 1.0849345 0.024487386 52 23
0.038397431 1.0617188 0 90 22
-0.10001263 1.0799932 -0.024371332 52 21
0.038348183 1.0556066 -0.047631547 90 20
-0.099560894 1.0752965 -0.072340377 7 19
0.03839105 1.0426501 -0.090533502 90 18
-0.098210685 1.0611304 -0.11798806 31 17
0.038724352 1.0420116 -0.14002572 70 16
-0.097972691 1.0549002 -0.17862745 20 15
-0.10676714 1.160441 0.30163461 12 31
-0.10292428 1.1299365 0.21217078 48 29
-0.10010065 1.1098776 0.13177931 8 27
-0.098841742 1.1003798 0.074440353 51 25
0.04249391 1.075442 0.048563223 73 24
-0.097304024 1.0877688 0.024545414 52 23
0.041894771 1.0565826 0 86 22
-0.096696928 1.0853137 -0.024487386 51 21
0.041928127 1.0529711 -0.047515094 91 20
-0.0960337 1.0781212 -0.072513029 7 19
0.041924782 1.0400221 -0.09030997 90 18
-0.094958007 1.0664138 -0.11855669 24 17
0.042361416 1.0418701 -0.14002572 79 16
-0.094739661 1.0601408 -0.17948623 22 15
-0.10380622 1.172835 0.30485722 12 31
-0.098979451 1.1302887 0.21217078 48 29
-0.096225843 1.1102202 0.13177931 9 27
-0.094780125 1.0982337 0.074266829 52 25
0.046360053 1.0777818 0.048679676 65 24
-0.093506411 1.0881019 0.024545414 52 23
0.045356739 1.051435 0 89 22
-0.093535624 1.0906078 -0.024603439 32 21
0.045603424 1.0528183 -0.047515094 95 20
-0.091833301 1.0734808 -0.072167724 7 19
0.045145743 1.0349026 -0.089862891 90 18
-0.091234952 1.0667387 -0.11855669 19 17
0.04581615 1.041724 -0.14002572 82 16
-0.09168759 1.0678252 -0.18077442 20 15
-0.095019348 1.1281651 0.21169718 48 29
-0.092755236 1.1130056 0.13208227 35 27
-0.09113773 1.098542 0.074266829 51 25
0.04981317 1.0751277 0.048563223 71 24
-0.089897618 1.0884058 0.024545414 51 23
0.04908568 1.0562729 0 86 22
-0.089517683 1.0884372 -0.024545414 11 21
0.048851337 1.0476726 -0.047282174 98 20
-0.087853007 1.0688092 -0.071822427 7 19
0.048880454 1.0372256 -0.090086423 90 18
-0.088115275 1.0719852 -0.1191253 23 17
0.049329482 1.0390847 -0.13968168 85 16
-0.087521367 1.0607612 -0.17948623 19 15
-0.091080733 1.1284899 0.21169718 48 29
-0.088869564 1.1133227 0.13208227 48 27
-0.087099507 1.096368 0.074093312 51 25
0.053306982 1.0699595 0.048330303 73 24
-0.085907809 1.0887282 0.024545414 51 23
0.052512523 1.0511019 0 79 22
-0.08571779 1.0887431 -0.024545414 8 21
0.052690919 1.0474867 -0.047282174 99 20
-0.084524281 1.0740811 -0.072167724 8 19
0.052500747 1.0370487 -0.090086423 90 18
-0.08338543 1.0623982 -0.11798806 30 17
0.053481545 1.048797 -0.14105786 78 16
-0.083832137 1.0635296 -0.17991562 20 15
-0.086943999 1.1288161 0.21169718 47 29
-0.084400751 1.1086928 0.13147637 51 27
-0.08308053 1.0966798 0.074093312 51 25
0.05750528 1.0747437 0.048563223 65 24
-0.081719942 1.0840377 0.02442936 52 23
0.056364648 1.0509025 0 78 22
-0.08095631 1.0790824 -0.024313306 8 21
0.056207605 1.0448029 -0.047165714 100 20
-0.080587007 1.0743836 -0.072167724 8 19
0.05630137 1.0368494 -0.090086423 90 18
-0.08005929 1.0676357 -0.11855669 23 17
0.056763683 1.038705 -0.13968168 90 16
-0.080119215 1.0638158 -0.17991562 22 15
-0.082817838 1.126665 0.21122359 46 29
-0.080344975 1.1065062 0.13117343 51 27
-0.0792519 1.0969632 0.074093312 51 25
0.061403725 1.0770295 0.048679676 60 24
-0.07793545 1.0843164 0.02442936 51 23
0.060032643 1.0506992 0 79 22
-0.077556945 1.0843434 -0.02442936 8 21
0.060298618 1.0520791 -0.047515094 96 20
-0.076652691 1.0721712 -0.07199508 9 19
0.059771333 1.034161 -0.089862891 95 18
-0.076149285 1.0654315 -0.11827236 19 17
-0.075676955 1.0542647 -0.17819805 20 15
-0.079061329 1.1293956 0.21169718 36 29
-0.076835178 1.1117305 0.13177931 50 27
-0.075422302 1.0972331 0.074093312 51 25
0.064851008 1.0718236 0.04844676 56 24
-0.074854344 1.0945542 0.024661468 38 23
0.064012982 1.0554734 0 90 22
-0.073946618 1.0871007 -0.024487386 8 21
0.063343473 1.0418928 -0.047049258 101 20
-0.072385125 1.0649686 -0.071477123 9 19
0.063538507 1.0364311 -0.090086423 92 18
-0.072255656 1.0632131 -0.11798806 23 17
-0.072690479 1.0643491 -0.17991562 22 15
-0.074950278 1.1272159 0.21122359 28 29
-0.07245028 1.1045642 0.13087049 51 27
-0.071759664 1.0999779 0.074266829 47 25
0.069085889 1.0790664 0.04879614 44 24
-0.070531033 1.0873277 0.024487386 17 23
0.067366384 1.0502545 0 95 22
-0.070508204 1.0898337 -0.024545414 11 21
0.06681446 1.0391734 -0.046932798 104 20
-0.068833403 1.0677032 -0.071649782 11 19
