# .PCD v0.7 - Point Cloud Data file format
VERSION 0.7
FIELDS x y z intensity ring
SIZE 4 4 4 4 2
TYPE F F F F U
COUNT 1 1 1 1 1
WIDTH 1199
HEIGHT 1
VIEWPOINT 0 0 0 1 0 0 0
POINTS 1199
DATA ascii
0.90167248 -0.076516658 0 11 22
0.91066939 -0.07746233 -0.040993415 64 20
0.90806907 -0.077707738 -0.078685917 4 18
0.88116598 -0.077652372 0.13290262 13 28
0.89004719 -0.078469746 0.082067572 62 26
0.90296024 -0.079646491 0.040644038 39 24
0.89891016 -0.079437472 0 12 22
0.91536742 -0.081093349 -0.041226331 62 20
0.91027188 -0.081103981 -0.078909449 4 18
0.88334858 -0.08095932 0.13328896 18 28
0.89473766 -0.081886627 0.082543328 62 26
0.89770412 -0.082329623 0.040411122 13 24
0.90360522 -0.08304444 0 13 22
0.90513402 -0.083348028 -0.040760498 58 20
0.9075191 -0.083886921 -0.078685917 7 18
0.8830753 -0.083888166 0.13328896 33 28
0.89444637 -0.085009344 0.082543328 59 26
0.89991176 -0.08554846 0.040527578 9 24
0.89337224 -0.085068084 0 18 22
0.89988184 -0.085862584 -0.040527578 56 20
0.91961086 -0.088273473 -0.079803608 8 18
0.87047487 -0.085880503 0.13135725 26 28
0.89165276 -0.088036455 0.082305454 60 26
0.88965368 -0.087840229 0.040061742 9 24
0.89554173 -0.088594109 0 34 22
0.89956105 -0.089160249 -0.040527578 54 20
0.91184986 -0.090884633 -0.079132989 9 18
0.8726263 -0.089175828 0.1317436 30 28
0.88638979 -0.090629824 0.081829697 63 26
0.89679283 -0.091725677 0.040411122 8 24
0.89274061 -0.091458693 0 51 22
0.89427722 -0.091777682 -0.040294662 53 20
0.91152698 -0.09406703 -0.079132989 12 18
0.86739844 -0.09168952 0.13097091 34 28
0.88608438 -0.093568698 0.081829697 63 26
0.89150155 -0.094317831 0.040178202 8 24
0.89490139 -0.094843954 0 67 22
0.90139937 -0.095707841 -0.040644038 51 20
0.90873474 -0.096819468 -0.078909449 12 18
0.87690848 -0.095661573 0.13251628 37 28
0.89069897 -0.097213373 0.082305454 54 26
0.88622016 -0.096719496 0.039945286 8 24
0.90203553 -0.098644443 0 64 22
0.90107697 -0.098696463 -0.040644038 38 20
0.90839118 -0.099990964 -0.078909449 13 18
0.87166178 -0.098156765 0.1317436 45 28
0.88540953 -0.099752404 0.081829697 55 26
0.8933199 -0.1006696 0.040294662 9 24
0.90168577 -0.10179254 0 64 22
0.89078617 -0.10085028 -0.040178202 16 20
0.90061653 -0.10230006 -0.078238837 20 18
0.86884344 -0.1010593 0.13135725 68 28
0.87515301 -0.10182171 0.080878191 62 26
0.89046496 -0.10364827 0.040178202 11 24
0.90130651 -0.1050967 0 64 22
0.90034771 -0.10514186 -0.040644038 9 20
0.91012472 -0.10678477 -0.079132989 24 18
0.85867876 -0.10289089 0.12981187 81 28
0.88220286 -0.10578322 0.081591815 55 26
0.89257663 -0.10705943 0.040294662 13 24
0.89597136 -0.10763372 0 66 22
0.89006042 -0.10706664 -0.040178202 9 20
0.89739013 -0.10843732 -0.078015298 46 18
0.86321557 -0.10650503 0.13058455 80 28
0.87937796 -0.10839751 0.08135394 54 26
0.88228661 -0.10892592 0.039828826 12 24
0.89310986 -0.11044769 0 66 22
0.89711416 -0.11111186 -0.040527578 8 20
0.90443635 -0.11235139 -0.078685917 60 18
0.85795856 -0.1087333 0.12981187 87 28
0.87899423 -0.11146645 0.08135394 41 26
0.88935047 -0.11281212 0.040178202 12 24
0.89025939 -0.11308761 0 66 22
0.89426416 -0.11376498 -0.040411122 9 20
0.90403867 -0.11550778 -0.078685917 67 18
0.85757381 -0.11172747 0.12981187 83 28
0.8810668 -0.11486188 0.081591815 30 26
0.89390242 -0.11657382 0.040411122 12 24
0.8898592 -0.11619451 0 59 22
0.89631659 -0.11737215 -0.040527578 9 20
0.90609795 -0.11899293 -0.078909449 67 18
0.8498168 -0.11386681 0.12865284 84 28
0.91336477 -0.0043713069 0.1072411 9 27
0.88063985 -0.11809039 0.081591815 26 26
0.88852042 -0.11917324 0.040178202 12 24
0.88695043 -0.11911637 0 54 22
0.88847882 -0.11948338 -0.040178202 11 20
0.90318894 -0.12197394 -0.078685917 68 18
0.85430616 -0.11751833 0.12942553 83 28
0.90093625 -0.00749022 0.1057264 38 27
0.87282866 -0.1201272 0.080878191 28 26
0.88809907 -0.12227403 0.040178202 39 24
0.88652921 -0.12221168 0 54 22
0.89547533 -0.12362671 -0.040527578 11 20
0.90522325 -0.12547374 -0.078909449 68 18
0.85389084 -0.12049969 0.12942553 81 28
0.90338612 -0.010657551 0.10602934 46 27
0.87488884 -0.12337461 0.081116065 29 26
0.87283558 -0.12324139 0.039479453 50 24
0.88114822 -0.12459322 0 53 22
0.89256662 -0.12639555 -0.040411122 13 20
0.9048022 -0.12847486 -0.078909449 63 18
0.85837388 -0.12404973 0.13019821 74 28
0.91823411 -0.013837731 0.10784698 49 27
0.86952859 -0.12570326 0.080640309 33 26
0.92513514 -0.014240157 0.061946865 8 25
0.8724221 -0.12613514 0.039479453 53 24
0.88320345 -0.12787886 0 53 22
0.89459044 -0.12987524 -0.040527578 13 20
0.90188509 -0.13126785 -0.078685917 64 18
0.86035573 -0.12756348 0.13058455 70 28
0.91073346 -0.017083598 0.10693816 51 27
0.8764444 -0.13000324 0.08135394 42 26
0.91510218 -0.017467193 0.061252784 30 25
0.86454594 -0.12821417 0.039130077 54 24
0.88272887 -0.13111511 0 38 22
0.89166242 -0.1326237 -0.040411122 14 20
0.89893615 -0.13419889 -0.078462377 60 18
0.85258216 -0.12943484 0.12942553 75 28
0.91314942 -0.020311056 0.1072411 50 27
0.8661474 -0.13154234 0.080402434 47 26
0.92750305 -0.020909481 0.062120385 43 25
0.87149715 -0.13237478 0.039479453 51 24
0.88720709 -0.13495968 0 25 22
0.87885457 -0.13382514 -0.039828826 14 20
0.90092266 -0.13771817 -0.078685917 54 18
0.85700458 -0.13318121 0.13019821 72 28
0.90314925 -0.023269754 0.10602934 50 27
0.86816454 -0.13480188 0.080640309 50 26
0.92243791 -0.024030302 0.061773345 46 25
0.87349647 -0.13580589 0.039595909 47 24
0.92433602 -0.024391463 0.020657606 9 23
0.88426131 -0.13766514 0 18 22
0.88824832 -0.13845474 -0.040294662 17 20
0.89308339 -0.13953385 -0.078015298 53 18
0.84680462 -0.13444789 0.12865284 79 28
0.91299003 -0.026526147 0.1072411 49 27
0.86277509 -0.13703832 0.080164559 51 26
0.92983234 -0.027288852 0.062293906 46 25
0.8681106 -0.13790579 0.039362993 41 24
0.90675646 -0.027141564 0.020251418 32 23
0.88873595 -0.14139438 0 17 22
0.87543368 -0.13955812 -0.039712369 46 20
0.89504874 -0.1430494 -0.078238837 51 18
0.85361695 -0.13875838 0.12981187 56 28
0.90296483 -0.029574305 0.10602934 50 27
0.87211329 -0.14166984 0.081116065 53 26
0.9197548 -0.030393766 0.061599825 38 25
0.87745488 -0.14271469 0.039828826 35 24
0.9216451 -0.030767139 0.020599579 43 23
0.88574517 -0.14424291 0 16 22
0.8823325 -0.14383672 -0.040061742 51 20
0.88963115 -0.14535776 -0.077791758 51 18
0.85558772 -0.14199895 0.13019821 43 28
0.89542121 -0.03232035 0.10512052 47 27
0.86425132 -0.14347199 0.080402434 51 26
0.92712659 -0.033695593 0.062120385 34 25
0.86958915 -0.14437811 0.039479453 30 24
0.921538 -0.033823255 0.020599579 47 23
0.88772714 -0.14759544 0 16 22
0.91902828 -0.034059014 -0.020541552 8 21
0.87938827 -0.14634579 -0.039945286 55 20
0.88911831 -0.14846227 -0.077791758 49 18
0.84778434 -0.14372723 0.12903918 42 28
0.89530289 -0.035445757 0.10512052 43 27
0.86129272 -0.14606559 0.080164559 51 26
0.91952658 -0.036653586 0.061599825 39 25
0.87154102 -0.14783645 0.039595909 25 24
0.91391516 -0.036918029 0.020425498 50 23
0.87488818 -0.14856996 0 20 22
0.91390872 -0.037077539 -0.020425498 32 21
0.87884593 -0.14956795 -0.039945286 53 20
0.88614112 -0.15114029 -0.077568218 28 18
0.84968448 -0.1472616 0.12942553 39 28
0.89516699 -0.038726967 0.10512052 38 27
0.86320257 -0.14965272 0.080402434 50 26
0.92436987 -0.040227231 0.061946865 43 25
0.86607426 -0.15016422 0.039362993 25 24
0.91627795 -0.040210888 0.020483525 50 23
0.87187564 -0.15134189 0 26 22
0.92375535 -0.04084209 -0.020657606 45 21
0.87339979 -0.15176748 -0.039712369 56 20
0.89048517 -0.15525448 -0.078015298 12 18
0.84187204 -0.14891702 0.1282665 43 28
0.90246385 -0.04217878 0.10602934 33 27
0.86022544 -0.15222509 0.080164559 34 26
0.92173237 -0.043343112 0.061773345 46 25
0.87046075 -0.15406922 0.039595909 26 24
0.91613197 -0.043409046 0.020483525 49 23
0.8762632 -0.15526894 0 33 22
0.92360717 -0.044066347 -0.020657606 47 21
0.87532252 -0.15525752 -0.039828826 56 20
0.92172337 -0.043987557 -0.061463423 9 19
0.88503695 -0.15747745 -0.077568218 11 18
0.85106528 -0.15363489 0.12981187 46 28
0.89983237 -0.045210943 0.1057264 28 27
0.87192845 -0.15746887 0.08135394 13 26
0.92406648 -0.046679519 0.061946865 50 25
0.86254847 -0.15575691 0.039246533 32 24
0.91347843 -0.046486329 0.020425498 43 23
0.87079787 -0.15742499 0 41 22
0.92344773 -0.047290076 -0.020657606 49 21
0.87968785 -0.15921365 -0.040061742 53 20
0.92405528 -0.047325671 -0.061636072 38 19
0.88693076 -0.16101663 -0.077791758 9 18
0.85055113 -0.15645631 0.12981187 51 28
0.88728553 -0.047564734 0.10421169 24 27
0.86161578 -0.15853339 0.080402434 11 26
0.92390668 -0.049743574 0.061946865 50 25
0.86448205 -0.15907446 0.039362993 33 24
0.91580659 -0.049803741 0.020483525 38 23
0.86289853 -0.15893474 0 45 22
0.91330194 -0.049834084 -0.020425498 32 21
0.87421739 -0.16136459 -0.039828826 54 20
0.92887461 -0.050648138 -0.061981373 46 19
0.88639188 -0.16395691 -0.077791758 11 18
0.84997201 -0.15957268 0.12981187 68 28
0.88462734 -0.050681408 0.10390875 21 27
0.85858423 -0.16122484 0.080164559 9 26
0.92371815 -0.053129524 0.061946865 51 25
0.85898685 -0.16130769 0.039130077 53 24
0.90065408 -0.052173559 0.020135364 28 23
0.86722183 -0.16303241 0 49 22
0.91560864 -0.053319816 -0.020483525 20 21
0.87119567 -0.16394724 -0.039712369 55 20
0.91623169 -0.053360533 -0.061118122 50 19
0.89312196 -0.16860816 -0.078462377 11 18
0.91940868 -0.05501654 0.17096797 64 29
0.83971077 -0.16065687 0.1282665 83 28
0.88939989 -0.054056458 0.10451463 20 27
0.86778861 -0.16611689 0.081116065 9 26
0.91854757 -0.056062978 0.061599825 51 25
0.86577326 -0.16573209 0.039479453 71 24
0.90545654 -0.055610076 0.020251418 16 23
0.86910158 -0.16653517 0 50 22
0.92290187 -0.056957625 -0.020657606 13 21
0.87061805 -0.16698729 -0.039712369 54 20
0.91106057 -0.056264371 -0.060772825 53 19
0.882752 -0.16981916 -0.077568218 12 18
0.89715892 -0.056888368 0.16670561 56 29
0.83672178 -0.16310814 0.12788014 84 28
0.88672888 -0.057008348 0.10421169 21 27
0.86479145 -0.16851157 0.080878191 9 26
0.91834629 -0.059268966 0.061599825 51 25
0.8627395 -0.16826898 0.039362993 79 24
0.90276235 -0.058615182 0.020193391 12 23
0.86606252 -0.16908273 0 49 22
0.91522449 -0.059550881 -0.020483525 14 21
0.86268079 -0.16857013 -0.039362993 49 20
0.91832614 -0.059911415 -0.061290774 55 19
0.88462639 -0.17323004 -0.077791758 12 18
0.88961613 -0.059393041 0.16528483 60 29
0.83617628 -0.1658819 0.12788014 83 28
0.89396411 -0.060430259 0.10512052 32 27
0.85931838 -0.17054798 0.080402434 12 26
0.91565597 -0.062151738 0.061426304 51 25
0.86707336 -0.17211366 0.039595909 83 24
0.90755105 -0.061935455 0.020309445 11 23
0.85814452 -0.1704739 0 29 22
0.91750503 -0.062909581 -0.020541552 22 21
0.86701322 -0.17241631 -0.039595909 45 20
0.91812235 -0.062956363 -0.061290774 55 19
0.8766942 -0.17483784 -0.077121131 14 18
0.88450509 -0.062167522 0.16433764 58 29
0.83559215 -0.1687997 0.12788014 80 28
0.88879609 -0.06321197 0.10451463 47 27
0.86603206 -0.17504394 0.081116065 12 26
0.91294533 -0.065176666 0.061252784 49 25
0.86646724 -0.17513925 0.039595909 83 24
0.9048245 -0.065088779 0.020251418 9 23
0.87223887 -0.17647938 0 11 22
0.90730649 -0.065419734 -0.020309445 34 21
0.87371427 -0.17709936 -0.039945286 39 20
0.91292089 -0.065815486 -0.060945474 56 19
0.88095653 -0.17890008 -0.077568218 21 18
0.86431587 -0.17827758 0.19615124 95 30
0.89406538 -0.06610588 0.16623202 63 29
0.83496779 -0.17186117 0.12788014 76 28
0.89598399 -0.067004025 0.10542346 53 27
0.8507672 -0.17516851 0.079688802 18 26
0.91518778 -0.068702385 0.061426304 47 25
0.86581957 -0.17831384 0.039595909 81 24
0.89960635 -0.067884192 0.020135364 11 23
0.8691389 -0.17916431 0 8 22
0.91453862 -0.069291271 -0.020483525 43 21
0.86331272 -0.17810537 -0.039479453 38 20
0.91018617 -0.068979278 -0.060772825 53 19
0.8705464 -0.18008585 -0.076674052 25 18
0.84939384 -0.17825514 0.19276932 91 30
0.88648558 -0.068678036 0.16481122 66 29
0.84644371 -0.17733814 0.12981187 67 28
0.89079559 -0.069757327 0.10481758 67 27
0.85261619 -0.17850493 0.079926684 29 26
0.90250832 -0.070952922 0.060558699 39 25
0.85786319 -0.17977995 0.039246533 81 24
0.89936388 -0.071024001 0.020135364 11 23
0.86117184 -0.18063901 0 8 22
0.91430384 -0.072323605 -0.020483525 49 21
0.86268574 -0.1811178 -0.039479453 56 20
0.90993989 -0.072155997 -0.060772825 53 19
0.87481523 -0.18400879 -0.077121131 24 18
0.84403658 -0.18004227 0.19164202 90 30
0.88870013 -0.071808234 0.16528483 68 29
0.83860761 -0.17858197 0.12865284 55 28
0.8955071 -0.073101193 0.10542346 67 27
0.8519879 -0.18148004 0.079926684 32 26
0.90972656 -0.074536286 0.061079264 16 25
0.86214459 -0.18367665 0.039479453 77 24
0.89164907 -0.073411196 0.019961281 12 23
0.85812438 -0.18296632 0 8 22
0.91404581 -0.075514682 -0.020483525 51 21
0.86940336 -0.18555953 -0.039828826 67 20
0.90720952 -0.074974358 -0.060600173 51 19
0.86686695 -0.18548022 -0.076450512 28 18
0.83388734 -0.180897 0.1893874 93 30
0.88844407 -0.07490994 0.16528483 71 29
0.84762967 -0.18362467 0.13019821 30 28
0.88782686 -0.075615346 0.10451463 71 27
0.84648746 -0.18338665 0.079450928 35 26
0.90200448 -0.077094413 0.060558699 12 25
0.85418028 -0.18508004 0.039130077 76 24
0.89137399 -0.076678753 0.019961281 13 23
0.86480612 -0.18756858 0 8 22
0.91875803 -0.079120509 -0.020599579 53 21
0.87115639 -0.18928105 -0.039945286 76 20
0.91191298 -0.078555435 -0.060945474 46 19
0.8710776 -0.18957609 -0.076897591 42 18
0.83321869 -0.18395214 0.1893874 93 30
0.88327181 -0.077748954 0.16433764 74 29
0.85177231 -0.1878061 0.13097091 16 28
0.89496118 -0.079507381 0.10542346 66 27
0.85066748 -0.18757202 0.079926684 37 26
0.91165465 -0.081258945 0.061252784 9 25
0.85837084 -0.18929736 0.039362993 68 24
0.88363099 -0.07914149 0.019787202 30 23
0.86411285 -0.19073698 0 9 22
0.91597193 -0.082270429 -0.020541552 53 21
0.87292755 -0.19286557 -0.040061742 76 20
0.90416515 -0.081247739 -0.060427524 38 19
0.87523645 -0.19385639 -0.077344678 58 18
0.8373217 -0.18793872 0.19051471 91 30
0.89033049 -0.08148247 0.16575842 75 29
0.84388524 -0.18913907 0.12981187 13 28
0.88973475 -0.082187973 0.10481758 67 27
0.85243452 -0.19109078 0.080164559 38 26
0.90639752 -0.083993845 0.060905743 8 25
0.84796315 -0.1900828 0.03889716 64 24
0.89828461 -0.083574153 0.020135364 49 23
0.8561278 -0.19209179 0 9 22
0.91319001 -0.085241616 -0.020483525 51 21
0.86981374 -0.19535822 -0.039945286 77 20
0.89890832 -0.083953016 -0.060082223 29 19
0.87941003 -0.1980162 -0.077791758 68 18
0.83906722 -0.19126183 0.19107836 90 30
0.88761091 -0.084209427 0.16528483 77 29
0.84566027 -0.1924908 0.13019821 12 28
0.89192832 -0.085367642 0.10512052 66 27
0.84694582 -0.19279939 0.079688802 53 26
0.90114772 -0.086535782 0.060558699 7 25
0.84732813 -0.1928937 0.03889716 59 24
0.89302558 -0.086086437 0.020019308 53 23
0.85548615 -0.19492978 0 12 22
0.91041398 -0.088035487 -0.020425498 50 21
0.86672777 -0.19768021 -0.039828826 77 20
0.90607423 -0.087633669 -0.060600173 18 19
0.87632263 -0.20037036 -0.077568218 74 18
0.83128035 -0.19252224 0.1893874 90 30
0.88486809 -0.087073684 0.16481122 77 29
0.84017318 -0.19431601 0.12942553 13 28
0.88915473 -0.088242263 0.10481758 60 27
0.85353726 -0.19745566 0.080402434 79 26
0.89587539 -0.089200169 0.060211658 8 25
0.84908128 -0.19641924 0.039013617 56 24
0.89519167 -0.089601114 0.020077337 63 23
0.85966879 -0.19905484 0 17 22
0.90015113 -0.090242535 -0.020193391 41 21
0.86842877 -0.20142584 -0.039945286 75 20
0.89831609 -0.090069696 -0.060082223 13 19
0.87319386 -0.20285864 -0.077344678 75 18
0.83530778 -0.19669667 0.19051471 90 30
0.88698566 -0.090558827 0.16528483 79 29
0.8346495 -0.19625096 0.12865284 13 28
0.88882536 -0.09150058 0.10481758 56 27
0.85280782 -0.20058271 0.080402434 88 26
0.8980239 -0.092732549 0.060385179 8 25
0.85321468 -0.20068575 0.039246533 55 24
0.88990003 -0.092223696 0.019961281 68 23
0.84920526 -0.19988856 0 24 22
0.90230083 -0.093792848 -0.020251418 20 21
0.86043245 -0.20271979 -0.039595909 74 20
0.89549851 -0.09311042 -0.059909575 13 19
0.87486637 -0.20663601 -0.077568218 75 18
0.83224875 -0.19903851 0.18995105 90 30
0.88422233 -0.093403392 0.16481122 79 29
0.84116215 -0.2009031 0.12981187 16 28
0.88850051 -0.0946026 0.10481758 51 27
0.85210246 -0.20355836 0.080402434 90 26
0.90017533 -0.096124768 0.060558699 9 25
0.84765399 -0.20249006 0.039013617 37 24
0.89205849 -0.095588982 0.020019308 67 23
0.84607238 -0.2022642 0 28 22
0.89699656 -0.096421137 -0.020135364 12 21
0.85971957 -0.205722 -0.039595909 72 20
0.89764851 -0.096495554 -0.060082223 14 19
0.86929995 -0.20851506 -0.077121131 76 18
0.83154893 -0.20194238 0.18995105 90 30
0.8863318 -0.096748896 0.16528483 80 29
0.83325905 -0.20207307 0.12865284 26 28
0.88322991 -0.097174339 0.10421169 50 27
0.85625702 -0.2075676 0.080878191 89 26
0.8973546 -0.098999627 0.060385179 9 25
0.84451663 -0.20485285 0.03889716 14 24
0.88923442 -0.098434076 0.019961281 68 23
0.84778911 -0.20581222 0 30 22
0.89667189 -0.099395156 -0.020135364 9 21
0.86142141 -0.20931742 -0.039712369 66 20
0.90474486 -0.10043381 -0.060600173 37 19
0.87585747 -0.213181 -0.077791758 72 18
0.83087468 -0.2046988 0.18995105 90 30
0.88112593 -0.099152222 0.16433764 79 29
0.8373782 -0.20602772 0.12942553 32 28
0.8779698 -0.099557221 0.10360581 49 27
0.85552728 -0.21055526 0.080878191 89 26
0.89702141 -0.10197482 0.060385179 12 25
0.8559497 -0.21066663 0.039479453 12 24
0.88640153 -0.10126062 0.019903254 68 23
0.84467602 -0.2080185 0 30 22
0.89383554 -0.10224722 -0.020077337 8 21
0.85583931 -0.21111478 -0.039479453 60 20
0.90192819 -0.10315679 -0.060427524 50 19
0.875108 -0.21623701 -0.077791758 72 18
0.83484131 -0.2089377 0.19107836 90 30
0.88075662 -0.10238104 0.16433764 79 29
0.83182806 -0.20788534 0.12865284 39 28
0.88006449 -0.10305624 0.10390875 33 27
0.8450985 -0.21125092 0.079926684 90 26
0.89911944 -0.10554595 0.060558699 13 25
0.85759312 -0.21441419 0.039595909 11 24
0.89100862 -0.10492519 0.020019308 64 23
0.85117906 -0.21295153 0 51 22
0.9009034 -0.1063818 -0.020251418 7 21
0.84783423 -0.21226312 -0.039130077 59 20
0.89906645 -0.10617603 -0.060254876 55 19
0.87189603 -0.21883091 -0.077568218 72 18
0.83646601 -0.21245627 0.19164202 90 30
0.88527006 -0.10602507 0.16528483 74 29
0.82870471 -0.21017429 0.1282665 43 28
0.87723494 -0.10583723 0.10360581 22 27
0.84676659 -0.21481764 0.080164559 89 26
0.88636178 -0.10722028 0.059691094 14 25
0.84958225 -0.21554582 0.039246533 11 24
0.88567299 -0.10744634 0.019903254 64 23
0.85769522 -0.21778531 0 67 22
0.89556283 -0.10893576 -0.020135364 8 21
0.84950697 -0.21584238 -0.039246533 53 20
0.90116692 -0.10960815 -0.060427524 60 19
0.87353826 -0.22249356 -0.077791758 72 18
0.83100528 -0.21414687 0.19051471 90 30
0.88002038 -0.10852733 0.16433764 71 29
0.82079482 -0.21120043 0.12710746 45 28
0.8793236 -0.10919769 0.10390875 12 27
0.84845823 -0.2182505 0.080402434 80 26
0.89340919 -0.11121766 0.060211658 16 25
0.85607529 -0.22039603 0.039595909 11 24
0.89025438 -0.11114299 0.020019308 60 23
0.85451043 -0.22014815 0 79 22
0.90015835 -0.11251154 -0.020251418 8 21
0.84149843 -0.21691792 -0.03889716 51 20
0.90325439 -0.11305623 -0.060600173 64 19
0.86315817 -0.22287512 -0.076897591 75 18
0.8326456 -0.21752319 0.19107836 90 30
0.87965566 -0.11144499 0.16433764 67 29
0.82247829 -0.21455081 0.1274938 46 28
0.87649417 -0.11180589 0.10360581 8 27
0.84528476 -0.22057638 0.080164559 75 26
0.89551014 -0.11448925 0.060385179 42 25
0.85292494 -0.22259702 0.039479453 12 24
0.88244116 -0.11316131 0.019845227 58 23
0.85377568 -0.22298059 0 76 22
0.89976013 -0.11565299 -0.020251418 9 21
0.84318906 -0.22034474 -0.039013617 29 20
0.89792544 -0.11542832 -0.060254876 68 19
0.86478204 -0.22652365 -0.077121131 72 18
0.82247013 -0.21790843 0.18882374 89 30
0.86952102 -0.11327404 0.16244325 64 29
0.8264966 -0.21869653 0.1282665 49 28
0.8736372 -0.11454899 0.10330287 7 27
0.84450972 -0.22352561 0.080164559 74 26
0.90005231 -0.11825086 0.060732223 50 25
0.85214275 -0.22557291 0.039479453 14 24
0.88449925 -0.11671503 0.019903254 53 23
0.848162 -0.22466706 0 83 22
0.89439362 -0.11815184 -0.020135364 9 21
0.8544367 -0.22666542 -0.039595909 12 20
0.89751703 -0.11856198 -0.060254876 67 19
0.86879599 -0.23083152 -0.077568218 68 18
0.81931549 -0.22028287 0.18826009 85 30
0.86910003 -0.11646023 0.16244325 59 29
0.81853819 -0.21978402 0.12710746 88 28
0.87813187 -0.11839979 0.10390875 8 27
0.83888113 -0.22531608 0.079688802 67 26
0.89466804 -0.1208944 0.060385179 59 25
0.84407979 -0.22673291 0.039130077 17 24
0.88408643 -0.1198018 0.019903254 50 23
0.84492028 -0.22711915 0 83 22
0.89395458 -0.12142915 -0.020135364 11 21
0.85605019 -0.23030135 -0.039712369 11 20
0.89954871 -0.12217972 -0.060427524 66 19
0.86554158 -0.23336016 -0.077344678 71 18
0.82323796 -0.22443506 0.1893874 76 30
0.86625546 -0.11916563 0.16196965 58 29
0.82252896 -0.22395009 0.12788014 90 28
0.87525421 -0.12113097 0.10360581 8 27
0.84048903 -0.228903 0.079926684 62 26
0.89424056 -0.12401664 0.060385179 67 25
0.84809893 -0.23100258 0.039362993 24 24
0.87375712 -0.12153722 0.019671148 29 23
0.85135335 -0.2320575 0 77 22
0.89600158 -0.12488724 -0.020193391 12 21
0.86005634 -0.23461446 -0.039945286 9 20
0.89170349 -0.12430615 -0.059909575 67 19
0.86472172 -0.23638006 -0.077344678 66 18
0.82010359 -0.22665234 0.18882374 63 30
0.86340255 -0.12185257 0.16149606 53 29
0.81698382 -0.2254931 0.12710746 90 28
0.87728393 -0.12452737 0.10390875 8 27
0.83493072 -0.23035292 0.079450928 58 26
0.88886207 -0.12644835 0.060038138 68 25
0.83766526 -0.23127867 0.03889716 30 24
0.87332749 -0.12458648 0.019671148 14 23
0.85053813 -0.23502788 0 71 22
0.8980577 -0.12820433 -0.020251418 14 21
0.85682684 -0.23694362 -0.039828826 8 20
0.89620394 -0.1281105 -0.060254876 63 19
0.86633116 -0.23991671 -0.077568218 67 18
0.82637864 -0.23135896 0.19051471 51 30
0.87028521 -0.12574759 0.16291684 51 29
0.81860858 -0.22887237 0.1274938 90 28
0.86458242 -0.12568544 0.10239404 9 27
0.83891147 -0.23461869 0.079926684 47 26
0.88596886 -0.12904252 0.059864614 70 25
0.84170038 -0.23541261 0.039130077 33 24
0.88528007 -0.12925343 0.019961281 11 23
0.8497541 -0.23784706 0 72 22
0.89513075 -0.13098319 -0.020193391 16 21
0.85123026 -0.23842457 -0.039595909 8 20
0.89577419 -0.13108172 -0.060254876 63 19
0.86548835 -0.24293931 -0.077568218 66 18
0.81854182 -0.23222932 0.18882374 41 30
0.86984098 -0.12878469 0.16291684 47 29
0.81780463 -0.23172843 0.1274938 90 28
0.86168283 -0.12834398 0.1020911 12 27
0.83330214 -0.23617616 0.079450928 30 26
0.88551307 -0.13213435 0.059864614 72 25
0.8384726 -0.23766217 0.039013617 35 24
0.87490934 -0.13104375 0.019729175 9 23
0.85132205 -0.24150006 0 64 22
0.89466816 -0.13410698 -0.020193391 43 21
0.84795016 -0.24085453 -0.039479453 9 20
0.89531118 -0.13420774 -0.060254876 59 19
0.86463511 -0.24595892 -0.077568218 67 18
0.82236302 -0.2365869 0.18995105 41 30
0.87421906 -0.13269508 0.16386405 34 29
0.81694984 -0.2347243 0.1274938 90 28
0.85875249 -0.13113368 0.10178816 13 27
0.83721107 -0.24061576 0.079926684 20 26
0.88009018 -0.13463832 0.059517574 74 25
0.83519745 -0.24003784 0.03889716 37 24
0.88186097 -0.135213 0.019903254 8 23
0.84082776 -0.24183047 0 60 22
0.8991133 -0.13813093 -0.020309445 51 21
0.85429871 -0.24590312 -0.039828826 11 20
0.88988096 -0.13674414 -0.059909575 55 19
0.8589462 -0.24773444 -0.077121131 59 18
0.81919563 -0.23876835 0.1893874 42 30
0.87132382 -0.13537583 0.16339043 24 29
0.82086492 -0.23896763 0.1282665 90 28
0.86074239 -0.1345067 0.1020911 20 27
0.83636612 -0.24353668 0.079926684 14 26
0.8820799 -0.13808855 0.059691094 74 25
0.83914632 -0.24436024 0.039130077 46 24
0.88385379 -0.13867107 0.019961281 8 23
0.83997852 -0.24476403 0 53 22
0.8961556 -0.14088708 -0.020251418 60 21
0.85103941 -0.24817859 -0.039712369 12 20
0.89186305 -0.14023027 -0.060082223 53 19
0.86285287 -0.25213978 -0.077568218 63 18
0.81602311 -0.24093062 0.18882374 46 30
0.88054752 -0.1399305 0.16528483 11 29
0.8200258 -0.24183154 0.1282665 90 28
0.85536456 -0.13674088 0.10148522 25 27
0.82839799 -0.24417965 0.079213053 13 26
0.88159251 -0.14116673 0.059691094 68 25
0.83589488 -0.24657536 0.039013617 76 24
0.88089556 -0.1413662 0.019903254 8 23
0.83911902 -0.2476946 0 51 22
0.88827723 -0.142689 -0.020077337 71 21
0.84777474 -0.25043434 -0.039595909 17 20
0.88644123 -0.14256401 -0.059736926 28 19
0.85962611 -0.25428754 -0.077344678 64 18
0.81288785 -0.24293174 0.18826009 50 30
0.87038219 -0.14130354 0.16339043 8 29
0.80739474 -0.2409862 0.12633477 90 28
0.8671577 -0.14154115 0.10299993 28 27
0.83707184 -0.24994202 0.080164559 12 26
0.88358182 -0.14448518 0.059864614 68 25
0.83507258 -0.24934591 0.039013617 87 24
0.88039666 -0.14444023 0.019903254 8 23
0.83829302 -0.25047585 0 51 22
0.8828389 -0.1449922 -0.019961281 76 21
0.84928608 -0.25411388 -0.039712369 21 20
0.88350147 -0.1451053 -0.05956427 14 19
0.85158271 -0.25512508 -0.076674052 62 18
0.80733359 -0.24448526 0.18713279 51 30
0.86501306 -0.14370185 0.16244325 7 29
0.80650604 -0.24394383 0.12633477 90 28
0.86173552 -0.14391473 0.10239404 47 27
0.83138984 -0.25155482 0.079688802 14 26
0.88550735 -0.14812744 0.060038138 63 25
0.83892989 -0.25386354 0.039246533 85 24
0.87742108 -0.14710602 0.019845227 9 23
0.83019662 -0.25135514 0 35 22
0.88723338 -0.14904167 -0.020077337 72 21
0.84600568 -0.25634676 -0.039595909 25 20
0.88542432 -0.14874902 -0.059736926 11 19
0.85540354 -0.2597031 -0.077121131 64 18
0.80647522 -0.24730192 0.18713279 64 30
0.86692744 -0.14712434 0.16291684 8 29
0.80328983 -0.24602801 0.12594843 90 28
0.86612272 -0.14774273 0.10299993 55 27
0.82812905 -0.25372028 0.079450928 17 26
0.88252527 -0.15080419 0.059864614 54 25
0.83803862 -0.2567904 0.039246533 85 24
0.87443769 -0.14975283 0.019787202 11 23
0.83409089 -0.25572926 0 12 22
0.88177872 -0.15130588 -0.019961281 76 21
0.84033453 -0.25782138 -0.039362993 28 20
0.88244045 -0.15142375 -0.05956427 8 19
0.85449189 -0.26268739 -0.077121131 68 18
0.81025541 -0.25157225 0.18826009 90 30
0.86156893 -0.14932492 0.16196965 9 29
0.80714053 -0.25030613 0.12672111 87 28
0.85581791 -0.14908928 0.10178816 75 27
0.83203346 -0.25795096 0.079926684 21 26
0.88199353 -0.15388386 0.059864614 53 25
0.83475387 -0.25896817 0.039130077 85 24
0.87883592 -0.15365164 0.019903254 12 23
0.83796465 -0.26013356 0 9 22
0.88373518 -0.15465327 -0.020019308 74 21
0.83704644 -0.26000634 -0.039246533 30 20
0.8892799 -0.15577407 -0.060082223 7 19
0.85361606 -0.26551956 -0.077121131 66 18
0.80941677 -0.25425777 0.18826009 93 30
0.87074298 -0.15386258 0.16386405 11 29
0.81101561 -0.25447255 0.1274938 79 28
0.85776335 -0.15235353 0.1020911 85 27
0.8335005 -0.26160502 0.080164559 22 26
0.87165195 -0.15508752 0.059170533 32 25
0.83389056 -0.2617349 0.039130077 87 24
0.86601287 -0.15440586 0.019613121 13 23
0.82994765 -0.26064569 0 9 22
0.88319004 -0.15773714 -0.020019308 71 21
0.83617967 -0.26278064 -0.039246533 53 20
0.87893295 -0.15699497 -0.059391622 7 19
0.85031086 -0.26774389 -0.076897591 64 18
0.80388594 -0.2555933 0.18713279 95 30
0.86294949 -0.1556147 0.16244325 12 29
0.80777025 -0.25654814 0.12710746 76 28
0.85966939 -0.15578237 0.10239404 85 27
0.82784247 -0.26299384 0.079688802 28 26
0.87110531 -0.15812922 0.059170533 18 25
0.83059371 -0.26388195 0.039013617 84 24
0.86544114 -0.1575789 0.019613121 17 23
0.83855516 -0.26659477 0 8 22
0.88509411 -0.16126038 -0.020077337 66 21
0.8399663 -0.26737043 -0.039479453 71 20
0.88574415 -0.16138318 -0.059909575 7 19
0.85174155 -0.27147242 -0.077121131 64 18
0.80989301 -0.26079592 0.18882374 96 30
0.86720413 -0.15965182 0.16339043 13 29
0.80212581 -0.25798216 0.12633477 53 28
0.85909265 -0.15893216 0.10239404 85 27
0.82687294 -0.26602626 0.079688802 29 26
0.87051988 -0.16132089 0.059170533 14 25
0.8319962 -0.26769534 0.039130077 81 24
0.86488581 -0.1605989 0.019613121 18 23
0.83757234 -0.26966643 0 8 22
0.88449711 -0.16450334 -0.020077337 66 21
0.83902794 -0.27030084 -0.039479453 72 20
0.88269341 -0.16417915 -0.059736926 8 19
0.85074085 -0.27459234 -0.077121131 63 18
0.79740888 -0.25981772 0.18600549 96 30
0.86422777 -0.16223191 0.16291684 21 29
0.81060708 -0.26386306 0.12788014 32 28
0.85121298 -0.16057074 0.10148522 88 27
0.8235749 -0.26813447 0.079450928 30 26
0.87730718 -0.16572721 0.059691094 11 25
0.82868415 -0.26981875 0.039013617 79 24
0.86677688 -0.16407497 0.019671148 49 23
0.8318758 -0.27102762 0 9 22
0.88146061 -0.1671309 -0.020019308 64 21
0.83807921 -0.27322796 -0.039479453 74 20
0.88211501 -0.16725934 -0.059736926 8 19
0.85214221 -0.2783393 -0.077344678 59 18
0.80111933 -0.26413724 0.18713279 96 30
0.85400707 -0.16342963 0.16102245 30 29
0.80733711 -0.2659122 0.1274938 24 28
0.85064733 -0.16354105 0.10148522 88 27
0.81559563 -0.26851118 0.078737296 33 26
0.86937243 -0.16739431 0.059170533 9 25
0.82536733 -0.27192232 0.03889716 76 24
0.86128813 -0.16616637 0.019555094 63 23
0.83804166 -0.27629587 0 9 22
0.88826752 -0.17145416 -0.020193391 55 21
0.83949006 -0.27693999 -0.039595909 77 20
0.87417573 -0.16893803 -0.059218969 9 19
0.85357696 -0.28195032 -0.077568218 60 18
0.80485606 -0.2683453 0.18826009 95 30
0.85346037 -0.16626072 0.16102245 33 29
0.81113362 -0.27016112 0.1282665 17 28
0.85253704 -0.16683069 0.10178816 85 27
0.81701249 -0.27214903 0.078975171 33 26
0.87371004 -0.17122209 0.059517574 9 25
0.82446104 -0.27465785 0.03889716 68 24
0.87051779 -0.17107253 0.019787202 70 23
0.83238137 -0.27748027 0 11 22
0.88275629 -0.17360252 -0.020077337 53 21
0.83615136 -0.27907214 -0.039479453 75 20
0.87605906 -0.17231058 -0.059391622 11 19
0.85022789 -0.28413317 -0.077344678 62 18
0.80617279 -0.27207834 0.18882374 92 30
0.84561813 -0.1679737 0.15960167 35 29
0.80312258 -0.27074677 0.12710746 16 28
0.85435486 -0.17043288 0.1020911 83 27
0.81600952 -0.27514172 0.078975171 56 26
0.86573565 -0.17297769 0.058997013 11 25
0.82108456 -0.27687383 0.0387807 67 24
0.86501127 -0.17314267 0.019671148 76 23
0.82662535 -0.27891871 0 13 22
0.87230641 -0.1748984 -0.019845227 28 21
0.83753622 -0.28279394 -0.039595909 70 20
0.87297493 -0.17503676 -0.059218969 12 19
0.85153747 -0.28805116 -0.077568218 58 18
0.80061233 -0.27330488 0.18769644 90 30
0.8426193 -0.1704447 0.15912808 50 29
0.80450833 -0.27435187 0.1274938 17 28
0.8537547 -0.17341408 0.1020911 81 27
0.82445753 -0.28122604 0.079926684 70 26
0.87979829 -0.17894097 0.060038138 11 25
0.81775153 -0.27892604 0.03866424 67 24
0.86685193 -0.17665337 0.019729175 77 23
0.83037448 -0.2834295 0 16 22
0.87659103 -0.17892857 -0.019961281 17 21
0.83654398 -0.28571579 -0.039595909 71 20
0.87235868 -0.17808294 -0.059218969 13 19
0.80195355 -0.27689886 0.18826009 90 30
0.84923625 -0.17484936 0.16054887 59 29
0.80121285 -0.27634698 0.12710746 18 28
0.84584945 -0.1749064 0.10118228 75 27
0.81646848 -0.2815069 0.079213053 79 26
0.87428117 -0.18101311 0.059691094 11 25
0.82620758 -0.28506064 0.039130077 64 24
0.86623007 -0.17967819 0.019729175 77 23
0.81993574 -0.28303933 0 18 22
0.87844139 -0.18233575 -0.020019308 12 21
0.82610804 -0.28534904 -0.039130077 74 20
0.88150477 -0.18312952 -0.059909575 26 19
0.80562592 -0.28117391 0.1893874 90 30
0.85345995 -0.17865677 0.16149606 71 29
0.80495238 -0.28064081 0.12788014 21 28
0.84526479 -0.17771037 0.10118228 74 27
0.81548083 -0.28435519 0.079213053 76 26
0.86390853 -0.18188322 0.058997013 12 25
0.82290184 -0.28697062 0.039013617 37 24
0.86562937 -0.18254972 0.019729175 74 23
0.82606775 -0.2882455 0 22 22
0.87290603 -0.18438132 -0.019903254 9 21
0.82751292 -0.28891602 -0.039246533 64 20
0.87356794 -0.18452546 -0.059391622 51 19
0.80693412 -0.28480101 0.18995105 90 30
0.85523343 -0.18213934 0.16196965 85 29
0.79931331 -0.28179422 0.12710746 22 28
0.85192376 -0.18219623 0.1020911 67 27
0.81682825 -0.2880336 0.079450928 76 26
0.86570853 -0.18541326 0.059170533 12 25
0.83130717 -0.29318723 0.039479453 24 24
0.86250943 -0.18520324 0.019671148 71 23
0.82976735 -0.29280287 0 26 22
0.87714702 -0.18846393 -0.020019308 9 21
0.82880098 -0.29278478 -0.039362993 58 20
0.87047869 -0.18705639 -0.059218969 59 19
0.80588484 -0.28775665 0.18995105 90 30
0.85696059 -0.18578599 0.16244325 85 29
0.80059934 -0.28555784 0.1274938 29 28
0.8463977 -0.1842754 0.10148522 42 27
0.82045066 -0.29270986 0.079926684 74 26
0.8601467 -0.18753603 0.058823492 13 25
0.82317716 -0.29369688 0.039130077 20 24
0.86430097 -0.1887393 0.019729175 71 23
0.81692696 -0.29160997 0 37 22
0.86423504 -0.18904099 -0.019729175 9 21
0.82307458 -0.29398423 -0.039130077 54 20
0.87953877 -0.19235042 -0.059909575 64 19
0.79800928 -0.28806889 0.18826009 90 30
0.85630685 -0.18877621 0.16244325 84 29
0.79727638 -0.28750673 0.12710746 32 28
0.85059816 -0.18828775 0.1020911 33 27
0.8147462 -0.29387131 0.079450928 75 26
0.85461414 -0.18947138 0.058476452 14 25
0.83153486 -0.29998171 0.039595909 13 24
0.85631269 -0.19015014 0.019555094 70 23
0.82295215 -0.29702374 0 58 22
0.87333477 -0.19419995 -0.019961281 9 21
0.81969678 -0.29600137 -0.039013617 53 20
0.87398994 -0.19434997 -0.05956427 72 19
0.8016215 -0.29239482 0.1893874 67 30
0.85088223 -0.19055553 0.16149606 84 29
0.80327398 -0.29270399 0.1282665 32 28
0.84512377 -0.19003232 0.10148522 28 27
0.81610322 -0.29742956 0.079688802 71 26
0.85641569 -0.1928454 0.058649972 16 25
0.82584727 -0.30101538 0.039362993 13 24
0.8581171 -0.19353183 0.019613121 68 23
0.82196265 -0.2997511 0 74 22
0.87024647 -0.19655101 -0.019903254 9 21
0.83042979 -0.30302745 -0.039595909 53 20
0.87334061 -0.19724718 -0.05956427 75 19
0.79603004 -0.29349402 0.18826009 33 30
0.85021192 -0.19352451 0.16149606 79 29
0.80456287 -0.29636589 0.12865284 34 28
0.84445536 -0.1929812 0.10148522 20 27
0.817393 -0.30114272 0.079926684 70 26
0.85816997 -0.19638324 0.058823492 39 25
0.8224504 -0.30302703 0.039246533 13 24
0.85496438 -0.19612366 0.019555094 64 23
0.81856781 -0.30174786 0 75 22
0.86955512 -0.19958754 -0.019903254 9 21
0.82463229 -0.30432808 -0.039362993 37 20
0.86778206 -0.19919194 -0.059218969 72 19
0.79494894 -0.29640967 0.18826009 20 30
0.8494969 -0.19663937 0.16149606 79 29
0.80115896 -0.29844454 0.1282665 34 28
0.8364861 -0.19441043 0.10057639 13 27
0.813954 -0.30326182 0.079688802 75 26
0.867167 -0.20176117 0.059517574 51 25
0.81198263 -0.30252811 0.0387807 18 24
0.85427451 -0.19910686 0.019555094 62 23
0.81979668 -0.30562523 0 77 22
0.8663823 -0.2022119 -0.019845227 11 21
0.81888974 -0.30544749 -0.039130077 12 20
0.8694765 -0.20293137 -0.059391622 75 19
0.79163253 -0.29831779 0.18769644 17 30
0.84641427 -0.19904837 0.16102245 72 29
0.79549372 -0.2994867 0.1274938 34 28
0.83821917 -0.19789241 0.10087934 17 27
0.81289047 -0.3061012 0.079688802 72 26
0.8664574 -0.20478693 0.059517574 58 25
0.81792611 -0.30801854 0.039130077 17 24
0.85114062 -0.2015186 0.019497067 58 23
0.81638765 -0.30759764 0 80 22
0.8681047 -0.2058048 -0.019903254 11 21
0.82715666 -0.31185126 -0.039595909 9 20
0.87119114 -0.20653383 -0.05956427 71 19
0.78603864 -0.29933363 0.18656914 13 30
0.84332508 -0.20143825 0.16054887 66 29
0.79674971 -0.30314603 0.12788014 63 28
0.83510846 -0.20024543 0.10057639 21 27
0.80954707 -0.30790451 0.079450928 67 26
0.85845733 -0.20608388 0.058997013 60 25
0.80985075 -0.30818942 0.0387807 17 24
0.84556866 -0.20333336 0.019381013 33 23
0.82464534 -0.31402749 0 70 22
0.86012268 -0.20694859 -0.019729175 13 21
0.82140017 -0.3129468 -0.039362993 9 20
0.86561221 -0.20841934 -0.059218969 74 19
0.78958356 -0.30369934 0.18769644 18 30
0.84503978 -0.20480508 0.16102245 62 29
0.78883016 -0.30311048 0.12672111 89 28
0.83685273 -0.20359336 0.10087934 22 27
0.80150527 -0.30803224 0.078737296 55 26
0.86019397 -0.20951298 0.059170533 64 25
0.81348181 -0.312677 0.039013617 13 24
0.84974921 -0.2073074 0.019497067 22 23
0.82126838 -0.31585717 0 72 22
0.85453594 -0.20877688 -0.019613121 14 21
0.82734317 -0.31837693 -0.039712369 8 20
0.86734074 -0.21187384 -0.059391622 67 19
0.79078656 -0.30734193 0.18826009 21 30
0.83954906 -0.20659415 0.16007526 59 29
0.79466778 -0.30856225 0.12788014 90 28
0.836137 -0.20651329 0.10087934 30 27
0.80737787 -0.31354868 0.079450928 47 26
0.85945737 -0.21251433 0.059170533 53 25
0.81238544 -0.31551468 0.039013617 13 24
0.84412849 -0.20923156 0.019381013 17 23
0.81783283 -0.31781062 0 72 22
0.85380203 -0.21175848 -0.019613121 14 21
0.82152057 -0.31958476 -0.039479453 8 20
0.86417359 -0.21430649 -0.059218969 68 19
0.78739023 -0.30934167 0.18769644 22 30
0.83640307 -0.20908141 0.15960167 53 29
0.786641 -0.30874744 0.12672111 90 28
0.84260052 -0.21136744 0.10178816 37 27
0.80390894 -0.31559041 0.079213053 49 26
0.8514111 -0.21386054 0.058649972 47 25
0.81122357 -0.31849006 0.039013617 13 24
0.8409676 -0.21157387 0.019322986 13 23
0.81666255 -0.320806 0 70 22
0.86272126 -0.21730156 -0.019845227 45 21
0.82039994 -0.32245046 -0.039479453 9 20
0.86096215 -0.21686989 -0.059046321 60 19
0.78630561 -0.31208831 0.18769644 26 30
0.84043032 -0.21319327 0.16054887 45 29
0.79243946 -0.31424084 0.12788014 88 28
0.83463782 -0.21249121 0.10087934 42 27
0.80973542 -0.32116488 0.079926684 63 26
0.85307783 -0.21744047 0.058823492 41 25
0.81242585 -0.32224643 0.039130077 14 24
0.85234082 -0.21756518 0.019613121 12 23
0.81321633 -0.32272673 0 64 22
0.86680382 -0.22153622 -0.019961281 51 21
0.8215881 -0.32623965 -0.039595909 9 20
0.86019981 -0.21987388 -0.059046321 58 19
0.79198623 -0.3175683 0.1893874 32 30
0.83254415 -0.21431039 0.15912808 37 29
0.78217596 -0.3133072 0.12633477 90 28
0.83869994 -0.21663094 0.10148522 45 27
0.80405009 -0.32198617 0.079450928 70 26
0.84748113 -0.21918157 0.058476452 33 25
0.80666453 -0.32321098 0.03889716 30 24
0.85157621 -0.22053908 0.019613121 12 23
0.80976671 -0.32462728 0 67 22
0.86606443 -0.22440942 -0.019961281 63 21
0.82044429 -0.32910553 -0.039595909 11 20
0.85942709 -0.22287519 -0.059046321 49 19
0.78416312 -0.31743324 0.18769644 32 30
0.83658278 -0.21829595 0.16007526 21 29
0.7811327 -0.31589925 0.12633477 88 28
0.83797699 -0.21941099 0.10148522 50 27
0.80753058 -0.32666907 0.079926684 76 26
0.85399216 -0.2238678 0.058997013 26 25
0.81021363 -0.32776895 0.039130077 37 24
0.84838212 -0.22288197 0.019555094 12 23
0.80868578 -0.3273108 0 64 22
0.8652758 -0.22743118 -0.019961281 64 21
0.81929052 -0.33196741 -0.039595909 12 20
0.86592478 -0.22760615 -0.05956427 25 19
0.78749812 -0.32216147 0.18882374 34 30
0.84052646 -0.22260405 0.16102245 11 29
0.78453749 -0.32064098 0.12710746 81 28
0.83716714 -0.22248085 0.10148522 51 27
0.8086291 -0.33057415 0.080164559 77 26
0.84593034 -0.22509271 0.058476452 21 25
0.80669761 -0.32978547 0.039013617 32 24
0.84034836 -0.22393176 0.019381013 12 23
0.80748069 -0.33027256 0 67 22
0.85476995 -0.22805068 -0.019729175 72 21
0.8112002 -0.33197033 -0.039246533 12 20
0.85785019 -0.22886966 -0.059046321 16 19
0.78861731 -0.32584438 0.1893874 33 30
0.83737177 -0.22490671 0.16054887 8 29
0.78341347 -0.32337758 0.12710746 81 28
0.83638543 -0.22540173 0.10148522 49 27
0.80747026 -0.33339483 0.080164559 77 26
0.85718775 -0.23125899 0.059344053 17 25
0.81245911 -0.33547601 0.039362993 16 24
0.8492201 -0.22944452 0.019613121 13 23
0.80632287 -0.3330892 0 66 22
0.85638309 -0.23167901 -0.019787202 70 21
0.80542541 -0.33288056 -0.039013617 16 20
0.85945535 -0.23250739 -0.059218969 12 19
0.78747511 -0.32859519 0.1893874 35 30
0.84132218 -0.22910477 0.16149606 8 29
0.77772528 -0.32419753 0.12633477 83 28
0.83798921 -0.22896719 0.10178816 33 27
0.80406553 -0.33510745 0.079926684 80 26
0.84915304 -0.2322956 0.058823492 17 25
0.79977071 -0.33347535 0.0387807 11 24
0.84117693 -0.23044661 0.01943904 14 23
0.80976498 -0.33783853 0 34 22
0.86043453 -0.23582566 -0.019903254 67 21
0.81576931 -0.34052867 -0.039595909 13 20
0.86104554 -0.23615909 -0.059391622 9 19
0.77965462 -0.32835093 0.18769644 37 30
0.83345336 -0.2299552 0.16007526 8 29
0.78119415 -0.3287026 0.12710746 80 28
0.83483177 -0.23108956 0.10148522 26 27
0.79830819 -0.33596975 0.079450928 81 26
0.84597278 -0.23445086 0.058649972 17 25
0.80785751 -0.34002391 0.039246533 11 24
0.84522843 -0.234558 0.019555094 21 23
0.80173534 -0.33759388 0 28 22
0.86683589 -0.24081507 -0.020077337 63 21
0.80773878 -0.34030586 -0.039246533 17 20
0.86025763 -0.23901312 -0.059391622 8 19
0.78522021 -0.33394775 0.1893874 81 30
0.83737731 -0.23417176 0.16102245 8 29
0.78685427 -0.33434296 0.1282665 72 28
0.83402002 -0.23400226 0.10148522 13 27
0.80170643 -0.3407127 0.079926684 80 26
0.84274638 -0.23673472 0.058476452 34 25
0.81125742 -0.34480694 0.039479453 9 24
0.83473212 -0.23497258 0.019322986 32 23
0.80285019 -0.34137446 0 26 22
0.85395205 -0.24048513 -0.019787202 70 21
0.81566745 -0.34719923 -0.039712369 38 20
0.85221058 -0.24000622 -0.058873672 9 19
0.78622627 -0.33779076 0.18995105 90 30
0.83414996 -0.23657632 0.16054887 9 29
0.78789067 -0.33820486 0.12865284 54 28
0.8355456 -0.23772986 0.10178816 11 27
0.80045229 -0.34364879 0.079926684 71 26
0.8562758 -0.24388123 0.059517574 49 25
0.80311143 -0.34480506 0.039130077 9 24
0.83631223 -0.23856375 0.019381013 38 23
0.8038882 -0.34530723 0 33 22
0.85547 -0.24429306 -0.019845227 66 21
0.80528301 -0.34607717 -0.039246533 58 20
0.85372525 -0.24380633 -0.059046321 9 19
0.77834654 -0.33760783 0.18826009 90 30
0.83804137 -0.24082914 0.16149606 9 29
0.78217787 -0.33897689 0.12788014 49 28
0.83232427 -0.23996434 0.10148522 11 27
0.79696703 -0.34544528 0.079688802 67 26
0.848225 -0.24481392 0.058997013 59 25
0.81105804 -0.35160226 0.039595909 9 24
0.84028041 -0.24285603 0.019497067 45 23
0.80267805 -0.34811124 0 42 22
0.8594175 -0.24865386 -0.019961281 62 21
0.8086468 -0.35088557 -0.039479453 68 20
0.8624596 -0.24953136 -0.059736926 9 19
0.78162038 -0.34228849 0.1893874 90 30
0.83247805 -0.24239397 0.16054887 11 29
0.78777063 -0.34469301 0.12903918 51 28
0.8267135 -0.2414902 0.10087934 11 27
0.79809463 -0.34908929 0.079926684 62 26
0.84496957 -0.24708 0.058823492 71 25
0.80525523 -0.35241732 0.039362993 9 24
0.83702695 -0.24509208 0.01943904 34 23
0.79688275 -0.34889406 0 49 22
0.85858822 -0.25150242 -0.019961281 62 21
0.80513221 -0.35269839 -0.039362993 66 20
0.85918808 -0.25184542 -0.05956427 9 19
0.78048098 -0.34487855 0.1893874 90 30
0.83402616 -0.24584056 0.16102245 11 29
0.77759546 -0.34328967 0.1274938 79 28
0.82828993 -0.24492727 0.10118228 11 27
0.78777504 -0.34782889 0.078975171 56 26
0.84653896 -0.25058189 0.058997013 72 25
0.80408216 -0.3550857 0.039362993 11 24
0.83860785 -0.24856997 0.019497067 24 23
0.80028993 -0.35356677 0 54 22
0.85530704 -0.25379354 -0.019903254 55 21
0.80623966 -0.35638168 -0.039479453 67 20
0.85356236 -0.25328737 -0.059218969 9 19
0.77927238 -0.34760085 0.1893874 90 30
0.83080882 -0.24805483 0.16054887 12 29
0.7763924 -0.34600192 0.1274938 88 28
0.82742983 -0.24781707 0.10118228 11 27
0.78428566 -0.3495577 0.078737296 55 26
0.84565908 -0.25353533 0.058997013 75 25
0.80511606 -0.3589128 0.039479453 12 24
0.83289981 -0.25021723 0.019381013 17 23
0.79905081 -0.35635814 0 63 22
0.85202038 -0.25606477 -0.019845227 54 21
0.80492806 -0.35933432 -0.039479453 63 20
0.85745394 -0.25768787 -0.05956427 11 19
0.78242934 -0.352467 0.19051471 90 30
0.83224565 -0.25180238 0.16102245 13 29
0.77286935 -0.34782565 0.12710746 89 28
0.82889271 -0.251562 0.10148522 11 27
0.78979945 -0.3555117 0.079450928 50 26
0.83994764 -0.25519645 0.058649972 76 25
0.80152065 -0.36083046 0.039362993 13 24
0.83441448 -0.25384381 0.01943904 12 23
0.80001622 -0.36031678 0 63 22
0.84389746 -0.25702122 -0.019671148 41 21
0.80366886 -0.36214185 -0.039479453 68 20
0.85411584 -0.26010883 -0.059391622 11 19
0.77455056 -0.35215437 0.18882374 90 30
0.82431436 -0.25256881 0.15960167 14 29
0.77165055 -0.35052136 0.12710746 90 28
0.82088709 -0.25228715 0.10057639 12 27
0.79087949 -0.35916361 0.079688802 29 26
0.8414374 -0.25885352 0.058823492 74 25
0.80252725 -0.36466485 0.039479453 16 24
0.83830464 -0.25821301 0.019555094 12 23
0.79193377 -0.35998625 0 63 22
0.84782153 -0.26127726 -0.019787202 41 21
0.79785866 -0.36286584 -0.039246533 68 20
0.8532027 -0.26308867 -0.059391622 12 19
0.77337849 -0.35472092 0.18882374 90 30
0.82347226 -0.25530097 0.15960167 41 29
0.77048391 -0.35307831 0.12710746 90 28
0.82716119 -0.25719821 0.10148522 12 27
0.79188061 -0.36296481 0.079926684 11 26
0.84057444 -0.2616424 0.058823492 72 25
0.79904598 -0.36627784 0.039362993 17 24
0.82789093 -0.25804356 0.019322986 11 23
0.79754508 -0.36575392 0 54 22
0.84929222 -0.26497293 -0.019845227 45 21
0.80118525 -0.36760381 -0.039479453 63 20
0.84041119 -0.26223525 -0.058528371 14 19
0.77875841 -0.36050522 0.19051471 90 30
0.81554353 -0.25598887 0.15818089 49 29
0.77372491 -0.357851 0.12788014 88 28
0.81678158 -0.2571305 0.10027345 14 27
0.78835285 -0.36467621 0.079688802 9 26
0.84203684 -0.26531786 0.058997013 71 25
0.79549873 -0.36801058 0.039246533 38 24
0.83409601 -0.26331341 0.019497067 11 23
0.7917313 -0.36642414 0 56 22
0.84836215 -0.26793587 -0.019845227 51 21
0.79983252 -0.37053785 -0.039479453 63 20
0.84901184 -0.2681455 -0.059218969 43 19
0.77082044 -0.36024597 0.18882374 90 30
0.81459987 -0.25897625 0.15818089 53 29
0.7679376 -0.35858268 0.12710746 89 28
0.8252995 -0.26311064 0.10148522 21 27
0.78475869 -0.36650437 0.079450928 8 26
0.83868062 -0.26765066 0.058823492 70 25
0.78510463 -0.36667374 0.0387807 59 24
0.83317178 -0.26622337 0.019497067 11 23
0.79038286 -0.36932352 0 53 22
0.84499186 -0.27028862 -0.019787202 58 21
0.79627466 -0.37226424 -0.039362993 63 20
0.84326828 -0.2697489 -0.058873672 51 19
0.76735801 -0.36188972 0.18826009 90 30
0.8136909 -0.26181817 0.15818089 54 29
0.76668125 -0.3612611 0.12710746 90 28
0.82201225 -0.26523456 0.10118228 25 27
0.7879715 -0.37137482 0.079926684 8 26
0.83536595 -0.2698167 0.058649972 71 25
0.78381991 -0.36941203 0.0387807 68 24
0.82985729 -0.26836768 0.01943904 11 23
0.79134744 -0.37315217 0 51 22
0.84642315 -0.27399975 -0.019845227 59 21
0.79497033 -0.37504148 -0.039362993 63 20
0.84469646 -0.2734524 -0.059046321 56 19
0.77487624 -0.3687757 0.19051471 90 30
0.81978095 -0.26691666 0.15960167 51 29
0.76541561 -0.36393511 0.12710746 90 28
0.81399781 -0.26581165 0.10027345 43 27
0.78673565 -0.37398583 0.079926684 8 26
0.83679169 -0.27349922 0.058823492 63 25
0.78703076 -0.37430236 0.039013617 72 24
0.82891542 -0.27126279 0.01943904 11 23
0.79004008 -0.37591222 0 32 22
0.84075505 -0.27526289 -0.019729175 68 21
0.79590845 -0.3788932 -0.039479453 60 20
0.84373677 -0.27639928 -0.059046321 59 19
0.77145606 -0.37028357 0.18995105 90 30
0.81655747 -0.26887268 0.15912808 47 29
0.76642877 -0.36754519 0.1274938 89 28
0.8131119 -0.26850951 0.10027345 54 27
0.7809431 -0.37456581 0.079450928 8 26
0.82639951 -0.27316839 0.058129411 55 25
0.79028302 -0.37908164 0.039246533 71 24
0.82558864 -0.27337563 0.019381013 11 23
0.79104036 -0.3796173 0 11 22
0.83741438 -0.27741659 -0.019671148 70 21
0.79233271 -0.38058224 -0.039362993 59 20
0.84281558 -0.2791957 -0.059046321 58 19
0.77228278 -0.37417629 0.19051471 90 30
0.82022846 -0.27340281 0.16007526 42 29
0.76285613 -0.36926982 0.12710746 87 28
0.80976641 -0.27070788 0.099970512 74 27
0.77732784 -0.37633544 0.079213053 8 26
0.83722925 -0.28011918 0.058997013 51 25
0.78888828 -0.38197562 0.039246533 72 24
0.82937354 -0.2778303 0.019497067 12 23
0.79189086 -0.38360959 0 8 22
0.84113568 -0.28206021 -0.019787202 64 21
0.79548854 -0.38553515 -0.039595909 56 20
0.83941978 -0.2814965 -0.058873672 60 19
0.77534282 -0.37902051 0.19164202 90 30
0.80995595 -0.27315354 0.15818089 41 29
0.76377904 -0.37302014 0.1274938 85 28
0.8064636 -0.27274463 0.099667571 81 27
0.78270948 -0.38234043 0.079926684 8 26
0.82678819 -0.27986795 0.058302931 33 25
0.7920323 -0.38693056 0.039479453 68 24
0.81892133 -0.27754152 0.019264959 13 23
0.78381693 -0.38306135 0 7 22
0.83303875 -0.2826055 -0.019613121 68 21
0.79637855 -0.38941211 -0.039712369 58 20
0.83606803 -0.28363019 -0.05870102 63 19
0.77619672 -0.38280761 0.19220567 90 30
0.8136487 -0.27755076 0.15912808 34 29
0.76468515 -0.37678143 0.12788014 85 28
0.81255746 -0.27794737 0.10057639 79 27
0.78143728 -0.38493389 0.079926684 12 26
0.82580626 -0.28275228 0.058302931 22 25
0.78396511 -0.38636413 0.039130077 74 24
0.82268065 -0.28200603 0.019381013 13 23
0.78471446 -0.38690627 0 7 22
0.83682984 -0.28697485 -0.019729175 67 21
0.79054075 -0.38996887 -0.039479453 60 20
0.83979535 -0.28815275 -0.059046321 60 19
