# .PCD v0.7 - Point Cloud Data file format
VERSION 0.7
FIELDS x y z intensity ring
SIZE 4 4 4 4 2
TYPE F F F F U
COUNT 1 1 1 1 1
WIDTH 1248
HEIGHT 1
VIEWPOINT 0 0 0 1 0 0 0
POINTS 1248
DATA ascii
-1.6116401 0.6526643 -0.80034018 62 10
-1.5558332 0.90523064 -1.0668907 62 8
-0.77000588 0.30957159 -0.53807467 32 7
-0.61262202 0.35718456 -0.51345748 70 6
-0.58178693 0.23208293 -0.50074607 51 5
-0.23491925 0.13634965 -0.22630529 62 4
-0.23274703 0.093686216 -0.22924842 67 3
-0.2142017 0.12518789 -0.2518667 12 2
-0.29028854 0.11458135 -0.36392909 8 1
-0.26684147 0.15783821 -0.38718569 3 0
-1.6056896 0.65830469 0.45374098 58 31
-1.5459964 0.88963652 0.40470284 63 30
-1.6102459 0.6617797 0.32914886 66 29
-1.546259 0.8890903 0.27353215 68 28
-1.6062773 0.66176718 0.20781749 70 27
-1.557717 0.89571154 0.16841693 72 26
-1.6185273 0.66744769 0.11938219 70 25
-1.5565164 0.89502633 0.082103282 70 24
-1.6077194 0.66398644 0.039574403 72 23
-1.5558519 0.89500475 0 71 22
-1.6076035 0.66426706 -0.039574403 76 21
-1.551722 0.89334387 -0.08187037 68 20
-1.6042614 0.66289812 -0.11774734 71 19
-1.5599049 0.8987869 -0.15848951 67 18
-1.6137557 0.66714174 -0.19588861 70 17
-1.5489973 0.89319807 -0.24358284 68 16
-1.6097527 0.66485578 -0.29756927 66 15
-1.5529854 0.89871097 -0.50349522 56 13
-1.6046159 0.66210735 -0.38957146 63 14
-1.5507127 0.89952719 -0.60801172 56 12
-1.6082771 0.65976781 -0.68893427 54 11
-1.5496038 0.90528512 -0.93450081 59 9
-1.609352 0.65828604 -0.80034018 62 10
-1.5543487 0.91201228 -1.0681839 60 8
-0.7650789 0.31071237 -0.53527224 34 7
-0.60104334 0.35334206 -0.50436974 68 6
-0.58093238 0.23421372 -0.50074607 51 5
-0.23596838 0.13813806 -0.22803281 56 4
-0.23399809 0.095165081 -0.23106785 71 3
-0.21791022 0.12844227 -0.25759095 11 2
-0.28562784 0.11400469 -0.35796306 8 1
-0.25760466 0.15353952 -0.37292096 3 0
-1.6054989 0.66510671 0.45438549 59 31
-1.5448304 0.8965221 0.40526652 62 30
-1.6100779 0.66861534 0.32962245 67 29
-1.5408547 0.89350992 0.27314579 71 28
-1.5992565 0.66574919 0.20721161 70 27
-1.5587261 0.90391707 0.1688927 70 26
-1.6114631 0.67146337 0.11903515 70 25
-1.5532254 0.90072519 0.082103282 70 24
-1.6007758 0.66767669 0.039458349 72 23
-1.5525612 0.90070128 0 70 22
-1.6097735 0.67207408 -0.039690454 75 21
-1.5550693 0.90252346 -0.082219742 67 20
-1.6041238 0.66973126 -0.11792 72 19
-1.5566002 0.90449822 -0.15848951 70 18
-1.616004 0.67467821 -0.19645722 68 17
-1.5499913 0.90136439 -0.24427092 67 16
-1.6119709 0.6723606 -0.29842806 66 15
-1.5519135 0.90534008 -0.50418305 55 13
-1.5999279 0.66704959 -0.38901332 63 14
-1.5475632 0.9049347 -0.60801172 56 12
-1.6059643 0.66537774 -0.68893427 54 11
-1.5481763 0.91208184 -0.93567336 58 9
-1.6070443 0.66389972 -0.80034018 60 10
-1.5548358 0.91961581 -1.0707703 62 8
-0.7678259 0.31493965 -0.53807467 38 7
-0.60151362 0.35645813 -0.50588435 67 6
-0.57657027 0.23481736 -0.49751547 56 5
-0.22774871 0.13429236 -0.21939522 64 4
-0.23047686 0.094717316 -0.22742899 67 3
-0.21605879 0.12839922 -0.25568286 9 2
-0.29087219 0.11720721 -0.36591777 8 1
-0.25459915 0.15292186 -0.36884531 3 0
-1.6009378 0.66977787 0.45374098 59 31
-1.5437924 0.90314162 0.40583014 63 30
-1.603204 0.6723392 0.32867527 66 29
-1.5398573 0.90013224 0.27353215 70 28
-1.5992119 0.67228603 0.20751455 72 27
-1.5555614 0.90935248 0.1688927 71 26
-1.6160098 0.67997646 0.11955571 70 25
-1.5522263 0.90740448 0.082219742 70 24
-1.6030449 0.6751942 0.039574403 72 23
-1.5494077 0.90611523 0 71 22
-1.6074178 0.67768919 -0.039690454 72 21
-1.5519094 0.90794629 -0.082219742 68 20
-1.6017762 0.67532659 -0.11792 71 19
-1.5577276 0.91244853 -0.15893659 67 18
-1.6136391 0.68031502 -0.19645722 68 17
-1.5489701 0.90802425 -0.24461496 67 16
-1.6118852 0.67893612 -0.29885745 64 15
-1.5446031 0.90830988 -0.50280738 56 13
-1.5998369 0.67357272 -0.38957146 63 14
-1.544395 0.91033119 -0.60801172 56 12
-1.603632 0.67097956 -0.68893427 54 11
-1.5449831 0.91748059 -0.93567336 58 9
-1.6047171 0.66950536 -0.80034018 62 10
-1.5479439 0.92284143 -1.0681839 56 8
-0.76289105 0.31604603 -0.53527224 42 7
-0.59685808 0.35650334 -0.50285512 67 6
-0.57928312 0.23826367 -0.50074607 58 5
-0.23345432 0.13884294 -0.22630529 62 4
-0.23332801 0.096796371 -0.23106785 71 3
-0.21973802 0.13168967 -0.26140711 9 2
-0.28341591 0.11543948 -0.35597438 7 1
-0.28238484 0.17134206 -0.41571516 4 0
-1.5963637 0.67442524 0.45309645 58 31
-1.5406305 0.90852499 0.40583014 64 30
-1.605371 0.67983943 0.32962245 66 29
-1.5388323 0.90675837 0.27391851 68 28
-1.6014267 0.67979711 0.20812044 68 27
-1.55452 0.91604286 0.16913056 71 26
-1.6113297 0.68464118 0.11938219 70 25
-1.5447495 0.91027623 0.08198683 68 24
-1.6006783 0.68078578 0.039574403 72 23
-1.5526915 0.91533482 0 68 22
-1.6073434 0.68427181 -0.039748482 71 21
-1.5487306 0.91335791 -0.082219742 68 20
-1.6017052 0.68188745 -0.11809264 70 19
-1.5566756 0.91914916 -0.15916014 67 18
-1.6112545 0.68594348 -0.19645722 68 17
-1.5479215 0.91468811 -0.24495901 66 16
-1.6072377 0.6835978 -0.29842806 66 15
-1.5455551 0.91615236 -0.50418305 55 13
-1.59972 0.68010324 -0.39012957 62 14
-1.5452672 0.9181354 -0.60964614 58 12
-1.6034162 0.677472 -0.68987161 56 11
-1.5455571 0.92514104 -0.93801838 56 9
-1.6023704 0.67510271 -0.80034018 62 10
-1.5502104 0.93155259 -1.0720634 59 8
-0.76943386 0.32187763 -0.54087716 42 7
-0.59901041 0.36064878 -0.50588435 70 6
-0.5749169 0.23883681 -0.49751547 63 5
-0.23296826 0.13965701 -0.22630529 64 4
-0.23457807 0.098253354 -0.23288728 64 3
-0.21378385 0.12905397 -0.25377479 9 2
-0.29145396 0.11979639 -0.36790645 8 1
-0.2830137 0.17309329 -0.41775298 4 0
-1.596223 0.68093812 0.45374098 58 31
-1.5395418 0.91514444 0.40639383 63 30
-1.602988 0.68543911 0.32962245 66 29
-1.5335357 0.91086048 0.27353215 70 28
-1.5990441 0.68538296 0.20812044 68 27
-1.5514739 0.92119282 0.16913056 68 26
-1.60893 0.6902616 0.11938219 70 25
-1.5458536 0.91821885 0.082219742 68 24
-1.598292 0.68636906 0.039574403 70 23
-1.5473392 0.91946936 0 68 22
-1.6027676 0.68861473 -0.039690454 74 21
-1.547678 0.92003715 -0.082336202 67 20
-1.5970225 0.68649262 -0.11792 71 19
-1.5557573 0.92558193 -0.15938367 68 18
-1.6134167 0.69351906 -0.19702585 67 17
-1.5470058 0.92108548 -0.24530305 66 16
-1.6071061 0.69017261 -0.29885745 64 15
-1.5464712 0.92401254 -0.50555873 55 13
-1.5996969 0.68636209 -0.3906877 60 14
-1.5440784 0.92474031 -0.61046338 56 12
-1.6011608 0.68278545 -0.68987161 53 11
-1.5443699 0.93140399 -0.93919092 56 9
-1.604171 0.68245733 -0.80246586 64 10
-1.5471127 0.93668813 -1.0720634 59 8
-0.75875622 0.32056496 -0.533871 39 7
-0.5961144 0.36159545 -0.50436974 70 6
-0.57764792 0.24220116 -0.50074607 74 5
-0.23404136 0.14137837 -0.22803281 67 4
-0.23583817 0.099679083 -0.23470671 68 3
-0.21883655 0.13318232 -0.26140711 8 2
-0.28121835 0.11679989 -0.3539857 8 1
-0.29102108 0.17942534 -0.43201771 7 0
-1.600616 0.68908346 0.4556745 59 31
-1.5323228 0.91773653 0.40526652 64 30
-1.6007062 0.69075096 0.32962245 66 29
-1.5326246 0.91721183 0.27391851 70 28
-1.5967625 0.69068182 0.20812044 68 27
-1.5546504 0.93044484 0.1698442 70 26
-1.6066324 0.69559324 0.11938219 68 25
-1.5470825 0.92591012 0.082452662 70 24
-1.5958865 0.69194394 0.039574403 72 23
-1.5485684 0.92716926 0 68 22
-1.6026486 0.69519669 -0.039748482 74 21
-1.5423164 0.92414773 -0.082219742 67 20
-1.5993161 0.69376332 -0.11826529 70 19
-1.5546509 0.93229002 -0.15960722 67 18
-1.610986 0.69914669 -0.19702585 67 17
-1.5459027 0.92775685 -0.2456471 64 16
-1.6024262 0.69480169 -0.29842806 64 15
-1.5452938 0.93064761 -0.50624651 55 13
-1.5995287 0.69290727 -0.39124581 60 14
-1.5448833 0.93257165 -0.6120978 55 12
-1.6029072 0.69047689 -0.69174623 55 11
-1.5448798 0.93908793 -0.94153589 56 9
-1.6038594 0.68894273 -0.80352879 63 10
-1.5454938 0.94346952 -1.0733567 60 8
-0.76526093 0.32643548 -0.53947592 35 7
-0.59647804 0.36482185 -0.50588435 62 6
-0.57499593 0.24358068 -0.49913079 81 5
-0.2319876 0.14128003 -0.22630529 67 4
-0.23230159 0.099234425 -0.23106785 67 3
-0.22110525 0.13566498 -0.26522329 8 2
-0.28640103 0.1201146 -0.36194041 7 1
-0.29158479 0.18126592 -0.43405554 7 0
-1.5936468 0.69302523 0.45438549 58 31
-1.5372821 0.92839348 0.40752113 66 30
-1.6026671 0.69856852 0.33056965 66 29
-1.5292525 0.92282301 0.27391851 70 28
-1.5964955 0.69751984 0.20842338 68 27
-1.5512298 0.93613666 0.1698442 70 26
-1.604072 0.70147717 0.11938219 70 25
-1.5415421 0.93028134 0.082336202 68 24
-1.5980433 0.69950843 0.039690454 71 23
-1.5472984 0.93413347 0 70 22
-1.6000898 0.70106596 -0.039748482 71 21
-1.5433534 0.93211305 -0.082452662 66 20
-1.5944768 0.6986227 -0.11809264 71 19
-1.5512234 0.9379819 -0.15960722 67 18
-1.6085358 0.70476574 -0.19702585 67 17
-1.5446088 0.93470114 -0.24599113 66 16
-1.599991 0.70039093 -0.29842806 64 15
-1.5399829 0.93478632 -0.50555873 55 13
-1.6014462 0.70071256 -0.39236206 60 14
-1.5456522 0.94041985 -0.61373222 58 12
-1.5983607 0.69514668 -0.69080895 55 11
-1.5433085 0.94590026 -0.94270849 58 9
-1.6035222 0.69543427 -0.8045916 64 10
-1.5440118 0.94998217 -1.0746498 60 8
-0.76221251 0.3282921 -0.53807467 37 7
-0.59351158 0.36585185 -0.50436974 64 6
-0.57765782 0.24707066 -0.50236142 80 5
-0.22690098 0.13920724 -0.22112274 66 4
-0.23195378 0.1000447 -0.23106785 67 3
-0.21787792 0.13474485 -0.26140711 7 2
-0.28598002 0.1211136 -0.36194041 7 1
-0.30071497 0.18851781 -0.45035812 7 0
-1.5978572 0.7014873 0.45631903 59 31
-1.5319531 0.93248487 0.40695745 62 30
-1.6002188 0.7041586 0.33056965 66 29
-1.5302392 0.93072778 0.27469119 70 28
-1.5895071 0.70109189 0.20781749 68 27
-1.5458277 0.94024986 0.16960631 68 26
-1.6061792 0.70908016 0.11972923 67 25
-1.5382853 0.93565667 0.082336202 67 24
-1.5955918 0.70508236 0.039690454 68 23
-1.5440282 0.93952894 0 68 22
-1.6022071 0.70866263 -0.039864536 71 21
-1.5379587 0.93619353 -0.082336202 68 20
-1.596593 0.70619559 -0.11843794 70 19
-1.5500644 0.94468939 -0.15983075 68 18
-1.6083388 0.71137792 -0.19731016 67 17
-1.5434493 0.94137919 -0.24633518 66 16
-1.5975364 0.70597166 -0.29842806 64 15
-1.5428563 0.94392681 -0.50762218 55 13
-1.5989904 0.70629835 -0.39236206 60 14
-1.5423601 0.94580948 -0.61373222 58 12
-1.5980477 0.70165038 -0.69174623 56 11
-1.5418742 0.95244443 -0.94388103 56 9
-1.5969365 0.69921839 -0.80246586 64 10
-1.5406862 0.95536608 -1.0746498 60 8
-0.76486474 0.33258924 -0.54087716 39 7
-0.59897345 0.37214434 -0.51042825 63 6
-0.57503664 0.24833725 -0.50074607 84 5
-0.22488634 0.13903253 -0.21939522 72 4
-0.23634383 0.10284948 -0.23652615 70 3
-0.2214901 0.13811326 -0.26713136 8 2
-0.28975293 0.12385405 -0.36790645 7 1
-0.29031223 0.18329713 -0.43405554 7 0
-1.5976086 0.70803607 0.45696354 59 31
-1.5307634 0.93910307 0.40752113 60 30
-1.599996 0.71073347 0.33104324 64 29
-1.5332938 0.93994415 0.27585024 67 28
-1.5915871 0.70864838 0.20842338 67 27
-1.5448219 0.94667387 0.1698442 68 26
-1.6105329 0.71771854 0.12024979 67 25
-1.5392649 0.94363618 0.082569115 68 24
-1.5954051 0.71166277 0.039748482 71 23
-1.5428687 0.94622242 0 68 22
-1.5975643 0.71295649 -0.039806508 70 21
-1.5368084 0.94286495 -0.082452662 67 20
-1.5986757 0.71379161 -0.11878324 68 19
-1.546923 0.94982433 -0.15983075 66 18
-1.6081153 0.71799713 -0.19759446 67 17
-1.5445353 0.94909024 -0.24702327 66 16
-1.5995637 0.71354413 -0.29928684 64 15
-1.5395521 0.94930667 -0.50762218 58 13
-1.5944122 0.71060812 -0.39180395 60 14
-1.5390491 0.95118749 -0.61373222 60 12
-1.5999531 0.70881712 -0.69362092 55 11
-1.5387074 0.95755225 -0.94388103 55 9
-1.5944861 0.70478851 -0.80246586 64 10
-1.5411359 0.96274191 -1.0772363 59 8
-0.75990206 0.33360529 -0.53807467 47 7
-0.59437186 0.37200591 -0.50739902 54 6
-0.57420999 0.25024277 -0.50074607 79 5
-0.22899637 0.14269041 -0.22457777 70 4
-0.23600146 0.10363266 -0.23652615 67 3
-0.22510603 0.14146923 -0.27285561 8 2
-0.29213503 0.12598544 -0.37188384 7 1
-0.28119603 0.17874502 -0.4197908 4 0
-1.5952518 0.71333003 0.45696354 59 31
-1.5317812 0.94674021 0.40864843 64 30
-1.5953887 0.71503454 0.33056965 64 29
-1.5280683 0.94372302 0.27546388 68 28
-1.5914936 0.7149362 0.20872632 66 27
-1.5415078 0.95206046 0.1698442 71 26
-1.5990397 0.71897703 0.11955571 68 25
-1.5340041 0.94742054 0.082452662 68 24
-1.5953168 0.71797186 0.039806508 71 23
-1.5460981 0.95528346 0 67 22
-1.5973462 0.71955204 -0.039864536 70 21
-1.5357959 0.94927156 -0.082569115 67 20
-1.5962999 0.71908915 -0.11878324 68 19
-1.5478299 0.95784408 -0.16027784 67 18
-1.6057254 0.72332585 -0.19759446 66 17
-1.541213 0.95447588 -0.24702327 66 16
-1.5971887 0.71884459 -0.29928684 64 15
-1.5404758 0.9569484 -0.50899786 62 13
-1.5941458 0.71716589 -0.39236206 62 14
-1.5378907 0.95753729 -0.61454946 62 12
-1.597469 0.71439767 -0.69362092 55 11
-1.5390935 0.96526873 -0.946226 54 9
-1.5942082 0.71099073 -0.80352879 63 10
-1.5377659 0.96811557 -1.0772363 55 8
-0.76827049 0.34028432 -0.54508084 53 7
-0.59642649 0.37621278 -0.51042825 54 6
-0.57333297 0.2522456 -0.50074607 72 5
-0.22393478 0.14056006 -0.21939522 70 4
-0.23248696 0.10310386 -0.23288728 63 3
-0.22596616 0.14313294 -0.27476367 7 2
-0.29587898 0.12877586 -0.37784988 7 1
-0.27572039 0.17655779 -0.41163954 4 0
-1.5905492 0.71790367 0.45631903 59 31
-1.5264014 0.95079106 0.40808475 62 30
-1.5973591 0.72261631 0.33151683 64 29
-1.5289556 0.95166677 0.27623656 67 28
-1.5889882 0.72048718 0.20872632 67 27
-1.5402863 0.95875323 0.17008208 70 26
-1.6033376 0.72763693 0.12007628 66 25
-1.5370432 0.95673621 0.082802035 67 24
-1.5928009 0.72353619 0.039806508 68 23
-1.5427541 0.96067458 0 67 22
-1.5971014 0.72615474 -0.039922561 70 21
-1.5345912 0.95594978 -0.082685582 67 20
-1.5892365 0.72259867 -0.11843794 70 19
-1.5423657 0.96192092 -0.1600543 67 18
-1.6077157 0.73097628 -0.19816308 66 17
-1.5399709 0.96116352 -0.24736732 64 16
-1.5969136 0.72543091 -0.29971623 64 15
-1.543233 0.96615368 -0.51106137 60 13
-1.593853 0.7237305 -0.3929202 59 14
-1.5365385 0.96415794 -0.6153667 62 12
-1.5949657 0.71996951 -0.69362092 55 11
-1.5338496 0.96945316 -0.94505346 53 9
-1.5875871 0.71469969 -0.80140305 56 10
-1.5361822 0.97462624 -1.0785295 53 8
-0.75950658 0.33960882 -0.53947592 59 7
-0.59176028 0.37614632 -0.50739902 51 6
-0.57419634 0.25501174 -0.50236142 74 5
-0.22951195 0.14526719 -0.22630529 68 4
-0.22740579 0.10187034 -0.22742899 66 3
-0.2295219 0.14657146 -0.28048792 7 2
-0.29682076 0.13040325 -0.37983856 7 1
-0.2738927 0.17672302 -0.40960172 7 0
-1.5945053 0.72672433 0.45825258 58 31
-1.5270283 0.95897496 0.40921205 64 30
-1.5991683 0.73049968 0.33246404 63 29
-1.5254573 0.9572643 0.27623656 68 28
-1.5885946 0.72733611 0.20902926 67 27
-1.536762 0.96439219 0.17008208 70 26
-1.60066 0.73350853 0.12007628 67 25
-1.5356399 0.96369332 0.082918495 67 24
-1.5901382 0.72936928 0.039806508 71 23
-1.5392227 0.96632254 0 68 22
-1.5967021 0.73304319 -0.03998059 70 21
-1.5331903 0.96289849 -0.082802035 66 20
-1.5911136 0.73049349 -0.11878324 68 19
-1.5409361 0.96889555 -0.16027784 68 18
-1.5982498 0.73376441 -0.19731016 66 17
-1.5385319 0.96812266 -0.24771136 64 16
-1.594244 0.73127896 -0.29971623 63 15
-1.5376503 0.97051805 -0.51037353 59 13
-1.5911899 0.72956741 -0.3929202 59 14
-1.5349896 0.97104883 -0.61618394 58 12
-1.592316 0.72581053 -0.69362092 56 11
-1.5284257 0.97387964 -0.94388103 11 9
-1.5870181 0.72144699 -0.80246586 60 10
-1.5362014 0.98256052 -1.0811158 41 8
-0.76203626 0.3440817 -0.54227841 67 7
-0.59371907 0.38047105 -0.51042825 50 6
-0.56627941 0.25402358 -0.49590015 66 5
-0.22746429 0.14512028 -0.22457777 75 4
-0.23174322 0.10476486 -0.23288728 62 3
-0.22898315 0.14741172 -0.28048792 7 2
-0.30190438 0.13389209 -0.3877933 8 1
-0.25996837 0.16891931 -0.38718569 7 0
-1.589763 0.73127949 0.45760807 55 31
-1.525728 0.9656046 0.40977573 64 30
-1.5943779 0.73505276 0.33199042 64 29
-1.5241925 0.96390617 0.27662292 68 28
-1.5883003 0.73391467 0.2093322 67 27
-1.5375897 0.97241616 0.17055784 68 26
-1.604885 0.74222261 0.12059683 67 25
-1.5322666 0.9690479 0.082918495 68 24
-1.5898522 0.73596215 0.039864536 68 23
-1.5358403 0.97168952 0 68 22
-1.5918642 0.73756468 -0.039922561 70 21
-1.5340368 0.9709208 -0.083034955 67 20
-1.5885538 0.73604304 -0.11878324 68 19
-1.5417479 0.97693914 -0.16072492 66 18
-1.6001889 0.74142098 -0.19787878 66 17
-1.5351431 0.97348726 -0.24771136 64 16
-1.5916816 0.73683947 -0.29971623 59 15
-1.5342534 0.97587955 -0.51037353 54 13
-1.5886333 0.73511726 -0.3929202 59 14
-1.5335811 0.97767365 -0.61700112 55 12
-1.5939866 0.73329532 -0.69549555 54 11
nan nan nan 0 9
-1.5865484 0.72792286 -0.80352879 63 10
-1.5058103 0.97049403 -1.0617179 41 8
-0.76271737 0.34759197 -0.54367965 72 7
-0.59072047 0.38145617 -0.50891364 49 6
-0.57409877 0.25989285 -0.5039767 66 5
-0.22544611 0.14492099 -0.22285026 76 4
-0.22823936 0.10418771 -0.22924842 62 3
-0.22846718 0.14821012 -0.28048792 7 2
-0.30282396 0.13555044 -0.38978198 8 1
-0.25335711 0.16580176 -0.37699658 7 0
-1.5872006 0.73682427 0.45760807 58 31
-1.5264519 0.97354895 0.41090304 62 30
-1.5940294 0.74164605 0.33246404 63 29
-1.5249811 0.97188079 0.27739561 66 28
-1.5857289 0.73945445 0.2093322 67 27
-1.5343566 0.97750962 0.17055784 70 26
-1.6000229 0.74676853 0.12042332 67 25
-1.5309789 0.97573537 0.083034955 68 24
-1.5895394 0.742562 0.039922561 71 23
-1.5366517 0.97973788 0 67 22
-1.587144 0.74178439 -0.039864536 70 21
-1.5306385 0.97626966 -0.083034955 66 20
-1.5904964 0.74369019 -0.11912854 68 19
-1.5385 0.98204637 -0.16072492 66 18
-1.5953397 0.74595326 -0.19759446 66 17
-1.5360769 0.98124373 -0.24839944 63 16
-1.5935656 0.74446958 -0.30057502 63 15
-1.540947 0.98772681 -0.51381272 12 13
-1.5906062 0.74243647 -0.39403647 59 14
-1.5281729 0.98174137 -0.61618394 11 12
-1.5915461 0.73857719 -0.69549555 54 11
nan nan nan 0 9
-1.5881075 0.73535192 -0.80565453 63 10
-1.5025836 0.97548217 -1.0617179 8 8
-0.75773174 0.34853441 -0.54087716 67 7
-0.59111553 0.38450351 -0.51042825 47 6
-0.56627655 0.25865683 -0.49751547 66 5
-0.22797816 0.14766262 -0.22630529 77 4
-0.22945869 0.10564193 -0.23106785 59 3
-0.23468907 0.1534552 -0.29002833 7 2
-0.30375957 0.13716379 -0.39177066 8 1
-0.26121518 0.17230248 -0.39126134 7 0
-1.5847486 0.74208361 0.45760807 59 31
-1.5232151 0.97860545 0.41090304 64 30
-1.5893375 0.74588823 0.33199042 64 29
-1.5238267 0.97826934 0.27778196 66 28
-1.587762 0.74681497 0.20993808 66 27
-1.5330275 0.98420656 0.17079571 70 26
-1.5997957 0.75312948 0.12059683 67 25
-1.5319345 0.98351014 0.083267868 66 24
-1.5869377 0.748106 0.039922561 68 23
-1.5333943 0.98482811 0 67 22
-1.5913312 0.7505089 -0.040038615 70 21
-1.5272212 0.98160666 -0.083034955 64 20
-1.5902786 0.75002098 -0.11930119 68 19
-1.537155 0.98876029 -0.16094846 66 18
-1.5949738 0.75257421 -0.19787878 67 17
-1.5347228 0.98794252 -0.24874349 64 16
-1.5931863 0.75107467 -0.30100441 60 15
nan nan nan 0 13
-1.5880051 0.74798423 -0.39403647 59 14
nan nan nan 0 12
-1.5909288 0.74538577 -0.69643289 54 11
nan nan nan 0 9
-1.5896339 0.74280077 -0.80778027 60 10
nan nan nan 0 8
-0.75839132 0.35204276 -0.54227841 70 7
-0.58472437 0.38337767 -0.50588435 45 6
-0.56532472 0.26073059 -0.49751547 67 5
-0.22743541 0.14849721 -0.22630529 77 4
-0.22750644 0.10577857 -0.22924842 66 3
-0.23281223 0.15337117 -0.28812027 7 2
-0.30879295 0.14073615 -0.39972541 8 1
-0.25339183 0.16837968 -0.37903443 7 0
-1.5842031 0.74891621 0.45825258 59 31
-1.5216607 0.98550832 0.41146669 64 30
-1.5888129 0.75275636 0.33246404 63 29
-1.520231 0.98384798 0.27778196 67 28
-1.5850142 0.7526294 0.20993808 66 27
-1.52941 0.98981881 0.17079571 70 26
-1.5925167 0.7568531 0.12024979 66 25
-1.5325094 0.99183732 0.083500788 66 24
-1.5843167 0.75364083 0.039922561 68 23
-1.5318716 0.99180305 0 67 22
-1.5930859 0.75847894 -0.040154673 70 21
-1.5279741 0.98965186 -0.083267868 66 20
-1.5875189 0.75584465 -0.11930119 68 19
-1.5335207 0.99438757 -0.16094846 66 18
-1.594581 0.75920171 -0.19816308 66 17
-1.5310916 0.99356091 -0.24874349 64 16
-1.5927805 0.75768626 -0.30143383 63 15
nan nan nan 0 13
-1.5874552 0.75484282 -0.39459458 59 14
nan nan nan 0 12
-1.5883169 0.75093454 -0.69643289 54 11
-1.223366 0.80318499 -0.75862235 24 9
-1.5890793 0.74930704 -0.80884308 63 10
nan nan nan 0 8
-0.75528008 0.35381582 -0.54087716 77 7
-0.5900045 0.389826 -0.51194286 43 6
-0.56094384 0.26110834 -0.49428487 62 5
-0.22841541 0.15029837 -0.22803281 76 4
-0.22713581 0.10657208 -0.22924842 67 3
-0.23358497 0.15513064 -0.29002833 7 2
-0.31106454 0.14305282 -0.40370277 8 1
-0.26117101 0.17498462 -0.39329916 7 0
-1.5859427 0.75651532 0.45954162 59 31
-1.5222876 0.99348116 0.41259399 64 30
-1.5839595 0.75724214 0.33199042 64 29
-1.5188547 0.99050027 0.27816829 67 28
-1.5846168 0.75922668 0.21024103 66 27
-1.5301113 0.99787539 0.17127146 68 26
-1.5966158 0.76563323 0.12077036 67 25
-1.529038 0.99718076 0.083500788 66 24
-1.583931 0.76024497 0.03998059 68 23
-1.5284002 0.99714416 0 66 22
-1.5881743 0.76295608 -0.040096644 70 21
-1.5266 0.99634683 -0.083384328 64 20
-1.5848709 0.76138151 -0.11930119 68 19
-1.5321232 1.0010991 -0.161172 66 18
-1.5941616 0.76583564 -0.19844739 64 17
-1.5296848 1.0002571 -0.24908753 64 16
-1.5879039 0.76217884 -0.30100441 60 15
-1.4401511 0.94438046 -0.48286018 9 13
-1.5870091 0.7614305 -0.39515272 59 14
-1.4250923 0.93657833 -0.57777458 9 12
-1.5856861 0.75647426 -0.69643289 55 11
nan nan nan 0 9
-1.5844095 0.75388026 -0.80778027 63 10
nan nan nan 0 8
-0.75404042 0.35645011 -0.54087716 79 7
-0.60020155 0.39964032 -0.52254522 41 6
-0.55829817 0.26226169 -0.49266955 63 5
-0.22489694 0.14906797 -0.22457777 79 4
-0.23143809 0.10950793 -0.23470671 63 3
-0.2397085 0.16050456 -0.29956874 7 2
-0.31470394 0.14601167 -0.40966883 8 1
-0.25221014 0.17014457 -0.37903443 7 0
-1.5811143 0.76100218 0.45889711 59 31
-1.516777 0.99744815 0.41203034 58 30
-1.5901563 0.76701993 0.33388481 64 29
-1.5174506 0.99715501 0.27855465 66 28
-1.5841928 0.76583034 0.21054396 66 27
-1.5266188 1.0032104 0.17127146 68 26
-1.59618 0.77228481 0.12094387 67 25
-1.5255479 1.002512 0.083500788 66 24
-1.5835186 0.76685548 0.040038615 67 23
-1.5269976 1.0038491 0 67 22
-1.587752 0.76958221 -0.040154673 70 21
-1.5251979 1.0030444 -0.083500788 64 20
-1.5844493 0.76799387 -0.11947385 68 19
-1.5286193 1.0064411 -0.161172 66 18
-1.5959517 0.77355611 -0.199016 66 17
-1.5282501 1.0069555 -0.24943158 64 16
-1.5874521 0.76878738 -0.30143383 60 15
-1.4468635 0.95603997 -0.48629931 4 13
-1.5843415 0.76696557 -0.39515272 59 14
-1.41591 0.93762571 -0.57532293 7 12
-1.5851257 0.76300693 -0.69737023 55 11
-1.1094505 0.73927462 -0.68944347 39 9
-1.5858508 0.76135892 -0.80990601 62 10
nan nan nan 0 8
-0.74904829 0.35730979 -0.53807467 84 7
-0.60209835 0.40396082 -0.52557451 62 6
-0.55737925 0.26420891 -0.49266955 59 5
-0.22885326 0.15290797 -0.22976033 83 4
-0.23105441 0.11031512 -0.23470671 60 3
-0.23515648 0.15859069 -0.29384449 7 2
-0.31557035 0.14773875 -0.41165751 8 1
-0.25280446 0.17184959 -0.38107225 7 0
-1.5827971 0.76862085 0.46018615 58 31
-1.5173435 1.0054324 0.41315764 62 30
-1.5852605 0.77149498 0.33341122 64 29
-1.5180761 1.0051781 0.27932733 66 28
-1.5815098 0.77135551 0.21054396 66 27
-1.5274309 1.0110195 0.17174721 68 26
-1.5934744 0.77785188 0.12094387 64 25
-1.5262002 1.0105935 0.083733708 64 24
-1.5853266 0.77456647 0.040154673 67 23
-1.5255666 1.0105562 0 67 22
-1.5896852 0.77703208 -0.040270727 70 21
-1.5237672 1.0097442 -0.083617248 66 20
-1.581759 0.77351999 -0.11947385 68 19
-1.5294204 1.014262 -0.16161908 64 18
-1.5954745 0.78021038 -0.19930032 64 17
-1.5249023 1.0120178 -0.24943158 64 16
-1.5936161 0.77863634 -0.3031514 62 15
-1.435522 0.95574623 -0.48354799 4 13
-1.5817894 0.77221525 -0.39515272 59 14
-1.4145919 0.94387645 -0.57614011 7 12
-1.5825868 0.76825917 -0.69737023 55 11
-1.1051618 0.74171591 -0.68827099 46 9
-1.5831836 0.76688987 -0.80990601 62 10
nan nan nan 0 8
-0.74779648 0.35992226 -0.53807467 84 7
-0.60897571 0.41155219 -0.53314763 71 6
-0.55650008 0.26605579 -0.49266955 56 5
-0.23132354 0.15571317 -0.23321539 79 4
-0.22602639 0.1089053 -0.22924842 64 3
-0.2399375 0.16305344 -0.30147681 7 2
-0.32058236 0.15132046 -0.41961223 9 1
-0.24511105 0.16770926 -0.36884531 4 0
-1.5802395 0.77386534 0.46018615 58 31
-1.514001 1.0104585 0.41315764 62 30
-1.5848986 0.77782601 0.33388481 63 29
-1.5167875 1.0115795 0.27971366 66 28
-1.5767149 0.77550364 0.21024103 67 27
-1.5259613 1.0177286 0.17198509 68 26
-1.5931255 0.78423011 0.1211174 67 25
-1.5207645 1.0142609 0.083617248 66 24
-1.5827491 0.77981937 0.040154673 67 23
-1.5263629 1.0183897 0 67 22
-1.5869632 0.78257638 -0.040270727 66 21
-1.522486 1.0161805 -0.083733708 64 20
-1.5791851 0.77876097 -0.11947385 68 19
-1.5258706 1.0195944 -0.16161908 67 18
-1.5928785 0.78549683 -0.19930032 64 17
-1.5275308 1.0214714 -0.25046369 63 16
-1.5910252 0.78391665 -0.3031514 59 15
-1.4343392 0.96184248 -0.48423582 3 13
-1.5790843 0.77773196 -0.39515272 58 14
-1.4134133 0.94988263 -0.57695735 3 12
-1.5819783 0.77479511 -0.69830751 55 11
-1.0989122 0.74308884 -0.6859259 83 9
-1.5826664 0.77312589 -0.81096882 60 10
nan nan nan 0 8
-0.74286765 0.36060438 -0.53527224 85 7
-0.602615 0.41030002 -0.52860373 55 6
-0.55384552 0.26717588 -0.49105424 60 5
-0.22335002 0.1513759 -0.22457777 85 4
-0.22719595 0.11042418 -0.23106785 63 3
-0.23936689 0.16388997 -0.30147681 7 2
-0.31455743 0.14988333 -0.41165751 9 1
-0.24334003 0.16773006 -0.36680749 4 0
-1.5796956 0.78044349 0.46083066 59 31
-1.5145035 1.0184605 0.41428494 60 30
-1.5843753 0.78443968 0.33435842 63 29
-1.511199 1.0154878 0.27932733 64 28
-1.5762228 0.78210258 0.21054396 67 27
-1.5244633 1.0244393 0.17222297 67 26
-1.5926133 0.79089254 0.12129091 64 25
-1.5213569 1.0223539 0.08385016 66 24
-1.5821198 0.78672487 0.040212698 70 23
-1.5207257 1.0223143 0 66 22
-1.5887003 0.79033142 -0.040386781 68 21
-1.518751 1.0217539 -0.083733708 66 20
-1.5786916 0.78537637 -0.1196465 68 19
-1.5223023 1.0249145 -0.16161908 67 18
-1.592214 0.79243338 -0.19958463 64 17
-1.5239557 1.0267972 -0.25046369 63 16
-1.5815212 0.78646219 -0.30186319 58 15
-1.4228461 0.96169901 -0.4814845 4 13
-1.5785438 0.78432047 -0.39571083 59 14
-1.4001507 0.94841838 -0.57287127 7 12
-1.5812072 0.78161216 -0.69924492 55 11
-1.0926667 0.74442732 -0.68358088 96 9
-1.5818533 0.77991909 -0.81203175 63 10
nan nan nan 0 8
-0.74154103 0.3633247 -0.53527224 83 7
-0.60928714 0.41816163 -0.53617686 45 6
-0.54942358 0.26754975 -0.48782364 59 5
-0.22427565 0.15322769 -0.22630529 87 4
-0.22524129 0.11051992 -0.22924842 59 3
-0.2440757 0.1684453 -0.30910915 7 2
-0.31811997 0.15296677 -0.41762355 9 1
-0.23563731 0.16359229 -0.35458058 4 0
-1.5768245 0.78622812 0.46083066 58 31
-1.5147893 1.0267426 0.41541225 62 30
-1.5836869 0.79133552 0.33483198 63 29
-1.5115535 1.0237951 0.28010002 66 28
-1.5711251 0.78676641 0.21024103 67 27
-1.5227571 1.0314181 0.17246085 67 26
-1.5919352 0.79783887 0.12146445 64 25
-1.5175996 1.0279231 0.08385016 64 24
-1.5815996 0.79336029 0.040270727 67 23
-1.5190365 1.029286 0 66 22
-1.5813226 0.79391229 -0.040270727 70 21
-1.5193063 1.0298564 -0.083966628 64 20
-1.578033 0.79227328 -0.11981915 68 19
-1.5226529 1.0332884 -0.16206616 64 18
-1.5872169 0.79687506 -0.19930032 64 17
-1.5242758 1.0351632 -0.2511518 63 16
-1.585375 0.79528159 -0.3031514 59 15
-1.4194803 0.96665984 -0.4814845 3 13
-1.5778384 0.79119021 -0.39626896 59 14
-1.3929321 0.95063108 -0.57123679 9 12
-1.5805447 0.788158 -0.7001822 54 11
-1.0862951 0.74592078 -0.68123585 110 9
-1.5791211 0.78543603 -0.81203175 63 10
-1.465786 1.0112269 -1.0552518 7 8
-0.73654997 0.36408859 -0.53246975 88 7
-0.60782373 0.42028585 -0.53617686 42 6
-0.55363601 0.27196538 -0.49266955 56 5
-0.22521771 0.15504898 -0.22803281 87 4
-0.22485413 0.11130548 -0.22924842 62 3
-0.24740821 0.17214386 -0.3148334 7 2
-0.31895319 0.1547249 -0.41961223 9 1
-0.23153044 0.16188718 -0.34846711 4 0
-1.57623 0.79280984 0.46147519 58 31
-1.5132058 1.0333998 0.4159759 62 30
-1.5809151 0.79685885 0.33483198 63 29
-1.5120475 1.0318546 0.2808727 66 28
-1.5772356 0.79670906 0.2114528 64 27
-1.5232553 1.0395379 0.1729366 67 26
-1.5891404 0.80339086 0.12146445 64 25
-1.5160633 1.0346245 0.083966628 63 24
-1.5765889 0.79775095 0.040212698 67 23
-1.5154344 1.0345821 0 66 22
-1.5807729 0.80055338 -0.040328752 68 21
-1.5177625 1.0365645 -0.08408308 64 20
-1.5752579 0.79777676 -0.11981915 68 19
-1.5210905 1.040005 -0.16228969 64 18
-1.5844256 0.8024106 -0.19930032 64 17
-1.5226951 1.0418783 -0.25149584 63 16
-1.5869874 0.80302858 -0.30401018 59 15
-1.4121374 0.96888411 -0.48010883 3 13
-1.5772431 0.79778987 -0.39682707 58 14
-1.3798803 0.94878125 -0.56715071 12 12
-1.5777838 0.79367036 -0.7001822 54 11
-1.0873117 0.75222713 -0.68358088 100 9
-1.5783938 0.79195517 -0.81309456 62 10
-1.4517162 1.0089961 -1.0474926 9 8
-0.73713058 0.36757508 -0.533871 81 7
-0.61774933 0.43040264 -0.54677922 46 6
-0.55439705 0.27473545 -0.49428487 58 5
-0.23057382 0.16001226 -0.23494291 85 4
-0.23063721 0.11507781 -0.23652615 62 3
-0.24417798 0.17112717 -0.31101725 7 2
-0.32661206 0.15975775 -0.4315443 9 1
-0.22626324 0.15930912 -0.34031585 4 0
-1.5735923 0.7980324 0.46147519 59 31
-1.5137807 1.0411776 0.4171032 62 30
-1.5782638 0.80209696 0.33483198 63 29
-1.5086174 1.0368631 0.2808727 64 28
-1.574585 0.80193496 0.2114528 63 27
-1.5197997 1.0445834 0.1729366 66 26
-1.5842439 0.80752671 0.12129091 64 25
-1.5167367 1.0424801 0.08419954 64 24
-1.5806186 0.80637288 0.040386781 67 23
-1.516112 1.0424396 0 66 22
-1.5714269 0.80239052 -0.040154673 70 21
-1.512261 1.0401742 -0.083966628 62 20
-1.5748264 0.80412722 -0.11999179 67 19
-1.5176334 1.0450433 -0.16228969 64 18
-1.5839697 0.80878681 -0.19958463 66 17
-1.5212688 1.0483295 -0.25183988 63 16
-1.5821204 0.80717063 -0.30358076 59 15
-1.4148432 0.97766834 -0.48217231 3 13
-1.5789337 0.80522394 -0.39794332 59 14
-1.3767264 0.9533518 -0.56715071 12 12
-1.5772119 0.79994345 -0.70111954 54 11
-1.083002 0.75456321 -0.68240833 71 9
-1.5777798 0.79820353 -0.81415743 63 10
-1.4553666 1.0187221 -1.0526655 9 8
-0.73034894 0.36724606 -0.52966726 81 7
-0.61469448 0.43130091 -0.5452646 59 6
-0.54835027 0.27403793 -0.48943892 51 5
-0.23004194 0.16077599 -0.23494291 90 4
-0.22717281 0.11433771 -0.23288728 58 3
-0.24885228 0.17571184 -0.31864956 8 2
-0.32744518 0.16149789 -0.43353304 9 1
-0.22104426 0.15665773 -0.33216459 4 0
-1.5707971 0.80352044 0.46147519 58 31
-1.508137 1.0450658 0.41653955 62 30
-1.5776404 0.80871791 0.3353056 63 29
-1.5070179 1.0435314 0.28125906 64 28
-1.571776 0.80742645 0.2114528 64 27
-1.5181885 1.0513012 0.17317447 66 26
-1.5858546 0.81532639 0.12163796 64 25
-1.5151399 1.0491923 0.084316 64 24
-1.573205 0.80987895 0.040270727 67 23
-1.5165706 1.0505775 0 64 22
-1.5752871 0.81129473 -0.040328752 70 21
-1.5145904 1.0499855 -0.084316 63 20
-1.5742288 0.81075835 -0.12016445 67 19
-1.5180646 1.0531781 -0.16273677 63 18
-1.5809947 0.81458694 -0.19958463 64 17
-1.5196328 1.055048 -0.25218391 62 16
-1.5813426 0.81408823 -0.30401018 56 15
nan nan nan 0 13
-1.5761133 0.81073052 -0.39794332 58 14
-1.3751584 0.95974618 -0.56796795 9 12
-1.5763339 0.80677176 -0.70205683 54 11
-1.0839714 0.76088256 -0.68475336 51 9
-1.5748435 0.80398095 -0.81415743 63 10
-1.469089 1.0364068 -1.0655974 7 8
-0.73269695 0.37178162 -0.53246975 89 7
-0.62282974 0.44047409 -0.55435234 75 6
-0.54904991 0.27689695 -0.49105424 53 5
-0.22504908 0.1584537 -0.22976033 89 4
-0.22367623 0.113654 -0.22924842 63 3
-0.24170004 0.1718367 -0.30910915 7 2
-0.32821327 0.16335988 -0.43552172 9 1
-0.21462239 0.15319434 -0.32197547 3 0
-1.5699894 0.81037718 0.46211973 60 31
-1.5042964 1.0505863 0.41653955 60 30
-1.5746657 0.81449491 0.3353056 63 29
-1.5011592 1.0476319 0.2808727 66 28
-1.5732157 0.81545973 0.21205868 64 27
-1.5163642 1.0582855 0.17341235 66 26
-1.5806404 0.81998801 0.12146445 64 25
-1.5174227 1.0590336 0.084665373 64 24
-1.5748079 0.81766284 0.040386781 66 23
-1.5127099 1.056129 0 64 22
-1.5767417 0.81936187 -0.040444806 67 21
-1.510916 1.055266 -0.084316 62 20
-1.5734612 0.81766975 -0.12033709 67 19
-1.5162332 1.0601642 -0.16296032 63 18
-1.5781417 0.82010067 -0.19958463 64 17
-1.51981 1.0634547 -0.25287202 62 16
-1.5784913 0.81960315 -0.30401018 59 15
nan nan nan 0 13
-1.5731314 0.81650186 -0.39794332 58 14
-1.3775927 0.96862531 -0.57041961 8 12
-1.5755692 0.81332934 -0.70299417 54 11
-1.079375 0.76357198 -0.68358088 50 9
-1.5720274 0.80947334 -0.81415743 63 10
nan nan nan 0 8
-0.72585613 0.37152582 -0.52826607 89 7
-0.62613636 0.44612402 -0.55889618 71 6
-0.54637527 0.27795482 -0.48943892 51 5
-0.22303092 0.15817839 -0.22803281 88 4
-0.22788414 0.11672353 -0.23470671 59 3
-0.24628456 0.17653476 -0.31674147 7 2
-0.33308068 0.16717531 -0.44347647 11 1
-0.21292008 0.15308398 -0.31993765 3 0
-1.5692952 0.81696481 0.46276423 59 31
-1.5046005 1.0586388 0.41766685 60 30
-1.571813 0.81998646 0.3353056 63 29
-1.5055684 1.0585577 0.2824181 64 28
-1.5703596 0.82094634 0.21205868 63 27
-1.5169151 1.0661751 0.17388812 66 26
-1.582191 0.82780665 0.12181149 64 25
-1.5137168 1.0643239 0.084665373 63 24
-1.5763755 0.82546765 0.040502835 66 23
-1.5131003 1.0642844 0 66 22
-1.578447 0.82689959 -0.04056086 67 21
-1.5113045 1.0634125 -0.084548913 63 20
-1.572808 0.82431191 -0.12050975 67 19
-1.5147434 1.0666225 -0.16318385 64 18
-1.5774708 0.82675433 -0.19986893 64 17
-1.516275 1.0684888 -0.25287202 62 16
-1.5778041 0.82624757 -0.30443954 59 15
-1.4102372 0.9968456 -0.48423582 2 13
-1.5682544 0.82058728 -0.39738521 59 14
-1.3761292 0.9747963 -0.57123679 7 12
-1.5728633 0.81854969 -0.70299417 53 11
-1.078633 0.76843154 -0.68475336 49 9
-1.5732116 0.81703562 -0.81628317 63 10
nan nan nan 0 8
-0.72824067 0.37594426 -0.5310685 90 7
-0.62626565 0.44936275 -0.5604108 71 6
-0.54204673 0.27803969 -0.48620832 49 5
-0.22542544 0.16104662 -0.23148786 87 4
-0.22596303 0.11671035 -0.23288728 60 3
-0.23919368 0.17256226 -0.30720106 7 2
-0.3365975 0.17029549 -0.44944251 9 1
-0.19496033 0.14085263 -0.28937036 4 0
-1.5644372 0.82104486 0.46211973 58 31
-1.5070386 1.0678542 0.41935784 60 30
-1.5690852 0.8251943 0.3353056 63 29
-1.5020499 1.0635446 0.2824181 63 28
-1.5698255 0.82730317 0.2123616 64 27
-1.5172429 1.0743448 0.17436387 66 26
-1.5816449 0.83420932 0.121985 66 25
-1.5122154 1.0707833 0.084781833 64 24
-1.5714176 0.8295269 0.040444806 66 23
-1.5136395 1.0721911 0 64 22
-1.5733393 0.83123982 -0.040502835 68 21
-1.5098057 1.0698647 -0.084665373 63 20
-1.5700659 0.82952297 -0.12050975 67 19
-1.5130402 1.0733465 -0.1634074 66 18
-1.5747205 0.83198082 -0.19986893 64 17
-1.5165709 1.0766468 -0.2535601 60 16
-1.5750555 0.83147526 -0.30443954 56 15
-1.4127923 1.0057058 -0.48629931 2 13
-1.5718508 0.82945931 -0.39905956 59 14
-1.3767321 0.98210371 -0.57287127 4 12
-1.5720502 0.82510906 -0.70393151 53 11
-1.0723611 0.76961064 -0.68240833 46 9
-1.5704936 0.8222481 -0.81628317 62 10
nan nan nan 0 8
-0.72331041 0.37645793 -0.52826607 88 7
-0.62951761 0.45505756 -0.5649547 70 6
-0.53937399 0.2790615 -0.484593 49 5
-0.2219491 0.15969284 -0.22803281 90 4
-0.22555426 0.11749838 -0.23288728 64 3
-0.24118482 0.17532051 -0.31101725 7 2
-0.33600101 0.17146939 -0.44944251 11 1
-0.1979486 0.14413179 -0.2954838 3 0
-1.5636981 0.82762772 0.46276423 59 31
-1.5033019 1.0731082 0.41935784 59 30
-1.5705354 0.83296067 0.33625278 64 29
-1.5003374 1.0702181 0.28280443 63 28
-1.5713139 0.83510107 0.21296749 64 27
-1.5094348 1.0767391 0.17388812 66 26
-1.5787232 0.8397252 0.121985 64 25
-1.5104997 1.077508 0.084898293 63 24
-1.5705743 0.8364526 0.040502835 66 23
-1.5078542 1.0760136 0 66 22
-1.5770503 0.84024334 -0.040676914 67 21
-1.5079048 1.076845 -0.084781833 62 20
-1.5693635 0.83616817 -0.1206824 67 19
-1.5133325 1.0815219 -0.16385446 64 18
-1.5716606 0.83774692 -0.19986893 64 17
-1.5128036 1.081934 -0.2535601 60 16
-1.5741729 0.83839726 -0.30486897 55 15
-1.412999 1.0136843 -0.48767498 2 13
-1.5710988 0.83608294 -0.3996177 58 14
-1.3731234 0.98714316 -0.57287127 4 12
-1.5710653 0.83194703 -0.70486885 53 11
-1.0714551 0.7746461 -0.68358088 42 9
-1.5674694 0.8279987 -0.81628317 58 10
nan nan nan 0 8
-0.72192574 0.37910649 -0.52826607 80 7
-0.62944931 0.45853817 -0.56646937 70 6
-0.54004318 0.28191137 -0.48620832 47 5
-0.2271722 0.16480593 -0.23494291 90 4
-0.22664934 0.11910348 -0.23470671 66 3
-0.22892442 0.16746098 -0.29384449 7 2
-0.34348729 0.17679106 -0.46137458 11 1
-0.19973341 0.14659782 -0.29955944 4 0
-1.5627865 0.83448815 0.46340877 59 31
-1.5033095 1.0814604 0.42048514 59 30
-1.5653061 0.83755624 0.33577919 63 29
-1.4984086 1.077154 0.28319079 63 28
-1.5682427 0.84085459 0.21296749 64 27
-1.5115353 1.0866293 0.17460173 67 26
-1.5778342 0.84668207 0.12215853 64 25
-1.5105923 1.0859573 0.085131206 64 24
-1.5698484 0.84310937 0.04056086 66 23
-1.5079563 1.084457 0 64 22
-1.5739602 0.8460179 -0.040676914 68 21
-1.5081878 1.0850236 -0.085014746 63 20
-1.5684866 0.84309244 -0.12085505 67 19
-1.5133958 1.0899764 -0.16430154 64 18
-1.5709162 0.84440088 -0.20015325 64 17
-1.5108348 1.0889215 -0.25390413 60 16
-1.573408 0.84504938 -0.30529833 58 15
-1.4055597 1.0157897 -0.48629931 3 13
-1.5701725 0.84298533 -0.40017584 58 14
-1.3677576 0.99054182 -0.57205403 4 12
-1.5661056 0.83633721 -0.70393151 54 11
nan nan nan 0 9
-1.5705657 0.83664793 -0.81947184 62 10
nan nan nan 0 8
-0.722431 0.3825869 -0.52966726 81 7
-0.62784487 0.46073258 -0.56646937 72 6
-0.53567064 0.28203326 -0.48297769 46 5
-0.22514683 0.16451769 -0.23321539 90 4
-0.22318316 0.11832488 -0.23106785 68 3
-0.23089021 0.17024179 -0.29766065 7 2
-0.34016716 0.17661574 -0.45739722 11 1
-0.19229558 0.14204547 -0.28733253 4 0
-1.5619924 0.84108031 0.46405327 59 31
-1.4995254 1.0867013 0.42048514 59 30
-1.5666968 0.84534037 0.33672637 63 29
-1.5006357 1.0867312 0.2843498 63 28
-1.5609287 0.84396917 0.2123616 64 27
-1.5097469 1.0933611 0.17483962 63 26
-1.574869 0.85218459 0.12215853 66 25
-1.5067923 1.0912237 0.085131206 63 24
-1.5668957 0.84858406 0.04056086 66 23
-1.5021387 1.088245 0 64 22
-1.5731965 0.85269493 -0.040734943 68 21
-1.5023707 1.0888137 -0.084898293 62 20
-1.5655341 0.8485623 -0.12085505 67 19
-1.5075682 1.0937879 -0.16407801 62 18
-1.5701444 0.85105985 -0.20043755 64 17
-1.5090266 1.0956461 -0.25424817 60 16
-1.5682813 0.84936655 -0.30486897 55 15
-1.4117117 1.0277756 -0.48973849 2 13
-1.5650758 0.84730393 -0.3996177 59 14
-1.370012 0.99949539 -0.57450569 4 12
-1.5733876 0.84727842 -0.70861816 53 11
nan nan nan 0 9
-1.5696305 0.84319305 -0.82053465 60 10
nan nan nan 0 8
-0.71377283 0.38122985 -0.52406234 74 7
-0.62463725 0.46173382 -0.5649547 70 6
-0.54144114 0.28744802 -0.48943892 45 5
-0.22601613 0.16638786 -0.23494291 89 4
-0.22124697 0.11831339 -0.22924842 66 3
-0.22128448 0.16421512 -0.28430408 7 2
-0.33954859 0.17780209 -0.45739722 11 1
-0.20100728 0.14974624 -0.30363509 4 0
-1.5569227 0.84537804 0.46340877 58 31
-1.4957229 1.091929 0.42048514 59 30
-1.5637364 0.85080403 0.33672637 64 29
-1.4948394 1.0905046 0.28396347 63 28
-1.5666951 0.85415214 0.21357337 63 27
-1.5099386 1.1015625 0.17531537 64 26
-1.5762666 0.86005986 0.12250557 63 25
-1.502974 1.0964766 0.085131206 63 24
-1.561729 0.85285348 0.040502835 64 23
-1.5064015 1.0993865 0 63 22
-1.5724051 0.85937679 -0.040792968 68 21
-1.5046064 1.0984761 -0.085247666 62 20
-1.5647527 0.85521495 -0.12102769 66 19
-1.5057496 1.1005154 -0.16430154 62 18
-1.5715263 0.85891193 -0.20100616 64 17
-1.5091869 1.1038355 -0.25493628 59 16
-1.5674701 0.85601306 -0.30529833 55 15
-1.4023064 1.0284253 -0.48767498 3 13
-1.5663897 0.85509121 -0.40073395 58 14
-1.3665148 1.0042715 -0.57450569 4 12
-1.5663438 0.85055929 -0.70674348 53 11
nan nan nan 0 9
-1.5646864 0.84759212 -0.81947184 60 10
nan nan nan 0 8
-0.71426392 0.38469455 -0.52546358 67 7
-0.62302172 0.46391141 -0.5649547 67 6
-0.53537506 0.28665859 -0.484593 47 5
-0.22543393 0.1671758 -0.23494291 90 4
-0.22387068 0.12067524 -0.23288728 62 3
-0.22070991 0.16498657 -0.28430408 7 2
-0.34161714 0.18037829 -0.46137458 11 1
-0.2039274 0.15309541 -0.30974856 4 0
-1.5582029 0.85312158 0.46469781 59 31
-1.4958231 1.1000342 0.42161244 58 30
-1.5629109 0.85743505 0.33719999 63 29
-1.4950011 1.098646 0.28473616 63 28
-1.5637039 0.85961568 0.21357337 63 27
-1.5080879 1.1083026 0.17555325 64 26
-1.5732548 0.86555678 0.12250557 63 25
-1.5051694 1.1061599 0.085480578 62 24
-1.5631247 0.86070478 0.040618889 64 23
-1.5045674 1.1061213 0 64 22
-1.5672052 0.86365706 -0.040734943 67 21
-1.5007628 1.1037214 -0.085247666 60 20
-1.5617578 0.86067176 -0.12102769 66 19
-1.5059057 1.1087219 -0.16474862 62 18
-1.5685186 0.86439234 -0.20100616 64 17
-1.5073164 1.1105677 -0.25528032 55 16
-1.5644726 0.8614794 -0.30529833 55 15
-1.404502 1.0376061 -0.48973849 3 13
-1.5655318 0.86172587 -0.40129209 59 14
-1.3611039 1.0076271 -0.57368851 3 12
-1.5653996 0.85713184 -0.70768076 53 11
nan nan nan 0 9
-1.5637057 0.85413045 -0.82053465 60 10
-1.0373977 0.77527606 -0.76169527 3 8
-0.71291667 0.38718545 -0.52546358 70 7
-0.62298572 0.46728194 -0.56646937 72 6
-0.53605449 0.28942406 -0.48620832 43 5
-0.22053704 0.16467565 -0.22976033 87 4
-0.22496432 0.12225639 -0.23470671 66 3
-0.22141297 0.16674086 -0.28621218 7 2
-0.33964223 0.18086895 -0.4593859 11 1
-0.20453666 0.15469314 -0.31178638 7 0
-1.5573317 0.85971987 0.46534228 59 31
-1.4958849 1.1081533 0.42273974 58 30
-1.5577587 0.86170018 0.33672637 63 29
-1.4971071 1.1082737 0.2858952 63 28
-1.5606937 0.86506879 0.21357337 63 27
-1.5062085 1.1150432 0.17579113 64 26
-1.5724065 0.87225002 0.12267908 64 25
-1.5012989 1.1114072 0.085480578 63 24
-1.5601107 0.86615592 0.040618889 64 23
-1.5027043 1.1128567 0 62 22
-1.564181 0.86912233 -0.040734943 68 21
-1.4989059 1.1104423 -0.085364126 62 20
-1.5609258 0.86732644 -0.12120035 64 19
-1.508021 1.1184287 -0.16541924 63 18
-1.5654917 0.8698622 -0.20100616 66 17
-1.5054171 1.1173006 -0.25562435 56 16
-1.559301 0.86574268 -0.30486897 55 15
-1.4027978 1.0439398 -0.49042633 3 13
-1.5646467 0.86836493 -0.40185019 60 14
-1.3575783 1.012372 -0.57368851 4 12
-1.5664592 0.86482537 -0.70955545 53 11
nan nan nan 0 9
-1.5646822 0.86176109 -0.82266039 62 10
-1.0176162 0.76599258 -0.74876326 3 8
-0.71701884 0.39263636 -0.52966726 79 7
-0.61660177 0.4658412 -0.56192541 68 6
-0.53336078 0.29038921 -0.484593 43 5
-0.22282788 0.1676452 -0.23321539 88 4
-0.22150932 0.12142948 -0.23106785 70 3
-0.21955273 0.16652335 -0.28430408 7 2
-0.33632737 0.18064265 -0.45540854 9 1
-0.21198817 0.16164179 -0.32605109 7 0
-1.5522091 0.86397904 0.46469781 59 31
-1.4959083 1.116286 0.42386705 58 30
-1.5590323 0.86951786 0.33767357 62 29
-1.4892728 1.110535 0.28512248 63 28
-1.5598327 0.87171906 0.21387632 63 27
-1.5062935 1.1232742 0.17626688 64 26
-1.5715305 0.87894785 0.12285261 63 25
-1.5034107 1.1211267 0.085829958 62 24
-1.5614429 0.87403202 0.040734943 64 23
-1.5028148 1.1210897 0 62 22
-1.5676839 0.87823266 -0.040909022 68 21
-1.49902 1.1186596 -0.085597046 60 20
-1.5600662 0.87398577 -0.12137299 64 19
-1.5061009 1.1251785 -0.16564278 63 18
-1.5602772 0.87411046 -0.20072186 64 17
-1.5015079 1.1225487 -0.25562435 54 16
-1.560571 0.8735804 -0.30572775 54 15
-1.3991454 1.0488302 -0.49042633 3 13
-1.5573493 0.87144727 -0.40073395 56 14
-1.3578105 1.0199479 -0.57532293 4 12
-1.5614043 0.86916381 -0.70861816 53 11
-1.3292917 1.0052547 -0.86649448 3 9
-1.5636443 0.86831331 -0.82372332 62 10
-1.0132335 0.76824403 -0.74747008 4 8
-0.7083804 0.39115849 -0.52406234 85 7
-0.6244446 0.47524887 -0.57101321 60 6
-0.53905195 0.29588985 -0.49105424 42 5
-0.21938202 0.16621128 -0.22976033 88 4
-0.2210841 0.12220195 -0.23106785 63 3
-0.22406372 0.17126401 -0.29193643 7 2
-0.33837125 0.18323566 -0.4593859 8 1
-0.21711619 0.16685471 -0.3362402 4 0
-1.5512917 0.87057108 0.46534228 59 31
-1.4939477 1.1229668 0.4244307 58 30
-1.558129 0.8761549 0.33814716 63 29
-1.4932797 1.12167 0.28666788 60 28
-1.5567803 0.87715858 0.21387632 63 27
-1.5025604 1.1282632 0.17626688 63 26
-1.5684528 0.8844282 0.12285261 66 25
-1.5034781 1.1293722 0.086062878 60 24
-1.5627389 0.88192791 0.040850997 64 23
-1.4988922 1.1263287 0 63 22
-1.562585 0.88220066 -0.040850997 68 21
-1.4990948 1.1268911 -0.085829958 60 20
-1.5613525 0.88187319 -0.12171829 64 19
-1.5003731 1.1286674 -0.16541924 63 18
-1.5637094 0.8832072 -0.20157477 64 17
-1.5037068 1.1319965 -0.2566565 53 16
-1.5532191 0.87660748 -0.30486897 54 15
-1.3993082 1.0566094 -0.49180201 2 13
-1.560824 0.880189 -0.40240833 59 14
-1.3542421 1.0246812 -0.57532293 4 12
-1.5645821 0.87772983 -0.71143007 54 11
-1.3154223 1.0016165 -0.85945934 3 9
-1.5586278 0.87266356 -0.82266039 59 10
-0.98860532 0.75467938 -0.73065847 4 8
-0.71244788 0.39663154 -0.52826607 87 7
-0.6212905 0.47610208 -0.5694986 70 6
-0.53471982 0.29584438 -0.48782364 46 5
-0.2202556 0.16804793 -0.23148786 89 4
-0.22067767 0.12293442 -0.23106785 64 3
-0.22095436 0.17001 -0.28812027 7 2
-0.3324182 0.18149874 -0.45143119 8 1
-0.21429023 0.16577668 -0.33216459 7 0
-1.5505006 0.87689674 0.46598682 59 31
-1.4960365 1.1323314 0.42612165 54 30
-1.555215 0.88131696 0.33814716 63 29
-1.4915202 1.128108 0.28705424 60 28
-1.5581822 0.88476098 0.2144822 63 27
-1.5045621 1.1380118 0.17698051 63 26
-1.5655113 0.88962448 0.12285261 63 25
-1.5017145 1.1358604 0.086179331 60 24
-1.5574768 0.88614452 0.040792968 64 23
-1.4971408 1.1328039 0 62 22
-1.5616697 0.88888311 -0.040909022 67 21
-1.495152 1.132117 -0.085829958 60 20
-1.5584195 0.88704598 -0.12171829 64 19
-1.4984071 1.1354041 -0.16564278 60 18
-1.558457 0.88743418 -0.20129047 64 17
-1.5017176 1.138737 -0.25700054 50 16
-1.5587187 0.88688391 -0.30658653 53 15
-1.3937002 1.06003 -0.49111417 3 13
-1.5598621 0.88683337 -0.40296647 59 14
-1.3525342 1.0308368 -0.57614011 3 12
-1.5633733 0.88459688 -0.71236742 54 11
-1.3206683 1.0129334 -0.86532193 3 9
-1.5614887 0.88142723 -0.825849 62 10
-0.96212631 0.73998857 -0.71255362 4 8
-0.70382351 0.39508712 -0.52266109 85 7
-0.61326009 0.47349331 -0.56344008 66 6
-0.53530246 0.29872406 -0.48943892 45 5
-0.21821631 0.16773878 -0.22976033 87 4
-0.22173052 0.12456395 -0.23288728 67 3
-0.22035958 0.17078027 -0.28812027 4 2
-0.33308402 0.18343528 -0.45341986 8 1
-0.22953522 0.17919897 -0.36069405 7 0
-1.549376 0.88376749 0.46663132 59 31
-1.4860716 1.1333691 0.4244307 56 30
-1.5519743 0.88701123 0.33814716 63 29
-1.4873754 1.1335671 0.28705424 60 28
-1.5592391 0.89292657 0.21508808 62 27
-1.500381 1.1435188 0.17698051 63 26
-1.5622402 0.89535636 0.12285261 64 25
-1.50151 1.1443892 0.086412251 60 24
-1.5587136 0.89405692 0.040909022 64 23
-1.4969515 1.1413198 0 62 22
-1.5605706 0.89584231 -0.040967051 67 21
-1.495159 1.1403629 -0.086062878 60 20
-1.5594872 0.89522934 -0.12206359 64 19
-1.4981902 1.1439151 -0.16608986 60 18
-1.5618169 0.89656961 -0.2021434 64 17
-1.4975338 1.1442335 -0.25700054 49 16
-1.5556135 0.89231944 -0.30658653 53 15
-1.3957099 1.0692809 -0.49317768 3 13
-1.5608329 0.89496309 -0.40408272 58 14
-1.3582884 1.042758 -0.58022624 4 12
-1.560276 0.89004868 -0.71236742 54 11
-1.3186921 1.0191197 -0.86649448 3 9
-1.5584024 0.88687247 -0.825849 62 10
nan nan nan 0 8
-0.70244008 0.39754152 -0.52266109 72 7
-0.61160356 0.47563106 -0.56344008 70 6
-0.52758694 0.2968801 -0.48297769 46 5
-0.21904746 0.16961974 -0.23148786 81 4
-0.21829027 0.12368362 -0.22924842 70 3
-0.21720628 0.16957256 -0.28430408 4 2
-0.32978016 0.18314877 -0.44944251 8 1
-0.21761554 0.17093249 -0.34031585 7 0
-1.5504731 0.89157283 0.46792036 58 31
-1.4878955 1.1430078 0.42612165 55 30
-1.5509973 0.8936457 0.33862075 63 29
-1.4853669 1.1402586 0.28744057 60 28
-1.553962 0.89712608 0.21478513 63 27
-1.5003248 1.1517847 0.17745627 63 26
-1.5591053 0.90080416 0.12285261 66 25
-1.4975063 1.1496234 0.086412251 60 24
-1.5577486 0.90074056 0.040967051 64 23
-1.4949393 1.1480631 0 60 22
-1.5552691 0.90003532 -0.040909022 67 21
-1.4931477 1.1470985 -0.086179331 60 20
-1.5563527 0.90066749 -0.12206359 64 19
-1.4961601 1.1506581 -0.16631341 63 18
-1.5586779 0.90201586 -0.2021434 63 17
-1.4974515 1.1524791 -0.25768861 47 16
-1.5524892 0.89774412 -0.30658653 53 15
-1.3957707 1.0770879 -0.49455336 3 13
-1.5555879 0.89918935 -0.40352461 59 14
-1.3546402 1.047493 -0.58022624 4 12
-1.5591705 0.89664215 -0.71330476 54 11
-1.3168669 1.0250754 -0.86766696 3 9
