# .PCD v0.7 - Point Cloud Data file format
VERSION 0.7
FIELDS x y z intensity ring
SIZE 4 4 4 4 2
TYPE F F F F U
COUNT 1 1 1 1 1
WIDTH 1182
HEIGHT 1
VIEWPOINT 0 0 0 1 0 0 0
POINTS 1182
DATA ascii
0.64027381 -0.087723553 0.1414769 103 30
0.6706481 -0.0056431172 0.12266123 88 29
0.65617627 -0.089743502 0.098131597 31 28
0.6825608 -0.0062705688 0.079067588 49 27
0.67566395 -0.092487693 0.061848026 90 26
0.69078159 -0.006551533 0.045635924 37 25
0.68035835 -0.093151927 0.030395683 28 24
0.6835193 -0.093716629 0 90 22
0.70010972 -0.096169859 -0.031327356 10 20
0.70304644 -0.096951678 -0.060579214 40 18
0.72383553 -0.10013594 -0.096676238 33 16
0.64239019 -0.090193264 0.14204055 103 30
0.67553496 -0.00790645 0.12360842 86 29
0.65343016 -0.091567963 0.097745247 36 28
0.67509186 -0.0084677218 0.078158766 49 27
0.67781693 -0.095081434 0.062085904 90 26
0.69574368 -0.0088883508 0.045982964 42 25
0.68004572 -0.095407568 0.030395683 23 24
0.69965941 -0.0091627389 0.015435177 19 23
0.68567932 -0.096338443 0 90 22
0.69731504 -0.098135211 -0.031210894 12 20
0.71257865 -0.10070654 -0.06147337 31 18
0.71859819 -0.10182594 -0.095988154 36 16
0.63725233 -0.091724306 0.14091325 103 30
0.67550325 -0.01026446 0.12360842 87 29
0.64333189 -0.092410132 0.09619987 38 28
0.68498379 -0.010947183 0.079370528 45 27
0.67255658 -0.096722342 0.061610151 90 26
0.70069593 -0.011380444 0.046330005 44 25
0.68217921 -0.0981443 0.030512143 31 24
0.69462293 -0.011660755 0.015319123 26 23
0.68781215 -0.099095665 0 90 22
0.69942129 -0.10105516 -0.031327356 12 20
0.70237023 -0.10173488 -0.060579214 24 18
0.72068781 -0.10469714 -0.096332192 46 16
0.63932008 -0.094423547 0.1414769 104 30
0.67546111 -0.012740234 0.12360842 88 29
0.65275818 -0.096241422 0.097745247 40 28
0.68493903 -0.0134577 0.079370528 41 27
0.67219758 -0.099186733 0.061610151 90 26
0.69566232 -0.013866719 0.045982964 46 25
0.67687631 -0.099898815 0.030279225 37 24
0.69707704 -0.014127246 0.01537715 40 23
0.68497241 -0.10124256 0 88 22
0.69659495 -0.10312253 -0.031210894 12 20
0.71430159 -0.10617666 -0.061696909 21 18
0.71785116 -0.10696546 -0.095988154 62 16
0.63657963 -0.096282005 0.14091325 103 30
0.67050391 -0.015006277 0.12266123 90 29
0.64753622 -0.097765341 0.096972562 32 28
0.67992568 -0.015751489 0.078764647 31 27
0.67186499 -0.10141528 0.061610151 90 26
0.69560969 -0.016294949 0.045982964 47 25
0.67405546 -0.10187975 0.030162767 42 24
0.69952226 -0.01661101 0.015435177 45 23
0.67967355 -0.10286888 0 86 22
0.70951456 -0.016937234 -0.015667286 9 21
0.69623077 -0.10555348 -0.031210894 13 20
0.70656395 -0.10739941 -0.06102629 19 18
0.71993929 -0.10972589 -0.096332192 67 16
0.63625681 -0.098392449 0.14091325 102 30
0.67045045 -0.017229665 0.12266123 88 29
0.64720845 -0.099912114 0.096972562 27 28
0.67986971 -0.018006118 0.078764647 15 27
0.67150688 -0.1037599 0.061610151 79 26
0.70303166 -0.018775243 0.046503525 41 25
0.67371386 -0.10411444 0.030162767 44 24
0.70196193 -0.0189895 0.015493204 46 23
0.68179804 -0.10551242 0 81 22
0.71194983 -0.019473556 -0.015725313 10 21
0.69834363 -0.10825193 -0.031327356 15 20
0.70864385 -0.11025551 -0.06124983 17 18
0.71466106 -0.11146014 -0.095644109 76 16
0.63831389 -0.10100179 0.1414769 102 30
0.67038625 -0.01956987 0.12266123 86 29
0.64441735 -0.10177706 0.096586213 24 28
0.68228346 -0.020444589 0.079067588 10 27
0.66868383 -0.10570668 0.061372273 68 26
0.6979757 -0.021095987 0.046156485 41 25
0.67088097 -0.10606753 0.030046308 46 24
0.69439244 -0.021358069 0.015319123 50 23
0.67648965 -0.107094 0 76 22
0.70438224 -0.021753173 -0.015551231 31 21
0.70287246 -0.1116093 -0.031560272 19 20
0.71071255 -0.11312741 -0.06147337 15 18
0.70937943 -0.11315888 -0.094956025 82 16
0.63073063 -0.10214724 0.13978595 100 30
0.67030996 -0.022026826 0.12266123 82 29
0.64647686 -0.10454084 0.096972562 21 28
0.67476249 -0.022721689 0.078158766 9 27
0.67567706 -0.1092557 0.062085904 60 26
0.69290811 -0.023502601 0.045809444 37 25
0.67541552 -0.10933974 0.030279225 49 24
0.6943137 -0.023781821 0.015319123 58 23
0.68102551 -0.11038851 0 67 22
0.70180386 -0.024134595 -0.015493204 36 21
0.68769604 -0.11161486 -0.030861517 26 20
0.70540053 -0.1147925 -0.06102629 19 18
0.70898008 -0.11563439 -0.094956025 86 16
0.63519162 -0.1050498 0.14091325 98 30
0.67514014 -0.024408881 0.12360842 79 29
0.6534335 -0.10791599 0.098131597 26 28
0.68460429 -0.025289997 0.079370528 8 27
0.67038345 -0.1107861 0.061610151 54 26
0.69282633 -0.025800237 0.045809444 32 25
0.66766161 -0.11033337 0.02992985 69 24
0.68923521 -0.025914025 0.015203069 72 23
0.67326033 -0.11139809 0 63 22
0.70920897 -0.026841953 -0.015667286 38 21
0.69224691 -0.1147268 -0.031094434 22 20
0.70777953 -0.026798878 -0.046615519 17 19
0.71481538 -0.11891855 -0.061920449 18 18
0.71589583 -0.11935245 -0.095988154 85 16
0.63722116 -0.10768054 0.1414769 95 30
0.6701445 -0.026588935 0.12266123 77 29
0.64575034 -0.10893881 0.096972562 28 28
0.67955202 -0.027496826 0.078764647 12 27
0.67489791 -0.11397012 0.062085904 59 26
0.6927321 -0.028218497 0.045809444 27 25
0.68203878 -0.11520589 0.030628601 82 24
0.69912577 -0.028816823 0.015435177 70 23
0.68025839 -0.11502152 0 56 22
0.70411587 -0.029128119 -0.015551231 41 21
0.69428253 -0.1176883 -0.031210894 31 20
0.70020479 -0.02898602 -0.046097565 35 19
0.70948887 -0.12056364 -0.06147337 19 18
0.71059537 -0.12100434 -0.095300063 83 16
0.632025 -0.10916946 0.1403496 93 30
0.67004257 -0.02904496 0.12266123 76 29
0.64291418 -0.11087682 0.096586213 31 28
0.6794467 -0.029987324 0.078764647 13 27
0.66957355 -0.11558038 0.061610151 68 26
0.6976077 -0.030960949 0.046156485 21 25
0.67669296 -0.11683935 0.030395683 90 24
0.68903214 -0.030845385 0.015203069 76 23
0.68229431 -0.11794771 0 51 22
0.71149594 -0.032020006 -0.015725313 41 21
0.69878626 -0.12097839 -0.031443812 37 20
0.71255344 -0.032070052 -0.04696082 38 19
0.7041384 -0.12229592 -0.06102629 19 18
0.71502352 -0.12447219 -0.095988154 79 16
0.6436258 -0.11353154 0.14316785 90 30
0.66503227 -0.031172089 0.12171403 72 29
0.65224755 -0.11486652 0.098131597 35 28
0.6793378 -0.032358851 0.078764647 18 27
0.67653525 -0.11911839 0.062323779 76 26
0.70497006 -0.033727445 0.046677049 24 25
0.66890711 -0.11787662 0.030046308 90 24
0.6914171 -0.033362001 0.015261096 77 23
0.68679959 -0.12121321 0 41 22
0.69890165 -0.033818886 -0.015435177 38 21
0.68852836 -0.12164795 -0.030977976 41 20
0.71243715 -0.034557134 -0.04696082 44 19
0.7061795 -0.12507203 -0.06124983 17 18
0.72205746 -0.034996722 -0.078753479 10 17
0.71460676 -0.12684262 -0.095988154 79 16
0.63366294 -0.11390821 0.14091325 90 30
0.6722815 -0.033719011 0.12313482 65 29
0.64457417 -0.115695 0.096972562 40 28
0.68170559 -0.034728773 0.079067588 14 27
0.66632342 -0.11968735 0.061372273 90 26
0.69488972 -0.035589878 0.045982964 29 25
0.67342556 -0.12099318 0.030279225 90 24
0.68880618 -0.035534728 0.015203069 76 23
0.6814757 -0.12258916 0 29 22
0.70127583 -0.036379084 -0.015493204 35 21
0.70040298 -0.12618242 -0.031560272 42 20
0.70982748 -0.036798943 -0.046788171 46 19
0.70084077 -0.12663563 -0.06080275 13 18
0.72441828 -0.037510991 -0.079037786 13 17
0.71415967 -0.12933628 -0.095988154 74 16
0.63565564 -0.11656704 0.1414769 90 30
0.67461139 -0.036187984 0.12360842 63 29
0.65145057 -0.11930353 0.098131597 44 28
0.68158025 -0.037108157 0.079067588 17 27
0.66590154 -0.12201253 0.061372273 90 26
0.70721489 -0.038652688 0.046850573 35 25
0.66808921 -0.12242695 0.030046308 90 24
0.69366336 -0.038317211 0.015319123 76 23
0.69087362 -0.12680329 0 14 22
0.69864857 -0.038697276 -0.015435177 32 21
0.69011706 -0.12691115 -0.031094434 45 20
0.71218538 -0.039405704 -0.04696082 49 19
0.7101838 -0.13091679 -0.061696909 17 18
0.71931511 -0.039907612 -0.078469172 37 17
0.71370381 -0.13182838 -0.095988154 76 16
0.7283144 -0.040139433 -0.1210888 22 15
0.63522416 -0.11889604 0.1414769 90 30
0.66957176 -0.038397387 0.12266123 56 29
0.64615613 -0.12076645 0.097358905 49 28
0.66905016 -0.038930692 0.077552885 26 27
0.66544992 -0.12445235 0.061372273 90 26
0.69959772 -0.040834665 0.046330005 40 25
0.67254251 -0.12580898 0.030279225 90 24
0.68603879 -0.040324993 0.015145042 77 23
0.69040424 -0.12933463 0 10 22
0.70848399 -0.041812275 -0.015667286 22 21
0.69702899 -0.13072318 -0.031443812 54 20
0.7020753 -0.041462317 -0.046270214 58 19
0.7023623 -0.13211529 -0.06102629 27 18
0.72165132 -0.042556033 -0.078753479 40 17
0.71564788 -0.13490948 -0.096332192 72 16
0.74784261 -0.043767583 -0.12452394 13 15
0.63719612 -0.12157741 0.14204055 90 30
0.66698295 -0.040594373 0.12218763 49 29
0.65058023 -0.12396212 0.098131597 64 28
0.67138761 -0.041409593 0.077855825 31 27
0.66014713 -0.12571122 0.06089652 90 26
0.7044304 -0.043567076 0.046677049 41 25
0.6647445 -0.12672888 0.02992985 90 24
0.68090379 -0.042426504 0.015028988 77 23
0.68504024 -0.13079061 0 9 22
0.70335138 -0.043867622 -0.015551231 12 21
0.68921423 -0.13172595 -0.031094434 68 20
0.7044161 -0.044059809 -0.04644287 64 19
0.69947624 -0.13396773 -0.06080275 37 18
0.72645736 -0.045367684 -0.079322092 42 17
0.72005725 -0.13823026 -0.097020283 67 16
0.71818197 -0.044645622 -0.11937123 12 15
0.64156818 -0.1246351 0.14316785 86 30
0.65949386 -0.042361505 0.12076685 46 29
0.64531916 -0.12516187 0.097358905 69 28
0.67372352 -0.043787695 0.078158766 36 27
0.66947037 -0.12994321 0.061848026 90 26
0.69432509 -0.045288585 0.045982964 45 25
0.66187066 -0.12844878 0.029813392 90 24
0.68824291 -0.045148499 0.015203069 72 23
0.68950784 -0.13403103 0 10 22
0.6957106 -0.045855626 -0.01537715 8 21
0.67897439 -0.13207221 -0.030628601 82 20
0.70924443 -0.046706092 -0.046788171 68 19
0.69900435 -0.13640854 -0.06080275 40 18
0.72134501 -0.047467135 -0.078753479 44 17
0.71471298 -0.13977757 -0.096332192 67 16
0.73769486 -0.048246935 -0.12280636 13 15
0.63635385 -0.12591182 0.14204055 64 30
0.66669118 -0.045133404 0.12218763 41 29
0.64972132 -0.12838757 0.098131597 76 28
0.67851931 -0.046460308 0.078764647 40 27
0.66657281 -0.13178869 0.061610151 90 26
0.68669665 -0.047225218 0.045462403 47 25
0.66876304 -0.13223532 0.030162767 90 24
0.68308496 -0.047342937 0.015087015 74 23
0.68658501 -0.13594376 0 10 22
0.69554627 -0.04828383 -0.01537715 6 21
0.6833818 -0.13554712 -0.030861517 86 20
0.70907712 -0.049181532 -0.046788171 67 19
0.70340532 -0.13983372 -0.06124983 26 18
0.7236445 -0.050274424 -0.079037786 46 17
0.71179366 -0.14178041 -0.095988154 64 16
0.73259801 -0.050627392 -0.12194758 24 15
0.64065987 -0.12922284 0.14316785 44 30
0.66897041 -0.047742322 0.12266123 29 29
0.6516661 -0.13126387 0.098517939 74 28
0.67339295 -0.048607603 0.078158766 41 27
0.66608536 -0.1342309 0.061610151 90 26
0.6939832 -0.050255869 0.045982964 49 25
0.66582739 -0.13418429 0.030046308 90 24
0.69288898 -0.050417475 0.015319123 73 23
0.68363309 -0.13795704 0 13 22
0.69287133 -0.050659332 -0.015319123 8 21
0.68290454 -0.13793173 -0.030861517 90 20
0.70889211 -0.051780101 -0.046788171 72 19
0.69557142 -0.14090501 -0.060579214 18 18
0.72098684 -0.052627709 -0.078753479 49 17
0.71369439 -0.14488833 -0.096332192 63 16
0.73733073 -0.05352449 -0.12280636 37 15
0.64020491 -0.13145837 0.14316785 36 30
0.67614526 -0.050599851 0.12408201 17 29
0.64636803 -0.13252932 0.097745247 87 28
0.67816949 -0.051314466 0.078764647 46 27
0.66074026 -0.13553904 0.061134394 81 26
0.68634117 -0.052137867 0.045462403 50 25
0.6604656 -0.13548797 0.029813392 90 24
0.690216 -0.052654494 0.015261096 72 23
0.67580557 -0.13881008 0 14 22
0.69269025 -0.053077597 -0.015319123 8 21
0.67997438 -0.13980398 -0.030745059 90 20
0.70870703 -0.054254279 -0.046788171 70 19
0.69994956 -0.14435308 -0.06102629 12 18
0.71584433 -0.054782018 -0.078184858 49 17
0.7131843 -0.1473787 -0.096332192 64 16
0.72485769 -0.05520463 -0.1206594 41 15
0.63735974 -0.13318591 0.1426042 29 30
0.67351663 -0.052776963 0.12360842 13 29
0.6459015 -0.13478474 0.097745247 90 28
0.67056262 -0.053120617 0.077855825 50 27
0.6675908 -0.13927782 0.061848026 76 26
0.68615496 -0.054533325 0.045462403 51 25
0.66487443 -0.13882932 0.030046308 90 24
0.68504381 -0.054683466 0.015145042 70 23
0.67776239 -0.14168759 0 21 22
0.69998658 -0.055945668 -0.015493204 9 21
0.67948216 -0.14217669 -0.030745059 90 20
0.70602655 -0.056537326 -0.046615519 72 19
0.699467 -0.14667341 -0.06102629 9 18
0.72307837 -0.057849512 -0.079037786 47 17
0.7151134 -0.15025944 -0.096676238 49 16
0.73448342 -0.058483455 -0.12237697 44 15
0.62977231 -0.13375585 0.14091325 27 30
0.66844326 -0.054628354 0.12266123 12 29
0.63820755 -0.13536377 0.096586213 94 28
0.67285669 -0.055539124 0.078158766 59 27
0.65736967 -0.13950874 0.06089652 76 26
0.69342893 -0.057399329 0.045982964 50 25
0.66196924 -0.14050691 0.02992985 90 24
0.68734014 -0.057273082 0.015203069 62 23
0.68461996 -0.14551672 0 26 22
0.69978708 -0.05838874 -0.015493204 9 21
0.68386352 -0.14560312 -0.030977976 90 20
0.70583522 -0.058878284 -0.046615519 69 19
0.69651723 -0.14858706 -0.06080275 10 18
0.72534788 -0.060571507 -0.079322092 46 17
0.71216458 -0.15222974 -0.096332192 44 16
0.73918492 -0.061438527 -0.12323576 46 15
0.63165671 -0.13658619 0.1414769 27 30
0.6731317 -0.057477664 0.12360842 13 29
0.64011967 -0.13823156 0.096972562 97 28
0.66770232 -0.05759649 0.077552885 72 27
0.65685385 -0.14191717 0.06089652 70 26
0.68575752 -0.059322223 0.045462403 49 25
0.66388905 -0.14346762 0.030046308 90 24
0.68962681 -0.0598794 0.015261096 64 23
0.67431492 -0.14587936 0 21 22
0.69707769 -0.060744926 -0.015435177 12 21
0.6833511 -0.14798936 -0.030977976 88 20
0.69815856 -0.060841419 -0.046097565 73 19
0.69839954 -0.15167488 -0.06102629 10 18
0.72265691 -0.062896103 -0.079037786 41 17
0.71643788 -0.15590662 -0.097020283 37 16
0.73651153 -0.063814014 -0.12280636 47 15
0.63593006 -0.1398529 0.1426042 32 30
0.66803527 -0.059410192 0.12266123 14 29
0.634812 -0.13938923 0.09619987 99 28
0.6600799 -0.05928836 0.076644063 87 27
0.66849911 -0.14691934 0.062085904 51 26
0.69548512 -0.062574647 0.046156485 41 25
0.6633842 -0.14578414 0.030046308 90 24
0.68443364 -0.061854098 0.015145042 58 23
0.68600106 -0.15095693 0 26 22
0.69686145 -0.063177809 -0.015435177 15 21
0.68039322 -0.14982904 -0.030861517 88 20
0.70539582 -0.063927583 -0.046615519 69 19
0.69057667 -0.1524785 -0.060355674 10 18
0.71500975 -0.064771429 -0.078184858 35 17
0.7134732 -0.15786423 -0.096676238 28 16
0.73383075 -0.066171601 -0.12237697 49 15
0.63306284 -0.14153224 0.14204055 33 30
0.66537875 -0.061524786 0.12218763 18 29
0.63191277 -0.14105791 0.095813528 100 28
0.66481221 -0.062035032 0.077249944 90 27
0.66070116 -0.14760041 0.061372273 41 26
0.69029456 -0.064555101 0.045809444 38 25
0.6628713 -0.1480989 0.030046308 90 24
0.68421358 -0.06424284 0.015145042 56 23
0.68303192 -0.15279715 0 32 22
0.69912577 -0.06583558 -0.015493204 13 21
0.67986608 -0.15220316 -0.030861517 82 20
0.70765221 -0.066614658 -0.046788171 68 19
0.6948958 -0.15599398 -0.06080275 12 18
0.72467381 -0.068163872 -0.079322092 22 17
0.70808935 -0.15925233 -0.095988154 28 16
0.72868949 -0.068289742 -0.12151819 50 15
0.64445657 -0.14636818 0.14485882 36 30
0.66517103 -0.063730918 0.12218763 24 29
0.63384843 -0.14370699 0.09619987 101 28
0.66460294 -0.064239286 0.077249944 90 27
0.65778291 -0.149232 0.061134394 32 26
0.6925599 -0.067075506 0.045982964 33 25
0.66481006 -0.15085673 0.030162767 90 24
0.68648517 -0.066744454 0.015203069 51 23
0.68008542 -0.1544998 0 37 22
0.69890362 -0.068153605 -0.015493204 17 21
0.67692423 -0.15389548 -0.030745059 81 20
0.70246124 -0.068494141 -0.04644287 69 19
0.69194877 -0.15773651 -0.060579214 14 18
0.72197098 -0.070334151 -0.079037786 12 17
0.71238214 -0.16271698 -0.096676238 28 16
0.73336333 -0.071165055 -0.12237697 51 15
0.63682765 -0.14694957 0.14316785 40 30
0.65761375 -0.065351702 0.12076685 28 29
0.64055794 -0.14760694 0.097358905 101 28
0.66684473 -0.066797078 0.077552885 90 27
0.6596812 -0.1520942 0.061372273 21 26
0.6923216 -0.069492593 0.045982964 27 25
0.67157423 -0.15488337 0.030512143 87 24
0.6887235 -0.069502257 0.015261096 46 23
0.67467368 -0.15573274 0 41 22
0.69866151 -0.070592813 -0.015493204 23 21
0.67635566 -0.1563755 -0.030745059 74 20
0.70470017 -0.071187839 -0.046615519 64 19
0.70351386 -0.16299808 -0.061696909 17 18
0.73159635 -0.073945887 -0.08017502 10 17
0.70698899 -0.16406842 -0.095988154 29 16
0.72574377 -0.07313662 -0.1210888 51 15
0.6410234 -0.15041159 0.14429517 46 30
0.66958344 -0.068974167 0.12313482 33 29
0.63280392 -0.148239 0.09619987 99 28
0.66412616 -0.068993405 0.077249944 90 27
0.65911931 -0.15451103 0.061372273 14 26
0.68461782 -0.071281306 0.045462403 13 25
0.66857255 -0.15676589 0.030395683 70 24
0.69345015 -0.072407596 0.01537715 44 23
0.66923422 -0.15704662 0 44 22
0.69093817 -0.072397947 -0.015319123 29 21
0.67580569 -0.15873548 -0.030745059 67 20
0.7093972 -0.074272566 -0.04696082 62 19
0.69564611 -0.16384055 -0.06102629 22 18
0.72392029 -0.075748764 -0.079322092 9 17
0.71119946 -0.16781048 -0.096676238 38 16
0.71813279 -0.074927978 -0.11980062 58 15
0.6286577 -0.14978465 0.1414769 53 30
0.66201299 -0.07055787 0.12171403 38 29
0.63468355 -0.15102695 0.096586213 98 28
0.65894461 -0.070799313 0.076644063 90 27
0.66102242 -0.15727982 0.061610151 13 26
0.68684536 -0.073928729 0.045635924 9 25
0.6655938 -0.15851232 0.030279225 64 24
0.69070733 -0.074568234 0.015319123 40 23
0.66868198 -0.15938173 0 44 22
0.68820858 -0.074428834 -0.015261096 32 21
0.68981111 -0.16461682 -0.031443812 59 20
0.70665318 -0.076488532 -0.046788171 54 19
0.69751894 -0.16673285 -0.06124983 18 18
0.71871096 -0.077757731 -0.078753479 9 17
0.70342004 -0.16841616 -0.095644109 47 16
0.71786696 -0.077434272 -0.11980062 59 15
0.62106127 -0.15012684 0.13978595 63 30
0.6642164 -0.07301195 0.12218763 42 29
0.63417923 -0.1531308 0.096586213 97 28
0.65870619 -0.072984062 0.076644063 90 27
0.65563518 -0.15840152 0.061134394 13 26
0.67915732 -0.075407036 0.045115363 9 25
0.67234099 -0.16250189 0.030628601 60 24
0.69294119 -0.077126049 0.01537715 35 23
0.66814977 -0.16159827 0 59 22
0.69291425 -0.077367932 -0.01537715 42 21
0.68441075 -0.16571288 -0.031210894 55 20
0.69895679 -0.078027286 -0.046270214 53 19
0.69451475 -0.16857183 -0.06102629 24 18
0.71844918 -0.080140635 -0.078753479 9 17
0.70523214 -0.17146285 -0.095988154 54 16
0.72005481 -0.080078222 -0.12023001 58 15
0.62762362 -0.1540603 0.1414769 68 30
0.65663719 -0.074527055 0.12076685 45 29
0.63364083 -0.15534358 0.096586213 96 28
0.65598089 -0.075010195 0.076341122 90 27
0.66473848 -0.16309234 0.062085904 13 26
0.68632627 -0.078602195 0.045635924 9 25
0.67419302 -0.16545068 0.030745059 60 24
0.685202 -0.078834698 0.015203069 32 23
0.67485946 -0.16574144 0 74 22
0.69760776 -0.080340773 -0.015493204 46 21
0.68622196 -0.16882442 -0.031327356 53 20
0.70363748 -0.081020057 -0.046615519 50 19
0.70116955 -0.17280479 -0.061696909 32 18
0.72555578 -0.083601356 -0.079606406 10 17
0.71423829 -0.17632644 -0.097364321 62 16
0.71486115 -0.082171172 -0.11937123 60 15
0.61760992 -0.15396971 0.13922229 72 30
0.65879875 -0.07720986 0.12124044 47 29
0.63546187 -0.15826999 0.096972562 91 28
0.65816706 -0.077695757 0.076644063 90 27
0.66413623 -0.16552764 0.062085904 18 26
0.69098908 -0.08168529 0.045982964 9 25
0.6663186 -0.16608535 0.030395683 70 24
0.69237161 -0.082082614 0.01537715 24 23
0.67424744 -0.1682138 0 82 22
0.69234288 -0.082324296 -0.01537715 50 21
0.67836541 -0.16938092 -0.030977976 49 20
0.70333582 -0.083598472 -0.046615519 49 19
0.69570434 -0.17414939 -0.06124983 35 18
0.72772706 -0.086418122 -0.079890713 12 17
0.70398712 -0.17650495 -0.095988154 72 16
0.71212322 -0.084384643 -0.11894184 62 15
0.62886423 -0.15915321 0.14204055 81 30
0.66583955 -0.080364376 0.12266123 49 29
0.62533522 -0.15803353 0.095427185 90 28
0.65542734 -0.079702325 0.076341122 88 27
0.65876204 -0.16649379 0.061610151 23 26
0.68079275 -0.082925975 0.045288883 10 25
0.66573471 -0.16841021 0.030395683 81 24
0.68463492 -0.083616346 0.015203069 21 23
0.67365617 -0.17056635 0 86 22
0.69206607 -0.084619738 -0.01537715 53 21
0.68018889 -0.17236888 -0.031094434 38 20
0.70303971 -0.086053051 -0.046615519 41 19
0.69271147 -0.17583539 -0.06102629 37 18
0.72002167 -0.088078149 -0.079037786 13 17
0.70579594 -0.17945598 -0.096332192 73 16
0.71671581 -0.087449707 -0.11980062 62 15
0.63304722 -0.1624648 0.14316785 79 30
0.6582579 -0.081692338 0.12124044 53 29
0.63436985 -0.16259174 0.096972562 90 28
0.65269595 -0.081576809 0.076038182 82 27
0.65576828 -0.16816625 0.061372273 27 26
0.68546551 -0.085784942 0.045635924 12 25
0.65792179 -0.16873227 0.030046308 90 24
0.69179684 -0.086793505 0.01537715 22 23
0.67550635 -0.17342865 0 87 22
0.69672817 -0.087641567 -0.015493204 67 21
0.67719686 -0.17399447 -0.030977976 24 20
0.7027505 -0.08838395 -0.046615519 37 19
0.68486542 -0.17636687 -0.060355674 38 18
0.71479475 -0.089862533 -0.078469172 18 17
0.7027694 -0.18129271 -0.095988154 81 16
0.7139771 -0.089527927 -0.11937123 62 15
0.63718617 -0.16591707 0.14429517 88 30
0.66527706 -0.084894702 0.12266123 67 29
0.62902176 -0.16354574 0.09619987 90 28
0.66471958 -0.085390434 0.077552885 72 27
0.65277082 -0.16981982 0.061134394 31 26
0.68516189 -0.08817713 0.045635924 14 25
0.66215831 -0.17230114 0.030279225 90 24
0.69395387 -0.089639992 0.015435177 22 23
0.6700623 -0.17451003 0 90 22
0.6939382 -0.089761108 -0.015435177 76 21
0.68138343 -0.17775117 -0.031210894 15 20
0.69996315 -0.090525173 -0.04644287 32 19
0.69868845 -0.18257779 -0.061696909 47 18
0.72185349 -0.0934131 -0.079322092 24 17
0.70691955 -0.18501315 -0.096676238 83 16
0.71608782 -0.092451155 -0.11980062 60 15
0.62716311 -0.16572981 0.14204055 90 30
0.65765649 -0.086400598 0.12124044 77 29
0.63319016 -0.167127 0.096972562 90 28
0.66440219 -0.087826177 0.077552885 68 27
0.66176039 -0.1747843 0.062085904 36 26
0.68236059 -0.090369172 0.045462403 21 25
0.65669745 -0.17343591 0.030046308 90 24
0.6862005 -0.091101289 0.015261096 28 23
0.66941816 -0.17696474 0 88 22
0.69608319 -0.092624955 -0.015493204 76 21
0.67110997 -0.17754319 -0.030745059 10 20
0.70457345 -0.093730778 -0.046788171 23 19
0.69080019 -0.18320024 -0.06102629 67 18
0.70920712 -0.094337076 -0.077900551 36 17
0.7014541 -0.18631697 -0.095988154 83 16
0.71576071 -0.094950199 -0.11980062 62 15
0.62423038 -0.16727941 0.1414769 91 30
0.654917 -0.088376582 0.12076685 86 29
0.63260293 -0.16933623 0.096972562 88 28
0.66901201 -0.09079437 0.078158766 59 27
0.6539408 -0.17513821 0.061372273 41 26
0.69193059 -0.094059512 0.046156485 24 25
0.65367794 -0.17507322 0.02992985 90 24
0.69331115 -0.094482489 0.015435177 35 23
0.6712091 -0.17995542 0 86 22
0.69575566 -0.095054179 -0.015493204 77 21
0.67048615 -0.17988472 -0.030745059 13 20
0.70671421 -0.096518621 -0.04696082 13 19
0.68535143 -0.18430226 -0.060579214 77 18
0.71133548 -0.097139731 -0.078184858 44 17
0.6960215 -0.18746172 -0.095300063 88 16
0.7154249 -0.097448103 -0.11980062 60 15
0.61894631 -0.16816378 0.1403496 97 30
0.65703726 -0.090989761 0.12124044 90 29
0.6320079 -0.17154339 0.096972562 90 28
0.66623193 -0.092795752 0.077855825 58 27
0.64852637 -0.17609976 0.06089652 47 26
0.68665558 -0.095802471 0.045809444 29 25
0.65787852 -0.17867859 0.030162767 90 24
0.68802428 -0.09622708 0.015319123 38 23
0.66816646 -0.18163382 0 85 22
0.69541955 -0.097482242 -0.015493204 76 21
0.67707711 -0.18421358 -0.031094434 12 20
0.70390189 -0.098647311 -0.046788171 8 19
0.68710417 -0.18735595 -0.06080275 86 18
0.70853114 -0.099285938 -0.077900551 45 17
0.69774961 -0.19054981 -0.095644109 86 16
0.71508044 -0.0999448 -0.11980062 58 15
0.62070143 -0.17097826 0.14091325 100 30
0.66157889 -0.093954921 0.12218763 90 29
0.63854295 -0.17573865 0.098131597 70 28
0.67573559 -0.096488521 0.079067588 49 27
0.65752816 -0.18092136 0.061848026 50 26
0.68137687 -0.097509742 0.045462403 32 25
0.6548453 -0.1803032 0.030046308 90 24
0.68520886 -0.098282039 0.015261096 42 23
0.66512036 -0.18329316 0 85 22
0.6975677 -0.10013434 -0.015551231 70 21
0.67642993 -0.18657589 -0.031094434 12 20
0.70108342 -0.10075754 -0.046615519 6 19
0.69127518 -0.19097434 -0.06124983 87 18
0.71063995 -0.10210338 -0.078184858 49 17
0.7018829 -0.1941977 -0.096332192 83 16
0.71472716 -0.1024403 -0.11980062 58 15
0.6248185 -0.17436117 0.14204055 102 30
0.65397221 -0.095115751 0.12076685 91 29
0.63320261 -0.17651261 0.097358905 47 28
0.67295516 -0.098378718 0.078764647 45 27
0.65210265 -0.18186276 0.061372273 50 26
0.67858082 -0.099416032 0.045288883 36 25
0.66145366 -0.18450986 0.030395683 87 24
0.68240517 -0.1001994 0.015203069 46 23
0.66691464 -0.18617764 0 82 22
0.69721389 -0.1025687 -0.015551231 70 21
0.68301666 -0.19085662 -0.031443812 13 20
0.70321411 -0.10343629 -0.046788171 8 19
0.68581295 -0.19202855 -0.06080275 88 18
0.70538038 -0.10375345 -0.077616245 58 17
0.69643641 -0.19529478 -0.095644109 83 16
0.71194553 -0.10446069 -0.11937123 56 15
0.61952329 -0.17519926 0.14091325 101 30
0.65606552 -0.097750627 0.12124044 93 29
0.63495731 -0.1794014 0.097745247 35 28
0.66524106 -0.099651195 0.077855825 42 27
0.66103423 -0.18687673 0.062323779 51 26
0.67329443 -0.1010615 0.044941843 38 25
0.65600377 -0.18544346 0.030162767 73 24
0.68450612 -0.10306326 0.015261096 47 23
0.67106748 -0.18988098 0 81 22
0.69190621 -0.10427418 -0.015435177 69 21
0.67271036 -0.19060531 -0.030977976 17 20
0.70038134 -0.10552729 -0.046615519 9 19
0.68992507 -0.19579563 -0.06124983 87 18
0.70745265 -0.10670008 -0.077900551 65 17
0.69813025 -0.1984088 -0.095988154 85 16
0.71886796 -0.10814364 -0.1206594 56 15
0.61653805 -0.17678922 0.1403496 101 30
0.6508469 -0.099431448 0.12029325 92 29
0.6414119 -0.18379225 0.098904282 24 28
0.66487139 -0.10208876 0.077855825 33 27
0.65556473 -0.18791135 0.061848026 63 26
0.67785203 -0.10426927 0.045288883 47 25
0.66491312 -0.19063012 0.030628601 72 24
0.67425621 -0.10396396 0.015028988 50 23
0.66316444 -0.19024812 0 82 22
0.69399077 -0.10718231 -0.015493204 67 21
0.6792354 -0.19504254 -0.031327356 19 20
0.70245594 -0.10846569 -0.046788171 9 19
0.68920279 -0.19832303 -0.06124983 86 18
0.70953178 -0.10953944 -0.078184858 70 17
0.6997757 -0.20165916 -0.096332192 77 16
0.71848613 -0.11065231 -0.1206594 58 15
0.61591715 -0.17894027 0.1403496 101 30
0.65049589 -0.10170272 0.12029325 90 29
0.63365734 -0.18394043 0.097745247 19 28
0.66451097 -0.10440896 0.077855825 22 27
0.65255016 -0.18938284 0.061610151 90 26
0.67501897 -0.10625582 0.045115363 50 25
0.65945178 -0.19154142 0.030395683 68 24
0.68129969 -0.10745883 0.015203069 49 23
0.6696915 -0.19467814 0 77 22
0.69610161 -0.10986415 -0.015551231 64 21
0.67615467 -0.1967072 -0.031210894 23 20
0.70207304 -0.11091705 -0.046788171 10 19
0.68137604 -0.19849584 -0.060579214 86 18
0.70914507 -0.1120155 -0.078184858 70 17
0.69910306 -0.20397857 -0.096332192 76 16
0.71566135 -0.11278453 -0.12023001 56 15
0.6223231 -0.18306799 0.14204055 99 30
0.65743136 -0.10499351 0.12171403 90 29
0.64488077 -0.18956271 0.099676974 17 28
0.671516 -0.10776506 0.078764647 12 27
0.64711457 -0.19024006 0.061134394 90 26
0.68451786 -0.11004221 0.045809444 62 25
0.66360015 -0.19515158 0.030628601 67 24
0.67353296 -0.10855103 0.015028988 50 23
0.66664624 -0.19618447 0 78 22
0.68830764 -0.11112426 -0.01537715 65 21
0.6731053 -0.19823532 -0.031094434 27 20
0.70416498 -0.11363347 -0.04696082 12 19
0.69022286 -0.20372184 -0.06147337 79 18
0.71613002 -0.11552829 -0.079037786 65 17
0.69838685 -0.20641768 -0.096332192 74 16
0.72258198 -0.11630659 -0.12151819 55 15
0.61934853 -0.18453564 0.1414769 98 30
0.65706086 -0.10728773 0.12171403 90 29
0.63475555 -0.18896197 0.098131597 17 28
0.66378486 -0.10892969 0.077855825 10 27
0.6488294 -0.1932158 0.061372273 90 26
0.68166715 -0.11203523 0.045635924 70 25
0.65813279 -0.1960257 0.030395683 49 24
0.67066312 -0.11062105 0.014970962 44 23
0.66356379 -0.19778855 0 79 22
0.69285029 -0.11432283 -0.015493204 59 21
0.67237425 -0.20070104 -0.031094434 21 20
0.70376402 -0.11609077 -0.04696082 13 19
0.68712401 -0.20540941 -0.06124983 78 18
0.70589393 -0.11656725 -0.077900551 68 17
0.695292 -0.20813687 -0.095988154 73 16
0.71485651 -0.117778 -0.12023001 58 15
0.62565565 -0.18894076 0.14316785 97 30
0.65666318 -0.10969526 0.12171403 90 29
0.6316964 -0.19056587 0.097745247 18 28
0.67072767 -0.11256753 0.078764647 12 27
0.65049702 -0.19631934 0.061610151 90 26
0.6837129 -0.11493766 0.045809444 79 25
0.65979826 -0.19916587 0.030512143 36 24
0.67767102 -0.11418088 0.015145042 38 23
0.66283441 -0.20021932 0 79 22
0.68009704 -0.11482476 -0.015203069 55 21
0.67883408 -0.20523725 -0.031443812 27 20
0.69841236 -0.11785646 -0.046615519 12 19
0.68398577 -0.20719723 -0.06102629 73 18
0.70793319 -0.11943538 -0.078184858 65 17
0.70399404 -0.21358801 -0.097364321 69 16
0.71687108 -0.12067315 -0.1206594 54 15
0.61801213 -0.18896285 0.1414769 94 30
0.65385503 -0.11158291 0.12124044 90 29
0.63102734 -0.19276974 0.097745247 22 28
0.66543579 -0.11408725 0.078158766 12 27
0.65694058 -0.20079407 0.062323779 95 26
0.680848 -0.11691023 0.045635924 87 25
0.65194148 -0.19925487 0.030162767 22 24
0.66987455 -0.11530044 0.014970962 35 23
0.66690814 -0.20400952 0 77 22
0.68462104 -0.11802995 -0.015319123 51 21
0.68049914 -0.20834406 -0.031560272 27 20
0.70783371 -0.12195392 -0.04730612 13 19
0.68563664 -0.21032108 -0.06124983 69 18
0.71241033 -0.12273253 -0.078753479 60 17
0.70324415 -0.2160441 -0.097364321 69 16
0.72130281 -0.12399282 -0.12151819 54 15
0.62199718 -0.19257566 0.1426042 91 30
0.65346158 -0.11386461 0.12124044 88 29
0.62563616 -0.19349566 0.096972562 24 28
0.66258758 -0.11599039 0.077855825 14 27
0.64439535 -0.19925663 0.061134394 93 26
0.68043578 -0.11928612 0.045635924 90 25
0.65124196 -0.20152937 0.030162767 15 24
0.67439425 -0.11848541 0.015087015 27 23
0.65664899 -0.20334747 0 62 22
0.689152 -0.12114782 -0.015435177 45 21
0.67500174 -0.2092246 -0.031327356 31 20
0.70494592 -0.12400033 -0.047133468 17 19
0.68255961 -0.21184814 -0.06102629 64 18
0.70218682 -0.12353092 -0.077616245 60 17
0.70724863 -0.21985924 -0.098052412 65 16
0.71358395 -0.12525736 -0.12023001 54 15
0.62135518 -0.19463724 0.1426042 90 30
0.6530804 -0.11603094 0.12124044 82 29
0.63205534 -0.19780612 0.098131597 28 28
0.66708839 -0.11904114 0.078461707 17 27
0.64369583 -0.20150478 0.061134394 95 26
0.68249309 -0.12197194 0.045809444 90 25
0.64580858 -0.20218015 0.02992985 12 24
0.67645937 -0.12115298 0.015145042 15 23
0.66788733 -0.20929934 0 49 22
0.69610971 -0.12485082 -0.015609259 40 21
0.67668468 -0.21221653 -0.031443812 29 20
0.69716173 -0.12504195 -0.046615519 23 19
0.69605494 -0.21875177 -0.062367529 56 18
0.70911217 -0.12714884 -0.078469172 55 17
0.70647687 -0.22232664 -0.098052412 68 16
0.71559048 -0.12804857 -0.1206594 54 15
0.61835271 -0.19606079 0.14204055 90 30
0.65025431 -0.11788111 0.12076685 79 29
0.62430459 -0.1977497 0.096972562 29 28
0.66422576 -0.12093337 0.078158766 22 27
0.64772838 -0.20526953 0.061610151 90 26
0.68206322 -0.12435354 0.045809444 90 25
0.64509887 -0.20443319 0.02992985 13 24
0.67601079 -0.12363151 0.015145042 9 23
0.66001087 -0.20933923 0 45 22
0.68828946 -0.12595601 -0.015435177 36 21
0.66639131 -0.21164159 -0.030977976 44 20
0.69917589 -0.1279151 -0.046788171 28 19
0.68817556 -0.21889411 -0.061696909 50 18
0.70375198 -0.12886906 -0.077900551 50 17
0.70569646 -0.22479136 -0.098052412 65 16
0.71511632 -0.13067047 -0.1206594 50 15
0.61763 -0.19832586 0.14204055 90 30
0.65464872 -0.12113891 0.12171403 74 29
0.63297302 -0.20308635 0.098517939 35 28
0.65889519 -0.12247793 0.077552885 24 27
0.65170592 -0.20917863 0.062085904 90 26
0.68160284 -0.1268526 0.045809444 90 25
0.64672059 -0.20756713 0.030046308 13 24
0.68295085 -0.12733886 0.015319123 8 23
0.66161692 -0.212529 0 45 22
0.70011538 -0.13072948 -0.015725313 32 21
0.67277378 -0.21628161 -0.031327356 51 20
0.70115554 -0.13092621 -0.04696082 41 19
0.69210404 -0.22295628 -0.062143989 50 18
0.71062726 -0.13266736 -0.078753479 49 17
0.71193093 -0.22967809 -0.099084541 63 16
0.71950126 -0.1340517 -0.12151819 50 15
0.62156153 -0.20200206 0.14316785 90 30
0.64939415 -0.12253118 0.12076685 74 29
0.62756693 -0.20375332 0.097745247 40 28
0.66090351 -0.12523025 0.077855825 29 27
0.64627951 -0.20978647 0.061610151 90 26
0.68605959 -0.13014345 0.046156485 86 25
0.65785515 -0.21371911 0.030628601 13 24
0.67267418 -0.12788987 0.015087015 8 23
0.6632461 -0.2156176 0 47 22
0.69230717 -0.13167502 -0.015551231 26 21
0.67438698 -0.21940868 -0.031443812 64 20
0.69579101 -0.13245706 -0.046615519 45 19
0.68663061 -0.2236931 -0.061696909 46 18
0.71260136 -0.13560314 -0.079037786 47 17
0.70646179 -0.2304876 -0.098396458 64 16
0.72145009 -0.13701376 -0.12194758 50 15
0.62088823 -0.20406212 0.14316785 90 30
0.65622139 -0.12604621 0.12218763 68 29
0.63860822 -0.20972535 0.099676974 45 28
0.64829278 -0.12511533 0.076341122 35 27
0.65026695 -0.21360977 0.062085904 90 26
0.6782732 -0.13102481 0.045635924 79 25
0.66425288 -0.21826054 0.030977976 13 24
0.68206829 -0.13198458 0.015319123 8 23
0.67201734 -0.22096901 0 50 22
0.69184333 -0.13409081 -0.015551231 18 21
0.67128605 -0.22085598 -0.031327356 72 20
0.69534796 -0.13476366 -0.046615519 47 19
0.68820804 -0.22687531 -0.061920449 31 18
0.70970774 -0.13750134 -0.078753479 46 17
0.70330387 -0.23216894 -0.098052412 64 16
0.71615255 -0.13848667 -0.1210888 51 15
0.61786366 -0.20545173 0.1426042 90 30
0.64613432 -0.12648611 0.12029325 56 29
0.63318956 -0.21038006 0.098904282 46 28
0.65759903 -0.12925626 0.077552885 35 27
0.65187645 -0.21667086 0.062323779 90 26
0.68515784 -0.13481025 0.046156485 74 25
0.65875244 -0.2189873 0.030745059 18 24
0.67912614 -0.13400841 0.015261096 9 23
0.66887212 -0.22251685 0 65 22
0.68646371 -0.13555376 -0.015435177 13 21
0.66337132 -0.22092526 -0.030977976 77 20
0.69242477 -0.13671546 -0.04644287 50 19
0.68505222 -0.2284812 -0.061696909 17 18
0.71163738 -0.14057469 -0.079037786 40 17
0.68606496 -0.22908239 -0.095644109 64 16
0.72289389 -0.1425153 -0.12237697 51 15
0.61480075 -0.20693 0.14204055 60 30
0.65530264 -0.13073877 0.12218763 49 29
0.63007575 -0.21190423 0.098517939 47 28
0.65225089 -0.1307084 0.076947004 38 27
0.64872181 -0.21825747 0.062085904 90 26
0.67976528 -0.13635689 0.045809444 70 25
0.66267407 -0.2230082 0.030977976 21 24
0.67129809 -0.13492694 0.015087015 10 23
0.66568536 -0.22416164 0 70 22
0.68841422 -0.13855347 -0.015493204 13 21
0.66023213 -0.22243471 -0.030861517 74 20
0.69191909 -0.13925239 -0.04644287 58 19
0.68185347 -0.23018683 -0.06147337 10 18
0.70626897 -0.14209476 -0.078469172 36 17
0.68990743 -0.23319547 -0.096332192 63 16
0.72239208 -0.1450378 -0.12237697 51 15
0.65212899 -0.13191751 0.1682193 96 31
0.6186806 -0.21066074 0.14316785 42 30
0.64521271 -0.13110645 0.12029325 42 29
0.62232524 -0.21169232 0.097358905 47 28
0.65422398 -0.13347149 0.077249944 41 27
0.65034795 -0.22121648 0.062323779 83 26
0.67928511 -0.13872889 0.045809444 65 25
0.65480703 -0.22288337 0.030628601 26 24
0.67817408 -0.13874629 0.015261096 12 23
0.66017091 -0.22485693 0 76 22
0.68550062 -0.14034283 -0.015435177 17 21
0.6618129 -0.22555104 -0.030977976 76 20
0.69142884 -0.1416668 -0.04644287 65 19
0.68108642 -0.23244667 -0.06147337 10 18
0.71550852 -0.14651957 -0.079606406 27 17
0.68678957 -0.23467419 -0.095988154 63 16
0.72429585 -0.14804365 -0.12280636 53 15
0.63748145 -0.13121222 0.16435219 95 31
0.61567831 -0.21191059 0.1426042 32 30
0.65199172 -0.13470848 0.12171403 33 29
0.62395287 -0.21456595 0.097745247 51 28
0.66107279 -0.13712575 0.078158766 44 27
0.64957178 -0.22348528 0.062323779 76 26
0.67637771 -0.1404822 0.045635924 54 25
0.66114074 -0.22751367 0.030977976 21 24
0.68015897 -0.14149487 0.015319123 12 23
0.65942168 -0.22704493 0 79 22
0.68745518 -0.1432361 -0.015493204 19 21
0.66577834 -0.22938617 -0.031210894 76 20
0.69095522 -0.14395888 -0.04644287 69 19
0.67791963 -0.23400301 -0.06124983 8 18
0.70285213 -0.14640069 -0.078184858 13 17
0.69297999 -0.23951803 -0.097020283 58 16
0.74310482 -0.15438963 -0.12624151 67 15
0.63701963 -0.13343664 0.16435219 95 31
0.61952984 -0.21567567 0.14373152 24 30
0.65151757 -0.13698353 0.12171403 26 29
0.62786037 -0.21838105 0.098517939 87 28
0.65087044 -0.13741785 0.076947004 49 27
0.64878768 -0.22575136 0.062323779 73 26
0.67344129 -0.14233533 0.045462403 54 25
0.66505438 -0.23147663 0.031210894 24 24
0.6747421 -0.14296803 0.015203069 14 23
0.6609835 -0.23017491 0 78 22
0.68450421 -0.14512508 -0.015435177 31 21
0.66257763 -0.23099534 -0.031094434 74 20
0.69044852 -0.14636987 -0.04644287 69 19
0.68179536 -0.23802374 -0.061696909 8 18
0.70960522 -0.150497 -0.079037786 10 17
0.69213963 -0.24193552 -0.097020283 58 16
0.63179767 -0.13478099 0.16306317 95 31
0.62332416 -0.21957898 0.14485882 19 30
0.64860886 -0.13886565 0.12124044 19 29
0.62938285 -0.22150853 0.098904282 90 28
0.65036237 -0.13980249 0.076947004 53 27
0.64561129 -0.22729376 0.062085904 69 26
0.66803509 -0.14377071 0.045115363 50 25
0.65949577 -0.23223883 0.030977976 32 24
0.67668396 -0.14584038 0.015261096 19 23
0.66249067 -0.23343422 0 74 22
0.69130242 -0.14918931 -0.015609259 38 21
0.67353022 -0.23749536 -0.031676728 65 20
0.69478679 -0.14993489 -0.046788171 65 19
0.67857313 -0.23968455 -0.06147337 8 18
0.70907557 -0.15297309 -0.079037786 6 17
0.69358027 -0.24530342 -0.097364321 59 16
0.63132334 -0.13698554 0.16306317 96 31
0.62713712 -0.22340353 0.14598612 21 30
0.64812022 -0.14112885 0.12124044 18 29
0.6239574 -0.22203246 0.098131597 90 28
0.65472293 -0.1431139 0.077552885 64 27
0.6448139 -0.229546 0.062085904 60 26
0.66752911 -0.14610171 0.045115363 46 25
0.66103107 -0.23538461 0.031094434 35 24
0.67861402 -0.14872803 0.015319123 24 23
0.65696716 -0.23405245 0 74 22
0.68344814 -0.15001953 -0.015435177 42 21
0.67269713 -0.23984498 -0.031676728 68 20
0.69425923 -0.15235925 -0.046788171 67 19
0.68007463 -0.24289644 -0.061696909 9 18
0.71096516 -0.15597132 -0.079322092 6 17
0.63084137 -0.13918844 0.16306317 96 31
0.61948729 -0.22309218 0.14429517 19 30
0.65721822 -0.14547707 0.12313482 18 29
0.62317854 -0.22420911 0.098131597 90 28
0.65421939 -0.14539844 0.077552885 73 27
0.64166981 -0.23094505 0.061848026 44 26
0.66945142 -0.14896393 0.045288883 41 25
0.66020536 -0.23769061 0.031094434 37 24
0.68053216 -0.15163091 0.01537715 28 23
0.65849543 -0.23719889 0 70 22
0.67315555 -0.15026093 -0.015203069 45 21
0.66012239 -0.23792106 -0.031094434 72 20
0.6912871 -0.15424702 -0.046615519 67 19
0.67688328 -0.24441603 -0.06147337 10 18
0.70556432 -0.15738708 -0.078753479 6 17
0.63037628 -0.14127962 0.16306317 96 31
0.61874408 -0.22514525 0.14429517 21 30
0.64474761 -0.14500754 0.12076685 22 29
0.62475002 -0.22712606 0.098517939 90 28
0.64404297 -0.14541696 0.076341122 86 27
0.64323652 -0.23392974 0.062085904 32 26
0.66651917 -0.15064202 0.045115363 36 25
0.66644603 -0.24246188 0.031443812 35 24
0.67514634 -0.15280065 0.015261096 31 23
0.66239834 -0.24110609 0 62 22
0.67753237 -0.15358023 -0.015319123 47 21
0.66167361 -0.24097069 -0.031210894 69 20
0.6883375 -0.15599579 -0.04644287 65 19
0.68074208 -0.24838051 -0.061920449 10 18
0.70746279 -0.16026649 -0.079037786 6 17
0.62752199 -0.14295183 0.16241865 97 31
0.62480342 -0.22984946 0.14598612 24 30
0.65142268 -0.14887123 0.12218763 22 29
0.62626892 -0.23016521 0.098904282 90 28
0.63868999 -0.14657225 0.075735241 90 27
0.64941508 -0.23877239 0.062799536 19 26
0.67085463 -0.15406683 0.045462403 28 25
0.6585722 -0.24217893 0.031094434 49 24
0.66726893 -0.1536181 0.015087015 42 23
0.65686572 -0.2416756 0 58 22
0.66967964 -0.154287 -0.015145042 50 21
0.66546732 -0.2451352 -0.031443812 67 20
0.69022119 -0.15894885 -0.046615519 63 19
0.67520392 -0.2490177 -0.06147337 12 18
0.70202613 -0.16175954 -0.078469172 6 17
0.62699389 -0.14525086 0.16241865 96 31
0.62167692 -0.231281 0.14542247 26 30
0.64608651 -0.15016426 0.12124044 26 29
0.6231088 -0.23159082 0.098517939 90 28
0.63814849 -0.14891218 0.075735241 90 27
0.64620572 -0.2402762 0.062561654 13 26
0.67757738 -0.15820003 0.045982964 17 25
0.66235602 -0.24634679 0.031327356 67 24
0.66916442 -0.1565069 0.015145042 45 23
0.66299647 -0.24671914 0 54 22
0.67885154 -0.15898596 -0.01537715 49 21
0.66928285 -0.24921392 -0.031676728 65 20
0.69449461 -0.16259794 -0.04696082 62 19
0.68360794 -0.255 -0.062367529 14 18
0.70871812 -0.16588274 -0.079322092 9 17
0.62648308 -0.1474386 0.16241865 96 31
0.61858892 -0.23258471 0.14485882 28 30
0.65034074 -0.15352884 0.12218763 26 29
0.62229663 -0.23376447 0.098517939 90 28
0.64245838 -0.1522654 0.076341122 88 27
0.65005928 -0.24418284 0.06303741 12 26
0.66487759 -0.15772945 0.045115363 10 25
0.65682238 -0.24688534 0.031094434 81 24
0.66618025 -0.15827273 0.015087015 49 23
0.66213119 -0.24903192 0 50 22
0.67588699 -0.16066679 -0.015319123 47 21
0.66607434 -0.25066182 -0.031560272 64 20
0.68906605 -0.16388385 -0.046615519 55 19
0.68974072 -0.2599206 -0.063038148 22 18
0.70813477 -0.16835561 -0.079322092 10 17
0.62599069 -0.14951527 0.16241865 96 31
0.62463629 -0.23725212 0.14654978 29 30
0.64504945 -0.15455852 0.12124044 27 29
0.62382436 -0.23671073 0.098904282 90 28
0.63953501 -0.15382373 0.076038182 90 27
0.63758379 -0.24199729 0.061848026 10 26
0.67405808 -0.16223344 0.045809444 8 25
0.64434063 -0.24459344 0.030512143 90 24
0.6656518 -0.16048099 0.015087015 58 23
0.66597027 -0.25301647 0 32 22
0.6850484 -0.16533686 -0.015551231 40 21
0.66290784 -0.25197467 -0.031443812 69 20
0.69337177 -0.16732143 -0.04696082 53 19
0.68418068 -0.26054034 -0.062591068 19 18
0.71723849 -0.17300034 -0.080459327 10 17
0.63016427 -0.15281987 0.16370767 96 31
0.6169914 -0.23678991 0.14485882 32 30
0.64689332 -0.1573806 0.12171403 29 29
0.62529755 -0.23977883 0.099290624 90 28
0.64381993 -0.15721464 0.076644063 86 27
0.64369726 -0.24691762 0.062561654 14 26
0.66621339 -0.16283493 0.045288883 9 25
0.64814037 -0.24864483 0.030745059 90 24
0.67480654 -0.16514587 0.015319123 65 23
0.65808958 -0.25262982 0 17 22
0.67717844 -0.16596785 -0.01537715 36 21
0.67366642 -0.25880051 -0.032026105 55 20
0.68551022 -0.16798516 -0.04644287 51 19
0.68326706 -0.262927 -0.062591068 26 18
0.70455796 -0.17258902 -0.079037786 10 17
0.62258399 -0.15331343 0.16177413 93 31
0.61616117 -0.23894215 0.14485882 32 30
0.64395469 -0.15905802 0.12124044 28 29
0.62215662 -0.24106006 0.098904282 90 28
0.63844556 -0.15828475 0.076038182 88 27
0.64978415 -0.25188357 0.063275285 14 26
0.67048639 -0.16634332 0.045635924 8 25
0.64261734 -0.2490858 0.030512143 90 24
0.66448629 -0.16524015 0.015087015 74 23
0.65953171 -0.25583684 0 10 22
0.68144995 -0.16952044 -0.015493204 28 21
0.6727134 -0.26126787 -0.032026105 47 20
0.68491966 -0.17037702 -0.04644287 50 19
0.68698108 -0.26712915 -0.063038148 15 18
0.71115762 -0.17694506 -0.079890713 12 17
0.62436342 -0.15617129 0.16241865 96 31
0.61528128 -0.2411989 0.14485882 36 30
0.65051681 -0.1631825 0.12266123 28 29
0.62586254 -0.24515565 0.099676974 90 28
0.64267844 -0.16181765 0.076644063 81 27
0.653485 -0.2560941 0.063751042 15 26
0.66987216 -0.16879967 0.045635924 9 25
0.6463446 -0.25327644 0.030745059 90 24
0.66390556 -0.16755863 0.015087015 81 23
0.65394038 -0.2564126 0 10 22
0.67597347 -0.17080934 -0.01537715 15 21
0.66483146 -0.26085654 -0.031676728 46 20
0.6818704 -0.17228371 -0.046270214 41 19
0.6767388 -0.26597393 -0.062143989 24 18
0.70571518 -0.17822631 -0.079322092 15 17
0.62615806 -0.15893495 0.16306317 96 31
0.61895847 -0.2451542 0.14598612 37 30
0.64518112 -0.16425872 0.12171403 28 29
0.62729663 -0.2482553 0.10006332 90 28
0.64451629 -0.16466543 0.076947004 79 27
0.65027606 -0.25745022 0.063513167 17 26
0.66686046 -0.17052767 0.045462403 9 25
0.64313751 -0.25460446 0.030628601 90 24
0.6681633 -0.1710979 0.015203069 79 23
0.6530413 -0.25869372 0 8 22
0.68021941 -0.1743924 -0.015493204 10 21
0.66855425 -0.2650305 -0.031909645 47 20
0.69093704 -0.17710668 -0.04696082 38 19
0.68505198 -0.27203822 -0.063038148 42 18
0.71231306 -0.18251397 -0.08017502 13 17
0.62794089 -0.16171305 0.16370767 95 31
0.62261546 -0.24913806 0.14711343 33 30
0.64936179 -0.16771995 0.12266123 28 29
0.619555 -0.24767007 0.098904282 90 28
0.64874649 -0.1681418 0.077552885 74 27
0.64480287 -0.25774309 0.06303741 17 26
0.66867739 -0.17347211 0.045635924 9 25
0.64456064 -0.25778255 0.030745059 88 24
0.66271955 -0.17218944 0.015087015 78 23
0.64749813 -0.25909945 0 8 22
0.67479515 -0.17540655 -0.01537715 6 21
0.66530967 -0.26642707 -0.031793188 50 20
0.6854828 -0.17827863 -0.046615519 35 19
0.67722106 -0.27150771 -0.062367529 51 18
0.70926565 -0.18438245 -0.079890713 21 17
0.62740123 -0.16379449 0.16370767 95 31
0.62178588 -0.25120139 0.14711343 36 30
0.64167112 -0.16803353 0.12124044 37 29
0.62787962 -0.25345144 0.10044966 90 28
0.64578295 -0.16967043 0.077249944 76 27
0.63698524 -0.25717497 0.062323779 21 26
0.67775524 -0.17819136 0.046330005 10 25
0.64601493 -0.26086098 0.030861517 85 24
0.65488744 -0.17250247 0.014912935 78 23
0.66052544 -0.26690799 0 8 22
0.67417872 -0.17776096 -0.01537715 8 21
0.66904712 -0.27051821 -0.032026105 54 20
0.69212931 -0.18243298 -0.047133468 27 19
0.68318444 -0.27669486 -0.063038148 59 18
0.70865035 -0.18673344 -0.079890713 38 17
0.61513871 -0.16293712 0.16048509 92 31
0.61865324 -0.25244251 0.14654978 50 30
0.63395625 -0.1684086 0.11981966 44 29
0.62242293 -0.25376153 0.099676974 90 28
0.64518678 -0.17192359 0.077249944 74 27
0.63378233 -0.25844976 0.062085904 22 26
0.67954117 -0.18119024 0.046503525 10 25
0.64740974 -0.26406479 0.030977976 83 24
0.66394913 -0.17733276 0.015145042 70 23
0.65958971 -0.26921201 0 9 22
0.68563789 -0.18329909 -0.015667286 6 21
0.66578972 -0.27190068 -0.031909645 63 20
0.68907672 -0.18421206 -0.04696082 15 19
0.67300731 -0.27527928 -0.062143989 67 18
0.71279758 -0.19047238 -0.080459327 42 17
0.62387794 -0.16766199 0.16306317 91 31
0.61547524 -0.25377229 0.14598612 90 30
0.64756984 -0.17451072 0.12266123 49 29
0.62376928 -0.25698954 0.10006332 90 28
0.64695019 -0.1749261 0.077552885 70 27
0.64432019 -0.26554883 0.063275285 23 26
0.67164356 -0.18175076 0.045982964 12 25
0.65104926 -0.26835367 0.031210894 78 24
0.66329473 -0.17976506 0.015145042 69 23
0.66090673 -0.27258807 0 10 22
0.68013263 -0.18451878 -0.015551231 8 21
0.66017765 -0.27241975 -0.031676728 65 20
0.68839693 -0.1867364 -0.04696082 12 19
0.67659038 -0.27966031 -0.062591068 67 18
0.70489657 -0.19115761 -0.079606406 45 17
0.62328893 -0.16983873 0.16306317 90 31
0.61009502 -0.25403148 0.14485882 90 30
0.63984585 -0.17485543 0.12124044 53 29
0.62742311 -0.26107806 0.10083601 90 28
0.64633566 -0.17718332 0.077552885 69 27
0.64343607 -0.26768398 0.063275285 26 26
0.67581981 -0.18539685 0.046330005 12 25
0.6524111 -0.27159163 0.031327356 77 24
0.66507542 -0.18273288 0.015203069 67 23
0.66686577 -0.27779856 0 10 22
0.68434149 -0.18808123 -0.015667286 8 21
0.65922272 -0.27472252 -0.031676728 67 20
0.68774086 -0.18913822 -0.04696082 10 19
0.66877401 -0.27900532 -0.061920449 70 18
0.69943082 -0.19231622 -0.079037786 50 17
0.62505311 -0.1725384 0.16370767 90 31
0.62046015 -0.26080966 0.14767708 90 30
0.64636701 -0.17891452 0.12266123 65 29
0.62655389 -0.26315722 0.10083601 63 28
0.63856399 -0.17735994 0.076644063 73 27
0.63791513 -0.26798603 0.062799536 17 26
0.66317511 -0.18434018 0.045462403 14 25
0.65380615 -0.27472815 0.031443812 69 24
0.65964556 -0.18361415 0.015087015 60 23
0.66133761 -0.27805641 0 12 22
0.68127084 -0.18980645 -0.015609259 8 21
0.66060704 -0.27788246 -0.031793188 65 20
0.69191951 -0.19273989 -0.04730612 12 19
0.67237943 -0.2832855 -0.062367529 69 18
0.69639421 -0.19397622 -0.078753479 59 17
0.61978972 -0.17343548 0.16241865 90 31
0.61059058 -0.25913745 0.14542247 90 30
0.64337265 -0.18051532 0.12218763 65 29
0.62336075 -0.26437086 0.10044966 44 28
0.6451146 -0.18157865 0.077552885 72 27
0.63697582 -0.2702111 0.062799536 14 26
0.66733342 -0.18798949 0.045809444 17 25
0.64365971 -0.27307832 0.030977976 69 24
0.66378355 -0.18737149 0.015203069 55 23
0.65576661 -0.27839512 0 13 22
0.68541944 -0.19352509 -0.015725313 9 21
0.65958411 -0.28030184 -0.031793188 65 20
0.69124258 -0.19515398 -0.04730612 13 19
0.6690982 -0.2846491 -0.062143989 68 18
0.69328606 -0.19586024 -0.078469172 63 17
0.62845504 -0.1783075 0.16499671 90 31
0.61187202 -0.26234096 0.14598612 90 30
0.6521607 -0.18552424 0.12408201 60 29
