# .PCD v0.7 - Point Cloud Data file format
VERSION 0.7
FIELDS x y z intensity ring
SIZE 4 4 4 4 2
TYPE F F F F U
COUNT 1 1 1 1 1
WIDTH 1376
HEIGHT 1
VIEWPOINT 0 0 0 1 0 0 0
POINTS 1376
DATA ascii
-2.1055791 -1.5998356 -0.23426941 46 18
nan nan nan 0 17
-2.1104183 -1.6023526 -0.36330998 48 16
nan nan nan 0 15
-2.1091828 -1.5962561 -0.74698877 48 13
-0.28732237 -0.28240198 -0.084276922 4 14
-1.7131643 -1.2942957 -0.73059469 21 12
nan nan nan 0 11
nan nan nan 0 9
-0.34788871 -0.34466305 -0.21363662 24 10
-0.31633997 -0.23901612 -0.21855094 45 8
nan nan nan 0 7
-0.20069395 -0.1518961 -0.16509402 8 6
nan nan nan 0 5
nan nan nan 0 4
nan nan nan 0 3
nan nan nan 0 2
nan nan nan 0 1
nan nan nan 0 0
-2.246881 -2.22616 0.83465135 44 31
-2.1059296 -1.5897355 0.60254502 49 30
-2.237823 -2.213336 0.60051906 45 29
-2.0913079 -1.5798397 0.40450305 46 28
-2.2321808 -2.203928 0.37867621 45 27
-2.1009789 -1.5871173 0.24834362 48 26
-2.2421911 -2.2122893 0.21672727 44 25
-2.0982058 -1.5850188 0.12100044 46 24
-2.2406056 -2.2091868 0.072243594 44 23
-2.0987377 -1.5848451 0 46 22
-2.2395976 -2.2066491 -0.072185569 44 21
-2.1007533 -1.5857892 -0.1211169 49 20
-2.2384634 -2.2055211 -0.21512198 45 19
-2.103471 -1.5861176 -0.23337525 48 18
-2.1816428 -2.149441 -0.34657216 1 17
-2.1083612 -1.5886527 -0.3619338 48 16
-0.32622841 -0.31867376 -0.07342618 4 15
-2.1089735 -1.5845578 -0.74492532 46 13
nan nan nan 0 14
-1.7195635 -1.2897234 -0.73141193 24 12
-0.41153121 -0.40474802 -0.21933419 3 11
nan nan nan 0 9
-0.35711223 -0.35142446 -0.21895096 20 10
-0.31373349 -0.23536392 -0.21596454 45 8
nan nan nan 0 7
-0.20282505 -0.15237322 -0.16660863 8 6
nan nan nan 0 5
nan nan nan 0 4
nan nan nan 0 3
nan nan nan 0 2
nan nan nan 0 1
nan nan nan 0 0
-2.2391536 -2.2030444 0.82885069 43 31
-2.1017146 -1.5750797 0.59972674 48 30
-2.2280359 -2.1882966 0.59578311 43 29
-2.0869236 -1.5651289 0.40257135 46 28
-2.2310076 -2.1874292 0.3771615 44 27
-2.096545 -1.5723166 0.24715422 48 26
-2.2374394 -2.1922216 0.21551263 45 25
-2.0957291 -1.5716983 0.12053461 48 24
-2.2375965 -2.1908526 0.071895428 44 23
-2.096251 -1.5715178 0 46 22
-2.2365761 -2.1883221 -0.07183741 45 21
-2.1002772 -1.5739586 -0.12076753 48 20
-2.2318978 -2.1837292 -0.21374078 44 19
-2.0970275 -1.5698224 -0.23203403 48 18
-2.2583182 -2.2096114 -0.3576602 4 17
-2.1039734 -1.5738754 -0.36021358 46 16
-0.31151292 -0.30201355 -0.069561653 4 15
-2.1029246 -1.568574 -0.74079823 46 13
nan nan nan 0 14
-1.7202618 -1.2808951 -0.72977746 24 12
-0.39808449 -0.38866824 -0.21089825 3 11
nan nan nan 0 9
-0.35511667 -0.34699586 -0.21682522 18 10
-0.32144865 -0.23933631 -0.22113733 45 8
nan nan nan 0 7
-0.20817441 -0.15518332 -0.1711525 8 6
nan nan nan 0 5
nan nan nan 0 4
nan nan nan 0 3
nan nan nan 0 2
nan nan nan 0 1
nan nan nan 0 0
-2.2364717 -2.1850781 0.82498354 44 31
-2.0935125 -1.5575687 0.59578121 48 30
-2.2251253 -2.1702139 0.59294152 44 29
-2.0844443 -1.5519412 0.40102598 46 28
-2.2297461 -2.1709652 0.37564677 44 27
-2.0920336 -1.5575662 0.24596485 46 26
-2.2343616 -2.1739547 0.21447149 44 25
-2.0931854 -1.5584147 0.12006877 46 24
-2.2326963 -2.1708229 0.071489245 43 23
-2.0916901 -1.5567364 0 46 22
-2.2370365 -2.1735294 -0.071605302 44 21
-2.0917244 -1.5561953 -0.11995232 46 20
-2.2269955 -2.1637492 -0.21253222 44 19
-2.0924954 -1.5550752 -0.23091634 46 18
-2.2321966 -2.1688025 -0.35225832 6 17
-2.1014977 -1.5606233 -0.35883743 46 16
-0.3284452 -0.31638855 -0.07342618 4 15
-2.100656 -1.5555093 -0.73804694 45 13
-0.31475043 -0.30313331 -0.092090674 4 14
-1.7247224 -1.2748824 -0.72977746 20 12
-0.40772101 -0.39538121 -0.21558487 3 11
nan nan nan 0 9
-0.35471013 -0.34416986 -0.21576236 17 10
-0.32055384 -0.23695159 -0.21984413 41 8
nan nan nan 0 7
-0.21193545 -0.15679047 -0.17418174 6 6
nan nan nan 0 5
nan nan nan 0 4
nan nan nan 0 3
nan nan nan 0 2
nan nan nan 0 1
nan nan nan 0 0
-2.2336917 -2.1671579 0.82111645 43 31
-2.0930552 -1.5459154 0.59409028 46 30
-2.2203541 -2.1504691 0.58962637 45 29
-2.0818989 -1.5387901 0.39948061 48 28
-2.2230492 -2.1493583 0.37322325 45 27
-2.0871754 -1.543231 0.24477547 48 26
-2.2365599 -2.160939 0.21395093 45 25
-2.0885649 -1.5436857 0.11948649 48 24
-2.2258871 -2.1491165 0.071025029 44 23
-2.0850394 -1.5405221 0 48 22
-2.231653 -2.1539392 -0.071199104 45 21
-2.0891037 -1.5429566 -0.11948649 48 20
-2.2183936 -2.1403646 -0.21097837 43 19
-2.0896223 -1.5422199 -0.23002218 48 18
-2.2343953 -2.1558197 -0.35140541 6 17
-2.0966907 -1.5463057 -0.35711721 48 16
-0.33662933 -0.32208842 -0.075143754 4 15
-2.0963838 -1.5410576 -0.73460776 46 13
-0.31400275 -0.30039325 -0.091532551 4 14
-1.7272559 -1.2674587 -0.72896028 18 12
-0.40736809 -0.3924115 -0.21464756 3 11
nan nan nan 0 9
-0.35753044 -0.34450829 -0.21682522 18 10
-0.32826772 -0.24090917 -0.22501695 43 8
nan nan nan 0 7
-0.20599751 -0.15143865 -0.16812326 6 6
nan nan nan 0 5
nan nan nan 0 4
nan nan nan 0 3
nan nan nan 0 2
nan nan nan 0 1
nan nan nan 0 0
-2.2287011 -2.1479955 0.81660485 45 31
-2.0903096 -1.5332108 0.59183568 48 30
-2.2204025 -2.1362808 0.58773202 44 29
-2.0750356 -1.5231187 0.3971625 48 28
-2.219434 -2.1316519 0.3714056 44 27
-2.0845196 -1.5300525 0.24382396 49 26
-2.2293298 -2.1396832 0.21256277 45 25
-2.0795712 -1.5264194 0.11867127 48 24
-2.2239892 -2.1330657 0.070734888 45 23
-2.0820689 -1.5276905 0 48 22
-2.226537 -2.1340203 -0.070792921 45 21
-2.082119 -1.5271686 -0.11878774 48 20
-2.2182822 -2.1260874 -0.21028778 45 19
-2.0869534 -1.5290368 -0.22912802 48 18
-2.2218223 -2.1294775 -0.34827802 8 17
-2.0940785 -1.5331331 -0.35574105 48 16
-0.33414337 -0.31755793 -0.074284971 4 15
-2.0917704 -1.5270201 -0.73116863 48 13
-0.33437744 -0.31786913 -0.097671926 4 14
-1.7333602 -1.2631133 -0.72977746 15 12
-0.40706792 -0.38937744 -0.21371023 3 11
nan nan nan 0 9
-0.35704458 -0.34174746 -0.21576236 16 10
-0.32042247 -0.23351474 -0.21855094 39 8
nan nan nan 0 7
-0.21785243 -0.15881348 -0.17872562 6 6
nan nan nan 0 5
nan nan nan 0 4
nan nan nan 0 3
nan nan nan 0 2
nan nan nan 0 1
nan nan nan 0 0
-2.2257235 -2.1301734 0.8127377 45 31
-2.0877681 -1.5201769 0.58958101 48 30
-2.2189784 -2.1200314 0.58536398 44 29
-2.076345 -1.5129608 0.39638984 48 28
-2.2143006 -2.1118925 0.36928502 45 27
-2.0817976 -1.5169116 0.24287245 49 26
-2.2223535 -2.1181116 0.21117461 44 25
-2.0808477 -1.5162132 0.11843836 49 24
-2.2191315 -2.1128263 0.070328705 45 23
-2.0813227 -1.5160029 0 48 22
-2.2231183 -2.1158879 -0.070444755 45 21
-2.0836618 -1.5165912 -0.11855481 49 20
-2.2112484 -2.1045644 -0.20890658 45 19
-2.0862329 -1.5173541 -0.22845738 48 18
-2.2206218 -2.1127522 -0.34685647 10 17
-2.0873919 -1.5170896 -0.35367677 48 16
-0.34778139 -0.32822883 -0.077290721 4 15
-2.0895624 -1.5137098 -0.72841728 48 13
-0.32843304 -0.30997047 -0.095439419 4 14
-1.7418103 -1.2595165 -0.73141193 15 12
-0.40849233 -0.38788286 -0.21371023 3 11
nan nan nan 0 9
-0.35339841 -0.33573455 -0.21257375 15 10
-0.32475898 -0.23482487 -0.22113733 39 8
-0.1504055 -0.14183024 -0.1163026 6 7
-0.21518815 -0.15571299 -0.17569637 6 6
nan nan nan 0 5
nan nan nan 0 4
nan nan nan 0 3
nan nan nan 0 2
nan nan nan 0 1
nan nan nan 0 0
-2.2230172 -2.1120105 0.80887067 45 31
-2.0854237 -1.5068157 0.58732641 48 30
-2.212496 -2.0983589 0.58157521 43 29
-2.0698593 -1.4966673 0.39407176 46 28
-2.2076209 -2.090102 0.36686149 44 27
-2.0792713 -1.5034453 0.24192095 48 26
-2.2174299 -2.0979438 0.20995995 43 25
-2.0782912 -1.5027304 0.11797252 48 24
-2.2137899 -2.0930378 0.069922514 44 23
-2.0848377 -1.5069015 0 46 22
-2.2181511 -2.0957005 -0.070038572 44 21
-2.0808411 -1.5034655 -0.11808898 48 20
-2.2062669 -2.084446 -0.20769803 44 19
-2.0877399 -1.5067865 -0.22801031 46 18
-2.2171588 -2.0947447 -0.34515062 11 17
-2.0869091 -1.5050886 -0.35264465 46 16
-0.34177199 -0.3202391 -0.075573154 4 15
-2.087023 -1.5008004 -0.72566593 46 13
-0.32956696 -0.30876458 -0.095439419 4 14
-1.7423544 -1.2506773 -0.72977746 15 12
-0.4098438 -0.38645458 -0.21371023 3 11
nan nan nan 0 9
-0.35784328 -0.33762214 -0.21469949 15 10
-0.3185938 -0.22874196 -0.21596454 35 8
nan nan nan 0 7
-0.22386266 -0.16068485 -0.18326949 6 6
nan nan nan 0 5
nan nan nan 0 4
nan nan nan 0 3
nan nan nan 0 2
nan nan nan 0 1
nan nan nan 0 0
-2.2215977 -2.0959427 0.80564803 45 31
-2.0768077 -1.4896021 0.58338082 48 30
-2.2073081 -2.0788319 0.57826006 44 29
-2.0670397 -1.4836788 0.39252639 49 28
-2.2040634 -2.0721755 0.36504388 45 27
-2.0804608 -1.4932791 0.24144518 49 26
-2.2138424 -2.079936 0.20891884 45 25
-2.0754039 -1.4896488 0.11750669 49 24
-2.2083373 -2.073312 0.069516324 45 23
-2.0819552 -1.4937923 0 49 22
-2.2127035 -2.0759642 -0.069632381 45 21
-2.0779541 -1.4903779 -0.11762314 49 20
-2.1989894 -2.0630684 -0.20631683 44 19
-2.086911 -1.4951446 -0.2273397 48 18
-2.2190273 -2.0818899 -0.34429768 14 17
-2.0840917 -1.4920359 -0.35126847 49 16
-0.35006437 -0.32579288 -0.077290721 4 15
-2.0824618 -1.4865327 -0.72222674 49 13
-0.33774263 -0.31429124 -0.097671926 4 14
-1.7486352 -1.2459568 -0.73059469 15 12
-0.4111903 -0.3850216 -0.21371023 3 11
nan nan nan 0 9
-0.35737666 -0.33481508 -0.21363662 14 10
-0.32639042 -0.2325519 -0.22113733 35 8
-0.17983647 -0.16794938 -0.1429261 8 7
-0.22931354 -0.16331978 -0.18781337 6 6
nan nan nan 0 5
nan nan nan 0 4
nan nan nan 0 3
nan nan nan 0 2
nan nan nan 0 1
nan nan nan 0 0
-2.2183318 -2.0782576 0.80178088 45 31
-2.0760388 -1.4781108 0.58168989 49 30
-2.2038023 -2.0610452 0.57541847 44 29
-2.0641551 -1.4707283 0.39098099 49 28
-2.2004082 -2.0542994 0.36322621 45 27
-2.0813458 -1.4834868 0.24096943 49 26
-2.210156 -2.0619786 0.20787771 45 25
-2.0744858 -1.4780531 0.11715731 49 24
-2.2009473 -2.0519445 0.069052108 45 23
-2.0769689 -1.479273 0 48 22
-2.2104404 -2.0600877 -0.069342248 45 21
-2.0790727 -1.4802221 -0.11739023 49 20
-2.2025306 -2.0519769 -0.20597152 46 19
-2.0837367 -1.4824491 -0.22644554 48 18
-2.2099373 -2.0588803 -0.34173891 24 17
-2.08095 -1.4793845 -0.34989232 49 16
-0.33679911 -0.31112158 -0.073855579 3 15
-2.0797889 -1.473703 -0.71947539 48 13
-0.32097802 -0.2965312 -0.092090674 4 14
-1.7549042 -1.2412075 -0.73141193 15 12
-0.40908527 -0.38048348 -0.21183558 3 11
-0.41050202 -0.2906774 -0.24857485 3 9
-0.3634885 -0.33821601 -0.21682522 14 10
-0.32365161 -0.22901818 -0.21855094 35 8
nan nan nan 0 7
-0.23965915 -0.16936061 -0.1969011 6 6
nan nan nan 0 5
nan nan nan 0 4
nan nan nan 0 3
nan nan nan 0 2
nan nan nan 0 1
nan nan nan 0 0
-2.2128434 -2.0593605 0.79726928 45 31
-2.0749588 -1.4670055 0.57999891 49 30
-2.1962488 -2.0403481 0.57162976 45 29
-2.0649855 -1.4610255 0.3902083 49 28
-2.1962996 -2.0368576 0.36140856 46 27
-2.0763471 -1.4690342 0.23978005 49 26
-2.2041869 -2.0427611 0.20666307 45 25
-2.0712161 -1.4654033 0.11669148 49 24
-2.2040753 -2.0412352 0.068936057 44 23
-2.075736 -1.4680519 0 48 22
-2.2047877 -2.0404656 -0.068936057 46 21
-2.0798893 -1.4704398 -0.11715731 49 20
-2.198349 -2.0344887 -0.20493563 45 19
-2.0766876 -1.4665588 -0.2251043 48 18
-2.2112882 -2.0464749 -0.340886 34 17
-2.0759795 -1.4649818 -0.34817207 49 16
nan nan nan 0 15
-2.0708957 -1.4571285 -0.71466053 49 13
nan nan nan 0 14
-1.7590106 -1.2353812 -0.73141193 15 12
-0.41210625 -0.3806335 -0.21277291 3 11
-0.41876385 -0.29428703 -0.25326493 3 9
-0.35634023 -0.32928541 -0.21151088 13 10
-0.3262074 -0.22910595 -0.21984413 34 8
-0.20960425 -0.19369979 -0.16954957 6 7
-0.24188702 -0.16965099 -0.19841573 8 6
nan nan nan 0 5
nan nan nan 0 4
nan nan nan 0 3
nan nan nan 0 2
nan nan nan 0 1
nan nan nan 0 0
-2.2058377 -2.038497 0.79211313 44 31
-2.0760772 -1.4569588 0.57887161 49 30
-2.1925402 -2.0226734 0.56878817 45 29
-2.0640049 -1.449555 0.38904926 49 28
-2.1979234 -2.0241311 0.36049974 45 27
-2.0733109 -1.4560635 0.23882854 49 26
-2.1966341 -2.0215318 0.20527491 44 25
-2.0681391 -1.4524307 0.11622564 48 24
-2.2023489 -2.024678 0.068645924 45 23
-2.0747056 -1.4564934 0 49 22
-2.1971858 -2.0192153 -0.068471842 46 21
-2.0750363 -1.4556448 -0.11657503 49 20
-2.1962624 -2.018357 -0.20407237 45 19
-2.077714 -1.4564459 -0.22465722 49 18
-2.2059801 -2.0265837 -0.33889583 40 17
-2.072963 -1.4520508 -0.34679592 49 16
nan nan nan 0 15
-2.0762222 -1.4495286 -0.71466053 49 13
nan nan nan 0 14
-1.7654665 -1.2302747 -0.73222917 14 12
-0.41519964 -0.3806946 -0.21371023 3 11
-0.42887267 -0.29909721 -0.25912759 3 9
-0.36252236 -0.33259296 -0.21469949 13 10
-0.33233345 -0.23154622 -0.22372375 33 8
-0.2148487 -0.19717339 -0.17375329 6 7
-0.24907637 -0.1732512 -0.20447423 8 6
nan nan nan 0 5
nan nan nan 0 4
nan nan nan 0 3
nan nan nan 0 2
nan nan nan 0 1
nan nan nan 0 0
-2.200844 -2.0189576 0.78760147 45 31
-2.0754037 -1.4451697 0.57718068 49 30
-2.1908941 -2.0063272 0.5664202 45 29
-2.0652487 -1.4391598 0.38827661 49 28
-2.1870258 -1.9993026 0.35747033 41 27
-2.0725045 -1.4441916 0.23811492 49 26
-2.1966686 -2.0067327 0.20458083 46 25
-2.065248 -1.4391371 0.1157598 49 24
-2.1964917 -2.0051715 0.068239726 45 23
-2.067714 -1.4403166 0 49 22
-2.1990366 -2.0060909 -0.068297759 45 21
-2.067801 -1.4398415 -0.11587626 49 20
-2.1889162 -1.996835 -0.20269118 44 19
-2.0728111 -1.4417208 -0.22353953 50 18
-2.2002056 -2.0071425 -0.33690566 43 17
-2.0762365 -1.4430319 -0.34645185 49 16
-2.1939332 -2.0027909 -0.51183635 10 15
-2.0713861 -1.4354364 -0.7112214 49 13
nan nan nan 0 14
-1.7716949 -1.2254465 -0.73304641 14 12
-0.41993907 -0.38237926 -0.21558487 4 11
-0.42632324 -0.29502717 -0.25678253 3 9
-0.36368114 -0.3313255 -0.21469949 10 10
-0.32783851 -0.22676583 -0.21984413 34 8
-0.22767083 -0.20769499 -0.18496317 6 7
-0.25132576 -0.17349692 -0.20598885 9 6
nan nan nan 0 5
nan nan nan 0 4
nan nan nan 0 3
nan nan nan 0 2
nan nan nan 0 1
nan nan nan 0 0
-2.1971722 -2.0014939 0.78373438 45 31
-2.0724158 -1.4323841 0.57492608 49 30
-2.1833665 -1.9854431 0.56263143 45 29
-2.0600965 -1.4249257 0.38634485 49 28
-2.1848111 -1.9833089 0.35595563 43 27
-2.0670433 -1.4302398 0.23692553 49 26
-2.1944313 -1.9906667 0.20371322 44 25
-2.066149 -1.4290817 0.11552689 50 24
-2.1960764 -1.9907715 0.068007618 45 23
-2.0665567 -1.4288303 0 49 22
-2.1964238 -1.9903883 -0.068007618 44 21
-2.0666478 -1.4283605 -0.11552689 50 20
-2.1829441 -1.9774505 -0.20148264 44 19
-2.0673301 -1.4277734 -0.22242182 49 18
-2.1980014 -1.991105 -0.33548415 45 17
-2.0728531 -1.4305202 -0.3450757 49 16
-2.1881475 -1.983531 -0.50883055 13 15
-2.0704393 -1.424116 -0.70915782 49 13
-2.1899614 -1.9865476 -0.66919219 11 14
-1.7740123 -1.2179195 -0.73222917 13 12
-0.41778129 -0.37785962 -0.21371023 3 11
-0.43277583 -0.29733786 -0.2603001 3 9
nan nan nan 0 10
-0.33213073 -0.22807828 -0.22243053 33 8
-0.23448169 -0.21251419 -0.19056812 6 7
-0.26344889 -0.18043791 -0.21659121 9 6
nan nan nan 0 5
nan nan nan 0 4
nan nan nan 0 3
nan nan nan 0 2
nan nan nan 0 1
nan nan nan 0 0
-2.1894798 -1.9812192 0.77857828 45 31
-2.0731356 -1.4227509 0.57379872 49 30
-2.1826577 -1.971604 0.56073707 45 29
-2.0566616 -1.4125003 0.38479948 50 28
-2.1821685 -1.9677359 0.35444093 44 27
-2.0658653 -1.4187943 0.23621188 49 26
-2.1917639 -1.9750234 0.20284562 45 25
-2.0605776 -1.4151624 0.1149446 49 24
-2.1841068 -1.9667385 0.067427352 45 23
-2.0609717 -1.4149038 0 49 22
-2.18665 -1.9676493 -0.067485385 44 21
-2.0672524 -1.4186767 -0.11529397 49 20
-2.1765218 -1.9585118 -0.20027407 43 19
-2.0661364 -1.4163302 -0.22175121 49 18
-2.1972122 -1.9771533 -0.33434689 46 17
-2.0717015 -1.4190831 -0.34404355 49 16
-2.1819112 -1.964717 -0.5058248 21 15
-2.0711784 -1.4145349 -0.70778221 49 13
-2.1914549 -1.9739938 -0.66751784 16 14
-1.7780414 -1.2120299 -0.73222917 16 12
-0.41909769 -0.37639901 -0.21371023 4 11
-0.42832148 -0.29211843 -0.25678253 3 9
nan nan nan 0 10
-0.32404879 -0.22094631 -0.21596454 34 8
-0.24587032 -0.22152664 -0.20037676 6 7
-0.26407713 -0.17951719 -0.21659121 10 6
nan nan nan 0 5
nan nan nan 0 4
nan nan nan 0 3
nan nan nan 0 2
nan nan nan 0 1
nan nan nan 0 0
-2.1874053 -1.9654845 0.77535564 45 31
-2.0680182 -1.408659 0.57098049 49 30
-2.1803968 -1.9557699 0.5583691 44 29
-2.053411 -1.399755 0.38325411 48 28
-2.1760924 -1.948508 0.35232034 41 27
-2.0625744 -1.4059749 0.23526037 49 26
-2.1856441 -1.9557087 0.20163098 43 25
-2.0613754 -1.4051515 0.11471168 49 24
-2.1779265 -1.9474299 0.067021169 43 23
-2.0576293 -1.4020773 0 48 22
-2.1841936 -1.9516702 -0.067195244 44 21
-2.0577352 -1.4016237 -0.11447877 48 20
-2.1703362 -1.9392592 -0.19906552 41 19
-2.064888 -1.4049126 -0.22108059 48 18
-2.1929963 -1.9595327 -0.33264104 44 17
-2.0704958 -1.4076718 -0.34301141 49 16
-2.1814179 -1.9505161 -0.50410724 33 15
-2.0701313 -1.4032562 -0.7057187 48 13
-2.1801825 -1.9500701 -0.66193658 28 14
-1.780303 -1.2044942 -0.73141193 15 12
-0.41524121 -0.37028226 -0.21089825 4 11
-0.42933857 -0.29062152 -0.25678253 3 9
nan nan nan 0 10
-0.33015621 -0.22337794 -0.21984413 34 8
-0.24970475 -0.22345382 -0.20317924 6 7
-0.26801735 -0.18079272 -0.21962045 10 6
nan nan nan 0 5
nan nan nan 0 4
nan nan nan 0 3
nan nan nan 0 2
nan nan nan 0 1
nan nan nan 0 0
-2.1798453 -1.9449595 0.77019954 45 31
-2.0628276 -1.3946198 0.5681622 48 30
-2.1762204 -1.9383415 0.55552751 45 29
-2.0480497 -1.3856676 0.38132238 50 28
-2.1699085 -1.9293467 0.35019973 43 27
-2.0592201 -1.3931959 0.23430887 50 26
-2.1831429 -1.9397771 0.20076336 44 25
-2.0559199 -1.3909599 0.11412939 50 24
-2.1738427 -1.9294704 0.066673003 45 23
-2.0562947 -1.3906903 0 50 22
-2.1816521 -1.9357322 -0.066905111 45 21
-2.0607884 -1.392676 -0.11436231 51 20
-2.1696358 -1.9250444 -0.19837493 43 19
-2.055326 -1.3879547 -0.21951582 49 18
-2.1908796 -1.9432334 -0.33121949 45 17
-2.0651278 -1.3935196 -0.34129122 49 16
-2.1830306 -1.9375986 -0.50281912 43 15
-2.0652826 -1.3889618 -0.70227951 49 13
-2.1796937 -1.9359686 -0.65970409 40 14
-1.7827426 -1.1966463 -0.73059469 13 12
-0.41486734 -0.36721373 -0.20996094 4 11
-0.43035042 -0.28912109 -0.25678253 3 9
nan nan nan 0 10
-0.32383782 -0.21744032 -0.21467134 34 8
-0.25205848 -0.22392488 -0.20458047 4 7
-0.26867819 -0.1798092 -0.21962045 11 6
nan nan nan 0 5
nan nan nan 0 4
nan nan nan 0 3
nan nan nan 0 2
nan nan nan 0 1
nan nan nan 0 0
-2.1815388 -1.9321477 0.76826596 46 31
-2.0618534 -1.3829851 0.56647128 49 30
-2.1722844 -1.9205871 0.55268592 45 29
-2.0469587 -1.3740275 0.38016334 49 28
-2.1620922 -1.9082311 0.3477762 43 27
-2.0539749 -1.3787133 0.2331195 50 26
-2.1752858 -1.9185524 0.1993752 43 25
-2.052705 -1.3778553 0.11366356 51 24
-2.169323 -1.9119455 0.066324838 44 23
-2.0551465 -1.378971 0 49 22
-2.1756129 -1.9161488 -0.066498928 44 21
-2.0531859 -1.3771387 -0.11366356 50 20
-2.1654553 -1.9071792 -0.19733901 44 19
-2.0521197 -1.374876 -0.21862166 50 18
-2.1846116 -1.9240716 -0.32922935 43 17
-2.0599265 -1.3790625 -0.339571 49 16
-2.1750107 -1.9169265 -0.49938396 41 15
-2.0601168 -1.3750813 -0.69884032 49 13
-2.1758153 -1.9182879 -0.65635532 44 14
-1.792812 -1.1943395 -0.73304641 13 12
-0.41788027 -0.36730143 -0.21089825 4 11
-0.4369359 -0.29119015 -0.2603001 3 9
nan nan nan 0 10
-0.33353403 -0.222185 -0.22113733 36 8
-0.24667355 -0.21751404 -0.19897553 4 7
-0.28096217 -0.18648157 -0.23022284 11 6
nan nan nan 0 5
-0.15377131 -0.10265145 -0.14338428 30 4
nan nan nan 0 3
nan nan nan 0 2
nan nan nan 0 1
nan nan nan 0 0
-2.1792078 -1.9165373 0.76504338 46 31
-2.0544963 -1.3676924 0.56308931 50 30
-2.1697588 -1.9048874 0.55031794 44 29
-2.0455718 -1.362771 0.3790043 50 28
-2.1612804 -1.8941236 0.34656444 43 27
-2.052319 -1.3677596 0.23240586 51 26
-2.1707208 -1.9010793 0.19833407 44 25
-2.0471044 -1.3637681 0.11308127 51 24
-2.1647074 -1.8944759 0.065976679 44 23
-2.0516188 -1.3662531 0 50 22
-2.1706769 -1.89904 -0.066150762 44 21
-2.0517404 -1.3658173 -0.11331417 51 20
-2.1627197 -1.8913918 -0.19647577 44 19
-2.0504446 -1.3639317 -0.21795104 50 18
-2.1745002 -1.9017038 -0.32667056 41 17
-2.0582983 -1.3681176 -0.33853886 49 16
-2.1705768 -1.8995812 -0.49680758 43 15
-2.0608943 -1.3652308 -0.69746464 49 13
-2.1730056 -1.9030268 -0.65356475 44 14
-1.7969701 -1.1880742 -0.73304641 13 12
-0.42083469 -0.36744604 -0.21183558 4 11
-0.43605223 -0.2885296 -0.25912759 3 9
nan nan nan 0 10
-0.33247727 -0.21990837 -0.21984413 36 8
-0.24279308 -0.21252061 -0.19477183 4 7
-0.28157902 -0.18554884 -0.23022284 16 6
nan nan nan 0 5
-0.1601937 -0.10604607 -0.15029436 33 4
nan nan nan 0 3
nan nan nan 0 2
nan nan nan 0 1
nan nan nan 0 0
-2.1728272 -1.8981651 0.76053178 45 31
-2.0529211 -1.3568485 0.56139839 49 30
-2.1631231 -1.886377 0.54700279 45 29
-2.0418341 -1.3505372 0.3774589 50 28
-2.1581981 -1.8787911 0.34504974 43 27
-2.0446193 -1.3523612 0.23097859 51 26
-2.1657317 -1.8840393 0.19729295 44 25
-2.0432792 -1.351469 0.11261543 51 24
-2.1634386 -1.8807217 0.065744571 44 23
-2.0457053 -1.3525577 0 50 22
-2.1659801 -1.8816071 -0.065802604 44 21
-2.0500042 -1.3548807 -0.1129648 51 20
-2.1595728 -1.8760233 -0.19561252 43 19
-2.0489552 -1.3526561 -0.2172804 50 18
-2.1751735 -1.8895911 -0.32581764 45 17
-2.0568566 -1.3568393 -0.33750671 50 16
-2.1657205 -1.8826685 -0.49423119 43 15
-2.0553634 -1.3517948 -0.69402552 49 13
-2.1649349 -1.8826246 -0.64909971 44 14
-1.7949703 -1.1782254 -0.73059469 19 12
-0.42385888 -0.36750111 -0.21277291 4 11
-0.44075903 -0.2894128 -0.26147261 3 9
nan nan nan 0 10
-0.32965127 -0.21642029 -0.21725774 34 8
-0.25124967 -0.21857375 -0.20177801 4 7
-0.28389776 -0.18564078 -0.23173745 15 6
nan nan nan 0 5
-0.17427985 -0.11422491 -0.16584206 35 4
nan nan nan 0 3
nan nan nan 0 2
nan nan nan 0 1
nan nan nan 0 0
-2.1648536 -1.8778937 0.75537556 45 31
-2.0515313 -1.345672 0.5597074 50 30
-2.160423 -1.8707721 0.54463482 45 29
-2.0382719 -1.3379874 0.37591353 51 28
-2.1553633 -1.8631241 0.34353507 44 27
-2.0451641 -1.3424883 0.23050283 51 26
-2.1609795 -1.8666767 0.19625182 43 25
-2.0417173 -1.3402228 0.11226605 51 24
-2.1643186 -1.8682545 0.065570496 43 23
-2.0420485 -1.3399301 0 50 22
-2.1611884 -1.8642304 -0.065454438 44 21
-2.0442743 -1.3408778 -0.11238251 51 20
-2.1585596 -1.8619511 -0.19492193 43 19
-2.0474124 -1.3414077 -0.21660979 50 18
-2.1723595 -1.8738672 -0.3243961 44 17
-2.0532885 -1.3442334 -0.33613053 50 16
-2.1648269 -1.8686538 -0.49251363 43 15
-2.0520139 -1.3393646 -0.69127417 50 13
-2.1622782 -1.8670846 -0.64630908 44 14
-1.8010532 -1.1732402 -0.73141193 18 12
-0.4233897 -0.36449912 -0.21183558 4 11
-0.43620059 -0.28428134 -0.25795507 3 9
nan nan nan 0 10
-0.33760405 -0.21989554 -0.22243053 34 8
-0.23645696 -0.20403074 -0.18776564 4 7
-0.28286752 -0.18357854 -0.23022284 19 6
nan nan nan 0 5
-0.17467752 -0.11361586 -0.16584206 35 4
nan nan nan 0 3
nan nan nan 0 2
nan nan nan 0 1
nan nan nan 0 0
-2.167738 -1.8671695 0.75408655 45 31
-2.0460038 -1.3318682 0.55688918 49 30
-2.152061 -1.8504033 0.54084605 46 29
-2.0367177 -1.3268255 0.37475452 50 28
-2.1543272 -1.8491174 0.3423233 43 27
-2.0435784 -1.3312716 0.22978921 51 26
-2.1580241 -1.8509954 0.19538422 44 25
-2.0380082 -1.3276428 0.11180022 51 24
-2.1578758 -1.8489144 0.065164298 43 23
-2.0404246 -1.3287069 0 50 22
-2.1581984 -1.8485378 -0.065164298 44 21
-2.0407977 -1.3279356 -0.11191668 51 20
-2.1517963 -1.8430364 -0.19371337 43 19
-2.0437274 -1.328831 -0.21571563 50 18
-2.1660159 -1.8545734 -0.32240593 44 17
-2.0496573 -1.3316691 -0.33475438 50 16
-2.1585793 -1.8494782 -0.48950788 44 15
-2.0488343 -1.3266168 -0.68852282 50 13
-2.1613879 -1.8531743 -0.64407659 43 14
-1.8053412 -1.1666311 -0.73141193 19 12
-0.42296785 -0.36143112 -0.21089825 4 11
-0.4502067 -0.29109097 -0.26616272 4 9
nan nan nan 0 10
-0.3293874 -0.21290565 -0.21596454 34 8
-0.24344485 -0.20860572 -0.1933706 4 7
-0.28353846 -0.18254055 -0.23022284 24 6
nan nan nan 0 5
-0.18580988 -0.11969508 -0.17793471 35 4
nan nan nan 0 3
nan nan nan 0 2
nan nan nan 0 1
nan nan nan 0 0
-2.1653941 -1.8513553 0.75086397 46 31
-2.0467768 -1.3217214 0.55576181 50 30
-2.1513655 -1.8361225 0.53895169 45 29
-2.0291126 -1.3113192 0.37243643 51 28
-2.1516519 -1.8331538 0.34080857 41 27
-2.04217 -1.319726 0.22907558 51 26
-2.1553063 -1.8349816 0.19451663 44 25
-2.0386634 -1.3174572 0.1115673 51 24
-2.1529033 -1.8316436 0.06481614 43 23
-2.0431798 -1.3198647 0 51 22
-2.1573479 -1.834133 -0.06493219 44 21
-2.0412223 -1.3180983 -0.11168376 53 20
-2.1471446 -1.825435 -0.19267747 43 19
-2.0423031 -1.317288 -0.21504502 51 18
-2.1611307 -1.8373384 -0.32070008 44 17
-2.0441115 -1.3174502 -0.33303416 50 16
-2.1519012 -1.8307496 -0.48650217 43 15
-2.0473826 -1.3155645 -0.6864593 49 13
-2.1588936 -1.8373349 -0.64128596 44 14
-1.8074123 -1.1590489 -0.73059469 19 12
-0.42598712 -0.36146009 -0.21183558 4 11
-0.43822366 -0.2811527 -0.25795507 3 9
nan nan nan 0 10
-0.3337447 -0.21404237 -0.21855094 33 8
-0.25043213 -0.21317588 -0.19897553 4 7
-0.27912152 -0.17837539 -0.22567897 23 6
nan nan nan 0 5
-0.18776092 -0.12000045 -0.17966223 36 4
nan nan nan 0 3
nan nan nan 0 2
nan nan nan 0 1
nan nan nan 0 0
-2.1608031 -1.8343961 0.74699688 46 31
-2.0411186 -1.3080077 0.55294359 50 30
-2.146534 -1.8190694 0.5361101 45 29
-2.0274367 -1.3002338 0.37127739 50 28
-2.1466787 -1.8160057 0.33899093 41 27
-2.0383799 -1.3072233 0.22812408 51 26
-2.157892 -1.8242235 0.19416958 44 25
-2.0327327 -1.3036017 0.11098501 50 24
-2.1516526 -1.8176593 0.064584032 43 23
-2.0435624 -1.3100301 0 51 22
-2.1580119 -1.8217496 -0.064758115 43 21
-2.0373955 -1.3055832 -0.11121793 50 20
-2.1458862 -1.811487 -0.19198687 41 19
-2.0426919 -1.3074702 -0.21459794 50 18
-2.1542552 -1.8185565 -0.31870994 43 17
-2.0424361 -1.3063098 -0.33200201 50 16
-2.1488786 -1.815272 -0.48435518 44 15
-2.0438509 -1.3032484 -0.68370795 50 13
-2.1522746 -1.8187661 -0.63737911 41 14
-1.8134418 -1.1539991 -0.73141193 20 12
-0.42901179 -0.36147243 -0.21277291 4 11
-0.43733442 -0.27844405 -0.25678253 3 9
nan nan nan 0 10
-0.33448985 -0.21287608 -0.21855094 28 8
-0.26373371 -0.22309905 -0.21018544 4 7
-0.27805459 -0.17634779 -0.22416434 25 6
nan nan nan 0 5
-0.19279169 -0.12219226 -0.18484478 36 4
nan nan nan 0 3
nan nan nan 0 2
nan nan nan 0 1
nan nan nan 0 0
-2.1542747 -1.8159331 0.74248523 45 31
-2.0395026 -1.2969596 0.5512526 50 30
-2.1397324 -1.8004905 0.53279489 43 29
-2.025708 -1.2891763 0.37011838 51 28
-2.1435108 -1.8005123 0.33747622 41 27
-2.0387287 -1.2974316 0.22764832 53 26
-2.1566112 -1.8102596 0.1934755 44 25
-2.0330548 -1.2938207 0.1107521 53 24
-2.1465032 -1.8004901 0.064235874 43 23
-2.03757 -1.2961891 0 50 22
-2.1528735 -1.8045622 -0.064409949 43 21
-2.0356145 -1.294449 -0.11086854 53 20
-2.1388264 -1.7927589 -0.19077833 41 19
-2.0451403 -1.298999 -0.21437441 50 18
-2.1529813 -1.8046368 -0.31757268 44 17
-2.0407081 -1.2951976 -0.3309699 50 16
-2.1495452 -1.8030065 -0.48306701 44 15
-2.0402586 -1.2909731 -0.6809566 50 13
-2.1474178 -1.8018339 -0.63403034 41 14
-1.8114618 -1.1438839 -0.72896028 20 12
-0.43027091 -0.35997272 -0.21277291 4 11
-0.4401758 -0.27808651 -0.25795507 3 9
-0.41351002 -0.34650233 -0.23701973 3 10
-0.33341488 -0.21057595 -0.21725774 25 8
-0.27080917 -0.22755441 -0.21579038 4 7
-0.27866849 -0.17537612 -0.22416434 25 6
nan nan nan 0 5
-0.19321704 -0.12151854 -0.18484478 41 4
nan nan nan 0 3
nan nan nan 0 2
nan nan nan 0 1
nan nan nan 0 0
-2.1494949 -1.7990904 0.73861814 45 31
-2.0337124 -1.283343 0.54843432 50 30
-2.1403573 -1.7882838 0.5313741 44 29
-2.023927 -1.2781466 0.36895937 53 28
-2.1364524 -1.7818812 0.33535564 41 27
-2.0411398 -1.28898 0.22741044 53 26
-2.1476018 -1.7899331 0.19208734 43 25
-2.0291076 -1.2813901 0.11028625 53 24
-2.1412609 -1.7833796 0.063887708 44 23
-2.0399671 -1.2877362 0 51 22
-2.1495616 -1.7890339 -0.064119816 43 21
-2.0358946 -1.284674 -0.11063564 51 20
-2.137409 -1.7788935 -0.19008774 43 19
-2.0391238 -1.2852234 -0.2132567 51 18
-2.1535447 -1.7923388 -0.31671974 44 17
-2.0347342 -1.2814778 -0.32924968 50 16
-2.1482618 -1.789181 -0.48134944 44 15
-2.0366058 -1.2787389 -0.67820525 50 13
-2.1462107 -1.7880808 -0.63179785 43 14
-1.8194504 -1.1400584 -0.73059469 23 12
-0.43507671 -0.36144686 -0.21464756 4 11
-0.43739152 -0.27421996 -0.25561002 4 9
-0.41125223 -0.34214535 -0.23489399 4 10
-0.33232793 -0.20828594 -0.21596454 21 8
-0.28423589 -0.2373184 -0.22700027 6 7
-0.27249843 -0.17024069 -0.21810584 26 6
nan nan nan 0 5
-0.19518431 -0.12178192 -0.1865723 36 4
nan nan nan 0 3
nan nan nan 0 2
nan nan nan 0 1
nan nan nan 0 0
-2.1427674 -1.7807575 0.73410648 44 31
-2.0319831 -1.2723643 0.54674339 50 30
-2.139035 -1.7745256 0.52947974 44 29
-2.0241878 -1.2684549 0.36818665 51 28
-2.1350198 -1.7680748 0.33414388 43 27
-2.0348539 -1.2756051 0.22622107 53 26
-2.1442368 -1.7744669 0.19121973 43 25
-2.0293336 -1.2716513 0.11005334 53 24
-2.1378498 -1.7679218 0.063597575 44 23
-2.0338502 -1.2739817 0 51 22
-2.1420081 -1.7707369 -0.063713625 43 21
-2.0361309 -1.2749128 -0.11040271 53 20
-2.1282363 -1.7586982 -0.18870652 44 19
-2.0391502 -1.2758167 -0.21280962 51 18
-2.1521347 -1.7784752 -0.31558251 44 17
-2.0347705 -1.272102 -0.3285616 51 16
-2.1469078 -1.7753865 -0.47963187 44 15
-2.0369747 -1.2690837 -0.67682964 50 13
-2.1427481 -1.7731774 -0.62900716 43 14
-1.8254267 -1.1349459 -0.73141193 26 12
-0.42736867 -0.35258594 -0.20996094 4 11
-0.44205847 -0.2750839 -0.25795507 4 9
-0.40549412 -0.33490908 -0.2306425 3 10
-0.34760621 -0.21613365 -0.22631015 18 8
-0.28347865 -0.23499148 -0.22559904 6 7
-0.27985579 -0.17347522 -0.22416434 30 6
nan nan nan 0 5
-0.19868185 -0.12300088 -0.19002736 35 4
nan nan nan 0 3
nan nan nan 0 2
nan nan nan 0 1
nan nan nan 0 0
-2.1430764 -1.7690239 0.73217291 45 31
-2.0341213 -1.264335 0.54617971 50 30
-2.1335497 -1.7580464 0.52663815 43 29
-2.0220871 -1.2578274 0.36702761 53 28
-2.1312954 -1.7530942 0.33262917 43 27
-2.0329511 -1.2645566 0.22550742 53 26
-2.1385581 -1.7578347 0.19017862 43 25
-2.0292959 -1.2622806 0.10982042 53 24
-2.1359808 -1.7544702 0.063365467 44 23
-2.0338149 -1.264594 0 51 22
-2.1385233 -1.7553121 -0.063423492 44 21
-2.0276141 -1.2602559 -0.10970397 53 20
-2.1282775 -1.7468791 -0.18818857 44 19
-2.0351245 -1.2634454 -0.21191546 51 18
-2.1445913 -1.7602859 -0.31359237 44 17
-2.0307772 -1.259778 -0.32718542 53 16
-2.1375692 -1.755738 -0.47619674 44 15
-2.0309451 -1.2560107 -0.67339045 51 13
-2.1376357 -1.7563944 -0.62565845 43 14
-1.835216 -1.1326023 -0.73386359 31 12
-0.43574086 -0.35700002 -0.21371023 4 11
-0.43359581 -0.2677823 -0.25209242 3 9
-0.40137571 -0.3292309 -0.2274539 3 10
-0.3392207 -0.20935652 -0.21984413 19 8
-0.28902137 -0.23803431 -0.22980274 6 7
-0.27875742 -0.17146842 -0.22264971 29 6
nan nan nan 0 5
-0.20376185 -0.12509069 -0.19520992 38 4
nan nan nan 0 3
nan nan nan 0 2
nan nan nan 0 1
nan nan nan 0 0
-2.1417713 -1.7554009 0.72959483 44 31
-2.0322998 -1.2533972 0.54448879 50 30
-2.1301811 -1.7428076 0.52427018 43 29
-2.0243626 -1.2494659 0.36664125 53 28
-2.1239576 -1.7346439 0.33050859 43 27
-2.0288768 -1.2522322 0.22455591 51 26
-2.1369579 -1.7440444 0.18948454 44 25
-2.0294371 -1.25257 0.10958751 54 24
-2.1285439 -1.7359344 0.062959276 44 23
-2.0254438 -1.2496226 0 53 22
-2.1349576 -1.7399331 -0.063133359 44 21
-2.0277474 -1.2505527 -0.10947105 50 20
-2.122771 -1.7299755 -0.18715268 44 19
-2.0267951 -1.2485101 -0.21057424 51 18
-2.1430268 -1.7465057 -0.31245512 43 17
-2.0309424 -1.2500895 -0.32649732 50 16
-2.1360562 -1.742033 -0.47447917 44 15
-2.0291677 -1.2451484 -0.67132699 51 13
-2.1362064 -1.7427534 -0.62342596 43 14
-1.835126 -1.123726 -0.73222917 30 12
-0.43161085 -0.3510645 -0.21089825 4 11
-0.44019204 -0.26970151 -0.25561002 4 9
-0.42174274 -0.34364364 -0.23914547 4 10
-0.35276949 -0.21591386 -0.22889654 15 8
-0.28507161 -0.23305649 -0.22559904 8 7
-0.28276581 -0.17254016 -0.22567897 33 6
nan nan nan 0 5
-0.2088588 -0.12714648 -0.20039248 38 4
nan nan nan 0 3
nan nan nan 0 2
nan nan nan 0 1
nan nan nan 0 0
-2.1366532 -1.7387561 0.72572774 43 31
-2.032505 -1.2437568 0.54336149 50 30
-2.1248281 -1.7260646 0.52142864 43 29
-2.0202813 -1.2372401 0.36509588 51 28
-2.1222954 -1.7209604 0.32929683 43 27
-2.0289886 -1.2425469 0.22408016 53 26
-2.1294789 -1.7255713 0.18826987 43 25
-2.0274045 -1.2415717 0.10923813 53 24
-2.1290679 -1.7233983 0.062785193 45 23
-2.0276599 -1.2412416 0 51 22
-2.1313107 -1.7246009 -0.062843226 44 21
-2.0259225 -1.2392088 -0.10912167 50 20
-2.1191099 -1.7147024 -0.18628943 45 19
-2.0268891 -1.2388345 -0.21012715 51 18
-2.1378355 -1.729257 -0.31074926 41 17
-2.0331788 -1.2417039 -0.32615328 51 16
-2.130949 -1.7248846 -0.47190279 44 15
-2.0275545 -1.2339599 -0.66926342 51 13
-2.1290312 -1.724537 -0.61951905 44 14
-1.8392323 -1.1169925 -0.73222917 30 12
-0.42391196 -0.34215933 -0.20621163 4 11
-0.44680685 -0.27157786 -0.25912759 4 9
-0.41774181 -0.33780143 -0.23595686 3 10
nan nan nan 0 8
-0.28911948 -0.23464338 -0.2284015 8 7
-0.28168678 -0.17048597 -0.22416434 34 6
nan nan nan 0 5
-0.20620897 -0.12454631 -0.19693744 40 4
nan nan nan 0 3
nan nan nan 0 2
nan nan nan 0 1
nan nan nan 0 0
-2.1355004 -1.7248352 0.72314966 44 31
-2.0307999 -1.2325138 0.5416705 50 30
-2.1215923 -1.7105527 0.51906067 43 29
-2.0142412 -1.2234259 0.36316416 51 28
-2.1169977 -1.7038243 0.32747915 44 27
-2.0250161 -1.2299424 0.22312866 53 26
-2.1241372 -1.7083663 0.18722875 44 25
-2.0276699 -1.2315437 0.10900521 54 24
-2.1253371 -1.7081188 0.06249506 45 23
-2.023643 -1.2286199 0 53 22
-2.1298282 -1.7105106 -0.062611118 45 21
-2.0238278 -1.2282486 -0.1087723 51 20
-2.1195507 -1.7022336 -0.18577148 44 19
-2.0271552 -1.2288197 -0.20968008 51 18
-2.1341832 -1.7139988 -0.30932775 44 17
-2.031359 -1.2304008 -0.32512116 51 16
-2.1292839 -1.7112573 -0.47018522 45 15
-2.0277321 -1.224394 -0.66788781 51 13
-2.1296442 -1.7121364 -0.6178447 44 14
-1.8613453 -1.1215205 -0.73958415 35 12
-0.42870703 -0.34359333 -0.20808628 4 11
-0.44969541 -0.27106965 -0.2603001 4 9
-0.42243347 -0.3391917 -0.2380826 3 10
nan nan nan 0 8
-0.2883344 -0.23232168 -0.22700027 9 7
-0.28399318 -0.17051233 -0.22567897 31 6
nan nan nan 0 5
-0.20976329 -0.12564868 -0.20039248 41 4
nan nan nan 0 3
nan nan nan 0 2
nan nan nan 0 1
nan nan nan 0 0
-2.1283274 -1.7067803 0.718638 43 31
-2.0267389 -1.2203996 0.5394159 50 30
-2.1160605 -1.6939214 0.51621908 44 29
-2.0163827 -1.2151144 0.3627778 53 28
-2.1171207 -1.6917714 0.32657036 45 27
-2.022686 -1.2193717 0.22241502 51 26
-2.1261926 -1.6978253 0.18688171 44 25
-2.0212557 -1.2180234 0.10842291 53 24
-2.1234782 -1.6944472 0.062262952 45 23
-2.0193486 -1.2163967 0 53 22
-2.1218214 -1.6925163 -0.062204923 45 21
-2.0238214 -1.2186042 -0.10853938 53 20
-2.1215825 -1.6917112 -0.18542618 45 19
-2.0226796 -1.2169639 -0.20878592 53 18
-2.1285093 -1.6972371 -0.3076219 44 17
-2.0290575 -1.2198362 -0.32408905 51 16
-2.1256256 -1.696125 -0.46803826 45 15
-2.0278678 -1.2148421 -0.66651207 51 13
-2.1238928 -1.6959308 -0.61449599 44 14
-1.8814822 -1.1246974 -0.74612194 43 12
-0.42442465 -0.33781403 -0.20527431 4 11
-0.45819145 -0.2740767 -0.26499018 4 9
-0.43595243 -0.34764886 -0.24552268 3 10
nan nan nan 0 8
-0.2923575 -0.23392472 -0.22980274 8 7
-0.28112432 -0.16755967 -0.22264971 31 6
nan nan nan 0 5
-0.2148691 -0.12767126 -0.20557503 46 4
nan nan nan 0 3
nan nan nan 0 2
nan nan nan 0 1
nan nan nan 0 0
-2.1226473 -1.6906731 0.71477097 43 31
-2.0224071 -1.2086821 0.53716129 50 30
-2.1120663 -1.6792479 0.51385105 43 29
-2.0119174 -1.2033579 0.36123243 50 28
-2.1149497 -1.6785637 0.3253586 44 27
-2.0205193 -1.2084775 0.22170138 54 26
-2.1181428 -1.6799046 0.18566707 45 25
-2.0167062 -1.2061948 0.10795708 53 24
-2.1232133 -1.6827335 0.062088873 45 23
-2.0190773 -1.2071317 0 54 22
-2.1198847 -1.6788853 -0.061972816 46 21
-2.0192719 -1.2067698 -0.10807354 51 20
-2.115458 -1.6753652 -0.18439026 44 19
-2.0183585 -1.2047992 -0.20789176 53 18
-2.1243973 -1.6824502 -0.30620033 45 17
-2.0269196 -1.2089467 -0.32305688 51 16
-2.1196659 -1.679878 -0.46546191 45 15
-2.027751 -1.2056581 -0.66513646 51 13
-2.1221666 -1.6824439 -0.61226344 44 14
-1.9380652 -1.1497403 -0.76736957 48 12
-0.43647039 -0.34500408 -0.21089825 4 11
-0.45153007 -0.26800242 -0.2603001 4 9
-0.43710285 -0.3462013 -0.24552268 3 10
nan nan nan 0 8
-0.28990906 -0.23035368 -0.22700027 8 7
-0.28686711 -0.16957429 -0.22719359 33 6
nan nan nan 0 5
-0.21688002 -0.12782127 -0.20730256 58 4
nan nan nan 0 3
nan nan nan 0 2
nan nan nan 0 1
nan nan nan 0 0
-2.1209629 -1.6772534 0.71219289 44 31
-2.0203252 -1.1978946 0.53547037 50 30
-2.1063628 -1.6627288 0.51100951 44 29
-2.0054791 -1.1900356 0.35930073 51 28
-2.1130052 -1.6650201 0.32414684 44 27
-2.0204425 -1.1988814 0.22122565 53 26
-2.1161618 -1.666322 0.18497299 45 25
-2.0187554 -1.1978755 0.10784063 54 24
-2.1192605 -1.6675752 0.061798736 45 23
-2.014673 -1.194983 0 54 22
-2.115916 -1.6637423 -0.061682686 45 21
-2.0191736 -1.1971707 -0.10784063 51 20
-2.1134567 -1.6617972 -0.18369967 44 19
-2.0161204 -1.193946 -0.20722114 53 18
-2.122453 -1.6688764 -0.3050631 45 17
-2.022598 -1.196828 -0.32168069 51 16
-2.1158464 -1.6648451 -0.46331495 45 15
-2.0236619 -1.1936958 -0.66238511 51 13
-2.1203728 -1.6689899 -0.61003089 44 14
-2.013376 -1.1848385 -0.79597235 53 12
-0.43948859 -0.34491771 -0.21183558 4 11
-0.46009371 -0.27087125 -0.26499018 4 9
-0.44008079 -0.34608048 -0.24658555 3 10
nan nan nan 0 8
-0.2987904 -0.2358128 -0.23400643 9 7
-0.27884054 -0.16360705 -0.21962045 34 6
-0.15365945 -0.12031397 -0.13568604 16 5
-0.22203405 -0.12974949 -0.21248513 43 4
nan nan nan 0 3
nan nan nan 0 2
nan nan nan 0 1
nan nan nan 0 0
-2.1154137 -1.6608789 0.70832574 43 31
-2.0160923 -1.1859034 0.53321576 50 30
-2.1082926 -1.6523341 0.51006234 44 29
-2.0053613 -1.1805259 0.35852802 53 28
-2.1090386 -1.6499797 0.3226321 44 27
-2.0160317 -1.1867795 0.22027414 53 26
-2.1160753 -1.6543117 0.18445243 45 25
-2.0078516 -1.1819675 0.10702541 53 24
-2.1132596 -1.6509249 0.061450578 45 23
-2.0145204 -1.1854116 0 54 22
-2.1177733 -1.6532667 -0.061566629 45 21
-2.0147254 -1.185059 -0.10737479 53 20
-2.1094222 -1.6467274 -0.18283643 44 19
-2.0116837 -1.1818641 -0.20632698 55 18
-2.1165271 -1.6522764 -0.30335727 45 17
-2.0203538 -1.1860059 -0.32064858 53 16
-2.1158268 -1.6528955 -0.46202677 46 15
-2.0195136 -1.181777 -0.65963376 51 13
-2.1185107 -1.6555688 -0.6077984 44 14
-2.0195413 -1.1789926 -0.79678959 54 12
-0.43158206 -0.33621687 -0.20714895 4 11
-0.45339006 -0.26484361 -0.2603001 3 9
-0.43595511 -0.34033954 -0.24339694 4 10
nan nan nan 0 8
-0.29799139 -0.23347956 -0.2326052 8 7
-0.28459039 -0.16559356 -0.22416434 35 6
-0.15556718 -0.1209704 -0.13730134 19 5
-0.22091278 -0.1280838 -0.21075761 44 4
nan nan nan 0 3
nan nan nan 0 2
nan nan nan 0 1
nan nan nan 0 0
-2.1119673 -1.6456821 0.70510316 44 31
-2.0141098 -1.1748307 0.53152472 50 30
-2.1007812 -1.6340333 0.50674719 44 29
-2.0032718 -1.1694384 0.35736901 55 28
-2.1072371 -1.6361437 0.32142034 44 27
-2.0096154 -1.1731194 0.21908475 53 26
-2.1162171 -1.6419528 0.18393186 46 25
-2.0100121 -1.1733433 0.10690895 56 24
-2.1114013 -1.6370354 0.06121847 45 23
-2.0102098 -1.1729884 0 54 22
-2.115921 -1.6393633 -0.061334521 45 21
-2.0125802 -1.1738979 -0.10702541 55 20
-2.1036227 -1.6298093 -0.18180051 45 19
-2.0138493 -1.1732317 -0.20610344 54 18
-2.1147203 -1.6384158 -0.30222002 45 17
-2.0182636 -1.1748619 -0.31961647 54 16
-2.1102006 -1.6360643 -0.45945039 46 15
-2.0175915 -1.1707543 -0.65757024 51 13
-2.1168675 -1.641812 -0.60556591 43 14
-2.0177109 -1.1680375 -0.79433787 54 12
-0.4401187 -0.34033775 -0.21089825 4 11
-0.45818898 -0.26537606 -0.26264516 4 9
-0.43898168 -0.34013376 -0.24445981 3 10
nan nan nan 0 8
-0.29884514 -0.23238578 -0.2326052 9 7
-0.27481294 -0.15866567 -0.2150766 35 6
-0.16198182 -0.12515168 -0.14376259 18 5
-0.22610898 -0.12992553 -0.21594018 46 4
nan nan nan 0 3
nan nan nan 0 2
nan nan nan 0 1
nan nan nan 0 0
-2.1119716 -1.6338606 0.70316958 44 31
-2.0118706 -1.1641395 0.52983379 53 30
-2.1006477 -1.6221837 0.50532639 44 29
-1.9987873 -1.1574956 0.35582364 54 28
-2.1050797 -1.6227107 0.32020858 45 27
-2.007031 -1.1627123 0.21837111 54 26
-2.1160128 -1.6299843 0.1834113 45 25
-2.0076089 -1.1625719 0.10655958 55 24
-2.1072071 -1.6220238 0.060928334 45 23
-2.0056326 -1.1609628 0 54 22
-2.1154077 -1.6277597 -0.061160441 45 21
-2.0080144 -1.161871 -0.10655958 55 20
-2.1033726 -1.6178892 -0.18128258 45 19
-2.0091014 -1.1615701 -0.20520927 54 18
-2.1125574 -1.6249597 -0.30108279 45 17
-2.013567 -1.1632162 -0.31824028 53 16
-2.1100481 -1.6241761 -0.45816222 45 15
-2.0133288 -1.1589162 -0.65481889 50 13
-2.1087961 -1.6243609 -0.60165906 41 14
-2.0176759 -1.1586384 -0.79270345 53 12
-0.43758181 -0.33603603 -0.20902361 4 11
-0.45714721 -0.26276359 -0.26147261 4 9
-0.43301833 -0.33304679 -0.24020834 3 10
-0.36796868 -0.21125245 -0.23536254 4 8
-0.30291346 -0.23389563 -0.23540768 9 7
-0.28053853 -0.1606781 -0.21962045 38 6
-0.16389295 -0.12579696 -0.1453779 18 5
-0.2249596 -0.12829615 -0.21421266 49 4
nan nan nan 0 3
nan nan nan 0 2
nan nan nan 0 1
nan nan nan 0 0
-2.1058936 -1.6180071 0.69930249 44 31
-2.0093799 -1.153829 0.52814287 51 30
-2.1001763 -1.6107217 0.50390559 44 29
-2.0004716 -1.1496325 0.35543728 53 28
-2.1006041 -1.6081694 0.31869388 44 27
-2.0089185 -1.1544617 0.21813324 54 26
-2.1115093 -1.6153724 0.18254369 45 25
-2.0027876 -1.1509391 0.10609375 56 24
-2.1046376 -1.6089479 0.060696226 45 23
-2.0051334 -1.1518191 0 55 22
-2.1111531 -1.6127704 -0.060870305 45 21
-2.0053561 -1.1514815 -0.10621021 54 20
-2.1008041 -1.6048417 -0.18059197 45 19
-2.0066602 -1.1508397 -0.20453866 54 18
-2.1159618 -1.6164355 -0.30079848 46 17
-2.0133159 -1.1537223 -0.31755218 54 16
-2.1095567 -1.6126773 -0.45687401 46 15
-2.0108962 -1.1486632 -0.65275538 50 13
-2.1086502 -1.6125436 -0.59998471 41 14
-2.0132914 -1.1472701 -0.78943455 53 12
-0.43324268 -0.33026522 -0.20621163 4 11
-0.46190777 -0.26333606 -0.26381767 3 9
-0.43591198 -0.33299127 -0.24127121 4 10
-0.37243438 -0.21206276 -0.23794894 6 8
-0.30205372 -0.23161805 -0.23400643 9 7
-0.27762359 -0.15776025 -0.21659121 40 6
-0.1733378 -0.13229136 -0.15506975 16 5
-0.23489843 -0.1327502 -0.22457777 51 4
nan nan nan 0 3
nan nan nan 0 2
nan nan nan 0 1
nan nan nan 0 0
-2.1038523 -1.6047791 0.69672441 44 31
-2.00916 -1.1444011 0.52701551 53 30
-2.1018829 -1.6004032 0.50295842 45 29
-1.9915905 -1.1353154 0.35311919 53 28
-2.1002817 -1.5963166 0.31778505 46 27
-2.0042832 -1.1425208 0.21718173 54 26
-2.1072116 -1.6004407 0.18167609 46 25
-2.0024517 -1.141472 0.10586084 55 24
-2.1005719 -1.5936607 0.060406089 45 23
-2.0026219 -1.141106 0 55 22
-2.1088099 -1.5993427 -0.060638197 45 21
-2.0008774 -1.1391897 -0.10574438 53 20
-2.0984502 -1.591463 -0.17990138 46 19
-2.0041687 -1.1401408 -0.20386805 55 18
-2.1139605 -1.6026597 -0.29966125 46 17
-2.0087152 -1.141801 -0.31617603 54 16
-2.1095712 -1.6004633 -0.45558587 46 15
-2.0109079 -1.1389202 -0.6513797 53 13
-2.1084476 -1.6007471 -0.59831029 43 14
-2.0092499 -1.1352426 -0.78616571 53 12
-0.4418169 -0.33430323 -0.20996094 4 11
-0.45897052 -0.25956571 -0.26147261 4 9
-0.4371295 -0.33139133 -0.24127121 4 10
-0.37320912 -0.21069629 -0.23794894 6 8
-0.29798552 -0.22671194 -0.22980274 9 7
-0.27645937 -0.1557792 -0.2150766 36 6
-0.17532694 -0.13282752 -0.15668507 16 5
-0.23221292 -0.13015327 -0.22112274 51 4
nan nan nan 0 3
nan nan nan 0 2
nan nan nan 0 1
nan nan nan 0 0
-2.1020217 -1.5912186 0.69414634 44 31
-2.0006094 -1.1298555 0.52363366 53 30
-2.0940349 -1.5823165 0.49964324 45 29
-1.993587 -1.1267952 0.35273287 54 28
-2.0942397 -1.5796306 0.31596741 44 27
-1.9997861 -1.130277 0.21623023 54 26
-2.1031127 -1.5851917 0.1808085 45 25
-1.9979206 -1.1292181 0.105395 55 24
-2.0981419 -1.5802965 0.060173981 46 23
-1.9980797 -1.1288478 0 55 22
-2.1026845 -1.5825737 -0.060290035 45 21
-2.0026662 -1.1309725 -0.10562792 55 20
-2.0923212 -1.5747511 -0.17886546 45 19
-2.0018244 -1.1291238 -0.20319743 56 18
-2.1116097 -1.5892889 -0.29852402 45 17
-2.0064116 -1.1307899 -0.31514388 54 16
-2.1033497 -1.5841885 -0.45300952 46 15
-2.0085814 -1.1283685 -0.64931619 53 13
-2.1006863 -1.5827307 -0.59440345 45 14
-2.0090761 -1.125916 -0.78453124 51 12
-0.44298112 -0.33275896 -0.20996094 4 11
-0.45798802 -0.25681064 -0.2603001 3 9
-0.44188651 -0.33260211 -0.24339694 4 10
-0.3608332 -0.20214969 -0.22889654 4 8
-0.29877508 -0.22567041 -0.22980274 10 7
-0.28223324 -0.1576823 -0.21962045 34 6
-0.18937516 -0.14271867 -0.17122285 13 5
-0.23107755 -0.1284799 -0.21939522 53 4
nan nan nan 0 3
nan nan nan 0 2
nan nan nan 0 1
nan nan nan 0 0
-2.1037042 -1.5809655 0.69285733 44 31
-2.0002887 -1.1204888 0.5225063 54 30
-2.0916965 -1.5690976 0.49774885 45 29
-1.9910409 -1.1162121 0.3515738 54 28
-2.093786 -1.5678431 0.31505859 46 27
-1.9972034 -1.1196449 0.21551658 55 26
-2.1026471 -1.5733528 0.18028793 45 25
-1.9953115 -1.1185797 0.10504562 55 24
-2.0956447 -1.5669689 0.059941873 46 23
-1.9976435 -1.1194263 0 56 22
-2.1021934 -1.5707307 -0.060115952 45 21
-1.997882 -1.1191016 -0.10516208 56 20
-2.0838299 -1.5569754 -0.17765692 46 19
-2.0035794 -1.1209157 -0.20297389 56 18
-2.1052144 -1.5729771 -0.29681817 45 17
-2.0038586 -1.1201608 -0.31411177 55 16
-2.0990117 -1.5694534 -0.45086256 46 15
-2.0041049 -1.1166791 -0.64656484 51 13
-2.0964482 -1.5680809 -0.59161282 45 14
-2.0005968 -1.1120214 -0.77962792 51 12
-0.44413999 -0.33121064 -0.20996094 4 11
-0.45888165 -0.25521037 -0.2603001 3 9
-0.43762615 -0.32696846 -0.24020834 4 10
-0.37279463 -0.20705758 -0.23665574 6 8
-0.29956099 -0.22462612 -0.22980274 10 7
-0.27928743 -0.15479563 -0.21659121 35 6
-0.19138578 -0.14321859 -0.17283817 14 5
-0.23311588 -0.12852897 -0.22112274 58 4
nan nan nan 0 3
nan nan nan 0 2
nan nan nan 0 1
nan nan nan 0 0
-2.1014714 -1.5678275 0.69027925 44 31
-1.9977971 -1.109957 0.52081537 54 30
-2.0873241 -1.5544466 0.49538088 45 29
-1.9862858 -1.1044624 0.35002843 54 28
-2.0833244 -1.5486659 0.31263506 46 27
-1.9943775 -1.1093929 0.21480295 55 26
-2.0961223 -1.5570692 0.17924681 46 25
-1.9948367 -1.1091852 0.1048127 55 24
-2.0930796 -1.5536779 0.059709765 46 23
-1.9993528 -1.1112341 0 56 22
-2.0933506 -1.5533127 -0.059709765 46 21
-1.9952238 -1.1084888 -0.1048127 56 20
-2.0852485 -1.5467163 -0.17731161 46 19
-2.0007508 -1.1106461 -0.20230328 56 18
-2.1027184 -1.5596925 -0.29568091 46 17
-2.0010626 -1.1099128 -0.31307963 55 16
-2.0985484 -1.5577074 -0.44957435 46 15
-2.0037811 -1.1073558 -0.64518923 53 13
-2.0957718 -1.5567553 -0.5899384 45 14
-2.0023961 -1.1038927 -0.77881068 53 12
-0.44523588 -0.32973599 -0.20996094 4 11
-0.45972544 -0.25368726 -0.2603001 4 9
-0.43695387 -0.32408214 -0.23914547 4 10
-0.37723869 -0.20786399 -0.23924215 6 8
-0.30034328 -0.22357908 -0.22980274 13 7
-0.2868008 -0.15764649 -0.22264971 36 6
nan nan nan 0 5
-0.23354082 -0.12775521 -0.22112274 64 4
nan nan nan 0 3
nan nan nan 0 2
nan nan nan 0 1
nan nan nan 0 0
-2.095022 -1.552211 0.6864121 44 31
-1.9929303 -1.098631 0.51856077 55 30
-2.0885229 -1.544593 0.49443367 45 29
-1.981282 -1.0931053 0.34848306 55 28
-2.0784731 -1.5343699 0.31112036 45 27
-1.9916971 -1.0988244 0.21408933 55 26
-2.0932519 -1.5441802 0.17855273 46 25
-1.9897529 -1.0977471 0.10434687 56 24
-2.0881684 -1.5393038 0.059419632 46 23
-1.9986459 -1.1021874 0 58 22
-2.0947382 -1.5430275 -0.059593711 46 21
-1.9945122 -1.0994594 -0.10457978 56 20
-2.0803328 -1.5323877 -0.17644836 46 19
-2.0002508 -1.1012579 -0.20185618 58 18
-2.0998852 -1.5468112 -0.29454368 45 17
-2.0005832 -1.1005381 -0.31239155 56 16
-2.0957785 -1.5448868 -0.44785678 46 15
-1.9968989 -1.0949374 -0.64175004 55 13
-2.0933535 -1.5436376 -0.58770591 45 14
-1.9977497 -1.0927196 -0.77554184 53 12
-0.45010588 -0.33094281 -0.21183558 4 11
-0.46643329 -0.25523457 -0.26381767 4 9
-0.43439528 -0.3199299 -0.23701973 4 10
-0.37419537 -0.20451528 -0.23665574 6 8
-0.30273867 -0.22382499 -0.23120397 19 7
-0.28033459 -0.15289101 -0.21659121 36 6
nan nan nan 0 5
-0.23238829 -0.12609363 -0.21939522 61 4
nan nan nan 0 3
nan nan nan 0 2
nan nan nan 0 1
nan nan nan 0 0
-2.0945942 -1.5405896 0.68447858 44 31
-1.9946148 -1.0905014 0.51799709 55 30
-2.0859926 -1.5314749 0.49253929 45 29
-1.9807498 -1.0838158 0.34771037 55 28
-2.0798161 -1.524168 0.31051448 46 27
-1.9933363 -1.0906729 0.21385145 55 26
-2.0905864 -1.5309621 0.17785865 46 25
-1.9891884 -1.0884017 0.10411395 56 24
-2.0857329 -1.5257301 0.059187524 48 23
-1.9958977 -1.0916117 0 56 22
-2.085999 -1.5253659 -0.059187524 46 21
-1.9875656 -1.0861645 -0.10399749 55 20
-2.0796337 -1.5206945 -0.17593041 46 19
