# .PCD v0.7 - Point Cloud Data file format
VERSION 0.7
FIELDS x y z intensity ring
SIZE 4 4 4 4 2
TYPE F F F F U
COUNT 1 1 1 1 1
WIDTH 1332
HEIGHT 1
VIEWPOINT 0 0 0 1 0 0 0
POINTS 1332
DATA ascii
-2.1785707 -1.9541293 0.55789548 47 29
-2.0554531 -1.4011443 0.38364044 50 28
-2.1742449 -1.946851 0.3520174 42 27
-2.0584593 -1.4031751 0.23478463 51 26
-2.1856441 -1.9557087 0.20163098 47 25
-2.0613754 -1.4051515 0.11471168 51 24
-2.1801286 -1.9487169 0.067079194 47 23
-2.0576293 -1.4020773 0 50 22
-2.1823311 -1.9500031 -0.067137219 47 21
-2.0579796 -1.4012645 -0.11447877 50 20
-2.1759112 -1.9442492 -0.19958347 45 19
-2.0607681 -1.402115 -0.22063351 50 18
-2.1877854 -1.9541816 -0.33178812 49 17
-2.0704958 -1.4076718 -0.34301141 51 16
-2.1835933 -1.9517783 -0.50453669 35 15
-2.0683854 -1.4015483 -0.70503086 50 13
-2.1801825 -1.9500701 -0.66193658 29 14
-1.7824718 -1.2055051 -0.73222917 16 12
-0.41530582 -0.37020981 -0.21089825 4 11
-0.43850935 -0.29676777 -0.26264516 3 9
nan nan nan 0 10
-0.33197474 -0.22450805 -0.22113733 34 8
-0.24514902 -0.21923083 -0.19897553 4 7
-0.27302226 -0.18404277 -0.22416434 11 6
nan nan nan 0 5
nan nan nan 0 4
nan nan nan 0 3
nan nan nan 0 2
nan nan nan 0 1
nan nan nan 0 0
-2.1801848 -1.9445792 0.77019954 47 31
-2.0610518 -1.3928977 0.56759858 50 30
-2.1783907 -1.9395956 0.55600107 47 29
-2.0523858 -1.3880737 0.38209504 51 28
-2.1720986 -1.930618 0.35050267 46 27
-2.0532751 -1.3886592 0.23359524 50 26
-2.177892 -1.9344226 0.2002428 43 25
-2.0582321 -1.3919981 0.11424585 50 24
-2.1738427 -1.9294704 0.066673003 46 23
-2.0565374 -1.3903314 0 51 22
-2.1801214 -1.9336915 -0.066847086 47 21
-2.0545774 -1.3884866 -0.11401293 50 20
-2.1718359 -1.926322 -0.19854757 45 19
-2.0596986 -1.3903786 -0.21996289 51 18
-2.1871662 -1.939934 -0.3306509 47 17
-2.0653708 -1.3931593 -0.34129122 49 16
-2.1830306 -1.9375986 -0.50281912 43 15
-2.0672779 -1.3903012 -0.70296729 51 13
-2.1818526 -1.9372079 -0.66026223 39 14
-1.7866689 -1.1992757 -0.73222917 13 12
-0.41659561 -0.36875787 -0.21089825 4 11
-0.43407819 -0.29149103 -0.25912759 3 9
nan nan nan 0 10
-0.33454013 -0.2245294 -0.22243053 34 8
-0.2413035 -0.21421042 -0.19477183 7 7
-0.26867819 -0.1798092 -0.21962045 12 6
nan nan nan 0 5
nan nan nan 0 4
nan nan nan 0 3
nan nan nan 0 2
nan nan nan 0 1
nan nan nan 0 0
-2.1797321 -1.9305447 0.76762146 49 31
-2.0598295 -1.3816302 0.5659076 50 30
-2.1741221 -1.9222145 0.55315948 47 29
-2.0490105 -1.3754021 0.38054967 51 28
-2.1658103 -1.9115186 0.34838212 46 27
-2.0539749 -1.3787133 0.2331195 51 26
-2.177155 -1.9202038 0.19954872 46 25
-2.0547795 -1.3792452 0.11378001 50 24
-2.1618283 -1.9053289 0.06609273 45 23
-2.050992 -1.3761886 0 51 22
-2.1737385 -1.9144951 -0.066440895 45 21
-2.0531859 -1.3771387 -0.11366356 51 20
-2.1691959 -1.9104793 -0.19768433 45 19
-2.0562596 -1.3776443 -0.21906874 51 18
-2.1846116 -1.9240716 -0.32922935 47 17
-2.0619857 -1.3804384 -0.33991504 50 16
-2.176857 -1.9185563 -0.49981332 43 15
-2.0661175 -1.3790789 -0.70090383 50 13
-2.1758153 -1.9182879 -0.65635532 46 14
-1.7888765 -1.1917238 -0.73141193 13 12
-0.42134759 -0.37037769 -0.21277291 4 11
-0.43877882 -0.29240623 -0.26147261 4 9
nan nan nan 0 10
-0.3263827 -0.21748388 -0.21596454 37 8
-0.24513228 -0.21613163 -0.1975743 4 7
-0.2759659 -0.18321957 -0.22567897 12 6
nan nan nan 0 5
-0.15073639 -0.10068882 -0.13992923 29 4
nan nan nan 0 3
nan nan nan 0 2
nan nan nan 0 1
nan nan nan 0 0
-2.1792078 -1.9165373 0.76504338 49 31
-2.056525 -1.3690403 0.56365299 50 30
-2.1679153 -1.9032663 0.54984432 47 29
-2.043515 -1.3614035 0.37861797 51 28
-2.1612804 -1.8941236 0.34656444 45 27
-2.0481749 -1.365003 0.23193011 51 26
-2.1725955 -1.9027239 0.19850759 46 25
-2.0512633 -1.3665334 0.11331417 50 24
-2.1609485 -1.8911808 0.065860622 45 23
-2.0516188 -1.3662531 0 51 22
-2.1669176 -1.8957454 -0.066034712 46 21
-2.0517404 -1.3658173 -0.11331417 51 20
-2.1627197 -1.8913918 -0.19647577 46 19
-2.0504446 -1.3639317 -0.21795104 51 18
-2.1782367 -1.9049772 -0.32723916 47 17
-2.0582983 -1.3681176 -0.33853886 49 16
-2.168725 -1.8979577 -0.49637818 43 15
-2.0608943 -1.3652308 -0.69746464 51 13
-2.1675098 -1.8982054 -0.65189034 43 14
-1.7969701 -1.1880742 -0.73304641 13 12
-0.41735724 -0.36438131 -0.20996094 4 11
-0.43974611 -0.29094958 -0.26147261 3 9
nan nan nan 0 10
-0.33068556 -0.21873903 -0.21855094 35 8
-0.24279308 -0.21252061 -0.19477183 4 7
-0.2715649 -0.179058 -0.22113508 17 6
nan nan nan 0 5
-0.15259016 -0.10116468 -0.14165676 32 4
nan nan nan 0 3
nan nan nan 0 2
nan nan nan 0 1
nan nan nan 0 0
-2.1746447 -1.8997557 0.76117623 47 31
-2.0508878 -1.3555074 0.56083471 50 30
-2.1649716 -1.8879918 0.54747635 47 29
-2.0438955 -1.351898 0.37784526 51 28
-2.1581981 -1.8787911 0.34504974 46 27
-2.0466962 -1.353732 0.23121646 53 26
-2.1638515 -1.8824009 0.19711943 45 25
-2.0516157 -1.3569721 0.11308127 51 24
-2.1596689 -1.8774389 0.065628514 45 23
-2.0477917 -1.3539345 0 51 22
-2.1622093 -1.8783257 -0.065686546 46 21
-2.045835 -1.3521305 -0.11273188 51 20
-2.1633356 -1.8792977 -0.19595782 46 19
-2.0510345 -1.3540261 -0.21750395 50 18
-2.1714261 -1.88633 -0.32524902 46 17
-2.0547886 -1.3554778 -0.3371627 50 16
-2.1675777 -1.8842858 -0.49466062 43 15
-2.0573726 -1.3531135 -0.69471329 51 13
-2.1630974 -1.8810239 -0.64854157 43 14
-1.7989234 -1.1808143 -0.73222917 18 12
-0.4203707 -0.36444852 -0.21089825 3 11
-0.44446132 -0.29181984 -0.26381767 3 9
nan nan nan 0 10
-0.33144706 -0.21758339 -0.21855094 35 8
-0.24504714 -0.21308619 -0.19617307 4 7
-0.27386105 -0.17918496 -0.22264971 14 6
nan nan nan 0 5
-0.1651352 -0.10839912 -0.15547693 34 4
nan nan nan 0 3
nan nan nan 0 2
nan nan nan 0 1
nan nan nan 0 0
-2.1685002 -1.8810625 0.75666463 47 31
-2.0494936 -1.3443381 0.55914378 51 30
-2.160423 -1.8707721 0.54463482 47 29
-2.0382719 -1.3379874 0.37591353 51 28
-2.1534872 -1.8614995 0.3432321 47 27
-2.0430822 -1.3411244 0.23026495 53 26
-2.1666374 -1.8715725 0.1967724 46 25
-2.0458951 -1.3429599 0.11249897 51 24
-2.158972 -1.8629731 0.065396406 46 23
-2.0441399 -1.3412997 0 51 22
-2.1574061 -1.8609622 -0.065338381 45 21
-2.0424187 -1.3391535 -0.11226605 51 20
-2.1585596 -1.8619511 -0.19492193 45 19
-2.0474124 -1.3414077 -0.21660979 51 18
-2.1708066 -1.8718642 -0.32411179 46 17
-2.0532885 -1.3442334 -0.33613053 50 16
-2.1632898 -1.8666654 -0.49208426 45 15
-2.0522478 -1.3390064 -0.69127417 50 13
-2.1585922 -1.8638963 -0.6451928 46 14
-1.8032392 -1.1742129 -0.73222917 18 12
-0.41645464 -0.35834569 -0.20808628 4 11
-0.44176659 -0.28787249 -0.26147261 4 9
nan nan nan 0 10
-0.33044228 -0.21521062 -0.21725774 35 8
-0.24893779 -0.21491902 -0.19897553 4 7
-0.27283925 -0.17711017 -0.22113508 18 6
nan nan nan 0 5
-0.16858672 -0.10972389 -0.15893197 34 4
nan nan nan 0 3
nan nan nan 0 2
nan nan nan 0 1
nan nan nan 0 0
-2.1680636 -1.8667911 0.75408655 47 31
-2.0421507 -1.328858 0.55576181 51 30
-2.1523838 -1.8500276 0.54084605 45 29
-2.0328071 -1.323778 0.3739818 51 28
-2.1490037 -1.8438884 0.34141445 45 27
-2.0396376 -1.3282026 0.22931345 53 26
-2.1583471 -1.8506187 0.19538422 46 25
-2.0424278 -1.3300087 0.11203314 51 24
-2.1578758 -1.8489144 0.065164298 45 23
-2.0427527 -1.3297126 0 51 22
-2.1585212 -1.848161 -0.065164298 45 21
-2.0407977 -1.3279356 -0.11191668 51 20
-2.1577973 -1.8475322 -0.19423133 45 19
-2.0439594 -1.3284742 -0.21571563 51 18
-2.1641304 -1.8529563 -0.32212162 45 17
-2.0540459 -1.3340051 -0.33544248 51 16
-2.1604483 -1.8510823 -0.48993731 45 15
-2.0488343 -1.3266168 -0.68852282 51 13
-2.1598625 -1.8512096 -0.64351845 45 14
-1.8132843 -1.171752 -0.73468083 18 12
-0.41419303 -0.35386226 -0.20621163 4 11
-0.44467843 -0.28744164 -0.26264516 4 9
nan nan nan 0 10
-0.33660367 -0.21750645 -0.22113733 37 8
-0.25748852 -0.22085251 -0.20598172 4 7
-0.2734558 -0.1761567 -0.22113508 22 6
nan nan nan 0 5
-0.18121684 -0.116815 -0.17275214 35 4
nan nan nan 0 3
nan nan nan 0 2
nan nan nan 0 1
nan nan nan 0 0
-2.1653941 -1.8513553 0.75086397 47 31
-2.0426824 -1.3190827 0.55463457 51 30
-2.1513655 -1.8361225 0.53895169 47 29
-2.0311882 -1.312658 0.37282279 50 28
-2.1497643 -1.8315427 0.34050563 46 27
-2.037987 -1.3170282 0.22859982 51 26
-2.1553063 -1.8349816 0.19451663 45 25
-2.0428605 -1.3201642 0.11180022 53 24
-2.1529033 -1.8316436 0.06481614 45 23
-2.036876 -1.3158008 0 53 22
-2.1497369 -1.8276508 -0.064700082 46 21
-2.0391231 -1.3167455 -0.1115673 51 20
-2.1528406 -1.8302863 -0.19319542 45 19
-2.0423031 -1.317288 -0.21504502 53 18
-2.1611307 -1.8373384 -0.32070008 43 17
-2.0482769 -1.3201294 -0.33372223 51 16
-2.1556499 -1.8339446 -0.48736092 45 15
-2.0494058 -1.3168619 -0.68714714 51 13
-2.1570392 -1.8357538 -0.64072782 45 14
-1.8094025 -1.1603222 -0.73141193 18 12
-0.4136655 -0.35090664 -0.20527431 4 11
-0.43822366 -0.2811527 -0.25795507 4 9
nan nan nan 0 10
-0.33736086 -0.21633016 -0.22113733 33 8
-0.25825787 -0.21995236 -0.20598172 4 7
-0.27238491 -0.17414299 -0.21962045 24 6
nan nan nan 0 5
-0.1846922 -0.11809109 -0.17620718 38 4
nan nan nan 0 3
nan nan nan 0 2
nan nan nan 0 1
nan nan nan 0 0
-2.1589632 -1.8328313 0.74635231 47 31
-2.039067 -1.3066955 0.55237997 51 30
-2.1502764 -1.8222468 0.53705728 47 29
-2.0295172 -1.3015654 0.37166375 51 28
-2.1447854 -1.8144013 0.33868799 45 27
-2.0383799 -1.3072233 0.22812408 51 26
-2.150279 -1.8177764 0.1934755 46 25
-2.0369396 -1.3062942 0.11121793 51 24
-2.1497447 -1.8160447 0.064526007 45 23
-2.0372448 -1.3059883 0 53 22
-2.1503785 -1.8152941 -0.064526007 45 21
-2.0331876 -1.3028922 -0.11098501 51 20
-2.1496947 -1.8147078 -0.19233216 43 19
-2.0384953 -1.3047894 -0.21415086 51 18
-2.1580482 -1.8217641 -0.31927854 45 17
-2.0424361 -1.3063098 -0.33200201 50 16
-2.1488786 -1.815272 -0.48435518 45 15
-2.0479066 -1.3058292 -0.68508363 51 13
-2.1504145 -1.8171914 -0.63682097 42 14
-1.8134418 -1.1539991 -0.73141193 20 12
-0.41665334 -0.35096201 -0.20621163 4 11
-0.44293833 -0.28197578 -0.2603001 4 9
-0.41574234 -0.35087919 -0.23914547 3 10
-0.33086574 -0.21060091 -0.21596454 30 8
-0.26373371 -0.22309905 -0.21018544 4 7
-0.27130327 -0.17213891 -0.21810584 29 6
nan nan nan 0 5
-0.18971632 -0.12029362 -0.18138973 39 4
nan nan nan 0 3
nan nan nan 0 2
nan nan nan 0 1
nan nan nan 0 0
-2.1542747 -1.8159331 0.74248523 47 31
-2.037446 -1.2956545 0.55068898 51 30
-2.143486 -1.8036547 0.53374207 46 29
-2.025708 -1.2891763 0.37011838 51 28
-2.1435108 -1.8005123 0.33747622 43 27
-2.0345273 -1.2947632 0.22717257 54 26
-2.1527936 -1.8070493 0.19312847 46 25
-2.0330548 -1.2938207 0.1107521 53 24
-2.1445899 -1.7988822 0.064177841 45 23
-2.0354595 -1.2948492 0 53 22
-2.1490457 -1.801348 -0.064293899 45 21
-2.0313976 -1.2917728 -0.11063564 51 20
-2.1407361 -1.7943627 -0.19095096 42 19
-2.0409341 -1.2963326 -0.21392731 53 18
-2.1510792 -1.8030396 -0.31728837 45 17
-2.0407081 -1.2951976 -0.3309699 50 16
-2.1476595 -1.8014221 -0.48263761 45 15
-2.0422909 -1.2922564 -0.68164444 51 13
-2.1492832 -1.8034018 -0.63458848 43 14
-1.819458 -1.1489214 -0.73222917 20 12
-0.41610518 -0.34801018 -0.20527431 4 11
-0.44204786 -0.27925721 -0.25912759 4 9
-0.42732847 -0.35819638 -0.24552268 3 10
-0.34249496 -0.21623221 -0.22372375 24 8
-0.26608545 -0.22352141 -0.21158667 7 7
-0.27021104 -0.17014453 -0.21659121 28 6
nan nan nan 0 5
-0.19475803 -0.12246249 -0.1865723 41 4
nan nan nan 0 3
nan nan nan 0 2
nan nan nan 0 1
nan nan nan 0 0
-2.1494949 -1.7990904 0.73861814 47 31
-2.0337124 -1.283343 0.54843432 51 30
-2.1365926 -1.7851326 0.53042692 46 29
-2.0218375 -1.2768297 0.36857301 53 28
-2.1383569 -1.7834724 0.33565858 43 27
-2.0324943 -1.2840276 0.22645892 53 26
-2.1456873 -1.7883346 0.19191381 43 25
-2.0312204 -1.2827216 0.11040271 53 24
-2.1393416 -1.7817782 0.063829683 45 23
-2.0378518 -1.2864035 0 53 22
-2.14733 -1.7878082 -0.064061791 45 21
-2.0295548 -1.2806816 -0.11028625 53 20
-2.1412401 -1.7820877 -0.19043303 45 19
-2.0431142 -1.2882314 -0.21370378 53 18
-2.1478214 -1.7875671 -0.31586683 46 17
-2.038703 -1.2844691 -0.32993779 51 16
-2.1463706 -1.7876031 -0.48092005 46 15
-2.0366058 -1.2787389 -0.67820525 51 13
-2.1458983 -1.7884555 -0.63179785 43 14
-1.8234574 -1.1425632 -0.73222917 22 12
-0.42080829 -0.34960729 -0.20714895 4 11
-0.43546766 -0.27313179 -0.25443748 4 9
-0.41644943 -0.3465125 -0.2380826 3 10
-0.32501259 -0.20384306 -0.21079174 22 8
-0.26844332 -0.22393006 -0.2129879 7 7
-0.27924851 -0.17445104 -0.22416434 30 6
nan nan nan 0 5
-0.19361895 -0.12087715 -0.18484478 45 4
nan nan nan 0 3
nan nan nan 0 2
nan nan nan 0 1
nan nan nan 0 0
-2.1461687 -1.7842232 0.73539555 47 31
-2.0317609 -1.2727188 0.54674339 51 30
-2.1387253 -1.774899 0.52947974 47 29
-2.0218723 -1.2674981 0.3678003 51 28
-2.1328015 -1.7668625 0.33384094 43 27
-2.0327442 -1.2742852 0.22598319 53 26
-2.1458468 -1.7764333 0.19139326 45 25
-2.0248773 -1.2693564 0.10982042 53 24
-2.1375411 -1.7682949 0.063597575 45 23
-2.0336277 -1.2743366 0 53 22
-2.1420081 -1.7707369 -0.063713625 45 21
-2.0274377 -1.2699733 -0.10993688 53 20
-2.1356127 -1.7654327 -0.18939711 45 19
-2.0391502 -1.2758167 -0.21280962 53 18
-2.1499114 -1.7772665 -0.31529823 45 17
-2.0368712 -1.2734126 -0.32890561 51 16
-2.1465979 -1.7757612 -0.47963187 46 15
-2.0326712 -1.2669005 -0.67545396 51 13
-2.1408718 -1.7716219 -0.62844902 43 14
-1.8272362 -1.1365101 -0.73222917 28 12
-0.4202452 -0.34665304 -0.20621163 4 11
-0.44017845 -0.27392596 -0.25678253 4 9
-0.41585898 -0.34367964 -0.23701973 3 10
-0.3403115 -0.21165818 -0.22113733 17 8
-0.2723518 -0.2257058 -0.21579038 7 7
-0.27306148 -0.1693361 -0.21810584 26 6
nan nan nan 0 5
-0.20177658 -0.12486774 -0.1934824 39 4
nan nan nan 0 3
nan nan nan 0 2
nan nan nan 0 1
nan nan nan 0 0
-2.1393538 -1.7659453 0.7308839 45 31
-2.0320516 -1.2630513 0.54561609 51 30
-2.1335497 -1.7580464 0.52663815 45 29
-2.0199885 -1.2565247 0.36664125 54 28
-2.1293805 -1.7515161 0.3323262 43 27
-2.0329511 -1.2645566 0.22550742 53 26
-2.1404831 -1.7594199 0.19035213 45 25
-2.0271742 -1.2609636 0.10970397 54 24
-2.1301911 -1.749706 0.063191384 45 23
-2.0316906 -1.2632757 0 53 22
-2.1365929 -1.7537248 -0.063365467 45 21
-2.0276141 -1.2602559 -0.10970397 53 20
-2.1302037 -1.748463 -0.18836123 45 19
-2.0351245 -1.2634454 -0.21191546 53 18
-2.1407545 -1.7571309 -0.31302375 45 17
-2.0307772 -1.259778 -0.32718542 53 16
-2.1413727 -1.7588679 -0.47705549 45 15
-2.0329905 -1.257273 -0.67407829 53 13
-2.1395171 -1.7579432 -0.62621653 45 14
-1.8332043 -1.1313636 -0.73304641 32 12
-0.43038279 -0.35256901 -0.21089825 4 11
-0.43924794 -0.27123642 -0.25561002 4 9
-0.42576745 -0.34944537 -0.24233407 3 10
-0.34470344 -0.21269399 -0.22372375 18 8
-0.28107968 -0.23139402 -0.22279654 7 7
-0.27365088 -0.1683819 -0.21810584 28 6
nan nan nan 0 5
-0.20376185 -0.12509069 -0.19520992 39 4
nan nan nan 0 3
nan nan nan 0 2
nan nan nan 0 1
nan nan nan 0 0
-2.1399045 -1.753868 0.72895032 47 31
-2.0302253 -1.2521206 0.54392511 51 30
-2.1301811 -1.7428076 0.52427018 45 29
-2.0180533 -1.2455801 0.36548224 51 28
-2.1239576 -1.7346439 0.33050859 45 27
-2.0309961 -1.2535374 0.22479379 53 26
-2.1350274 -1.7424659 0.18931101 43 25
-2.0273108 -1.2512604 0.10947105 53 24
-2.1269112 -1.7339818 0.062901251 45 23
-2.0254438 -1.2496226 0 53 22
-2.1291494 -1.7351911 -0.062959276 45 21
-2.0279658 -1.2501987 -0.10947105 51 20
-2.1266346 -1.7331301 -0.18749797 45 19
-2.0374012 -1.2550299 -0.21169192 53 18
-2.1394835 -1.7429909 -0.31188649 43 17
-2.0288322 -1.2487935 -0.32615328 51 16
-2.1401749 -1.7447758 -0.47533792 45 15
-2.0273349 -1.2435393 -0.6706391 53 13
-2.1324325 -1.739669 -0.62230968 45 14
-1.8373386 -1.124637 -0.73304641 32 12
-0.43167213 -0.35098919 -0.21089825 4 11
-0.44396812 -0.27199107 -0.25795507 4 9
-0.41830766 -0.34069502 -0.23701973 3 10
-0.35463881 -0.21695806 -0.23018974 16 8
-0.27714631 -0.22639561 -0.21859284 8 7
-0.27938402 -0.17044559 -0.22264971 32 6
nan nan nan 0 5
-0.20421897 -0.12434302 -0.19520992 42 4
nan nan nan 0 3
nan nan nan 0 2
nan nan nan 0 1
nan nan nan 0 0
-2.1388288 -1.7399091 0.72637224 46 31
-2.030643 -1.2421331 0.54279786 51 30
-2.1289375 -1.7287918 0.52237582 45 29
-2.0183895 -1.2355998 0.36470953 51 28
-2.1206694 -1.7190255 0.32899389 45 27
-2.0270817 -1.2408954 0.22384228 53 26
-2.1297801 -1.7251996 0.18826987 45 25
-2.0254898 -1.2399158 0.10912167 53 24
-2.1232445 -1.7186759 0.062611118 46 23
-2.0278766 -1.2408876 0 53 22
-2.1277277 -1.7210815 -0.062727168 45 21
-2.0280542 -1.24051 -0.10923813 53 20
-2.1232841 -1.7174729 -0.18663472 46 19
-2.0292313 -1.239777 -0.21035069 53 18
-2.1339762 -1.7261295 -0.31018066 45 17
-2.0270517 -1.2374842 -0.32512116 51 16
-2.1347749 -1.7279872 -0.4727616 45 15
-2.0296087 -1.2352074 -0.66995126 53 13
-2.1293321 -1.7241654 -0.61951905 45 14
-1.8432738 -1.119441 -0.73386359 32 12
-0.42930159 -0.34655187 -0.20902361 4 11
-0.44496202 -0.27036202 -0.25795507 4 9
-0.42650455 -0.34495836 -0.24127121 3 10
nan nan nan 0 8
-0.27793488 -0.22542679 -0.21859284 8 7
-0.27997729 -0.16946931 -0.22264971 33 6
nan nan nan 0 5
-0.20932342 -0.12638013 -0.20039248 43 4
nan nan nan 0 3
nan nan nan 0 2
nan nan nan 0 1
nan nan nan 0 0
-2.1317451 -1.7217964 0.72186065 45 31
-2.0307999 -1.2325138 0.5416705 51 30
-2.1235018 -1.712095 0.51953423 45 29
-2.0184658 -1.2259865 0.36393687 53 28
-2.1189296 -1.7053821 0.32778212 45 27
-2.0226734 -1.2290055 0.22289078 53 26
-2.1260791 -1.7099311 0.18740229 45 25
-2.0319412 -1.2341326 0.10923813 54 24
-2.1214437 -1.7049841 0.06237901 45 23
-2.0215049 -1.2273244 0 53 22
-2.1256354 -1.7077478 -0.06249506 46 21
-2.0216916 -1.2269549 -0.10865584 53 20
-2.1214936 -1.7037969 -0.18594411 46 19
-2.0248103 -1.2278843 -0.20945653 53 18
-2.1322479 -1.7124418 -0.30904344 43 17
-2.0247872 -1.2269115 -0.32408905 53 16
-2.1292839 -1.7112573 -0.47018522 46 15
-2.0256734 -1.2231536 -0.66719991 53 13
-2.1236525 -1.707921 -0.61617035 45 14
-1.8613453 -1.1215205 -0.73958415 35 12
-0.43585259 -0.34950098 -0.21183558 4 11
-0.44775212 -0.27001655 -0.25912759 4 9
-0.4189184 -0.33634117 -0.23595686 3 10
nan nan nan 0 8
-0.28993678 -0.23363276 -0.2284015 8 7
-0.28225058 -0.16955094 -0.22416434 38 6
nan nan nan 0 5
-0.21130161 -0.12659703 -0.20212001 45 4
nan nan nan 0 3
nan nan nan 0 2
nan nan nan 0 1
nan nan nan 0 0
-2.1261466 -1.7056383 0.7179935 43 31
-2.0265257 -1.2207534 0.5394159 51 30
-2.1176798 -1.695827 0.51669264 45 29
-2.0119379 -1.21292 0.36200514 53 28
-2.1129515 -1.6890384 0.32596448 45 27
-2.0184212 -1.2168061 0.22193927 53 26
-2.1220016 -1.6950797 0.18653467 45 25
-2.0231831 -1.2196637 0.10853938 54 24
-2.1153748 -1.6885737 0.062030844 45 23
-2.0212789 -1.2180374 0 53 22
-2.1237738 -1.6940765 -0.062262952 45 21
-2.0236089 -1.2189574 -0.10853938 53 20
-2.1212871 -1.6920816 -0.18542618 46 19
-2.0248144 -1.2182455 -0.20900944 53 18
-2.1282132 -1.6976086 -0.3076219 46 17
-2.0290575 -1.2198362 -0.32408905 51 16
-2.1253297 -1.6964959 -0.46803826 46 15
-2.0255926 -1.2139623 -0.66582423 53 13
-2.1219897 -1.6944085 -0.61393785 45 14
-1.8833147 -1.1262362 -0.74693906 43 12
-0.42984408 -0.34216979 -0.20808628 4 11
-0.44679198 -0.26732704 -0.25795507 4 9
-0.42355594 -0.337789 -0.2380826 4 10
nan nan nan 0 8
-0.28910324 -0.23136424 -0.22700027 8 7
-0.28112432 -0.16755967 -0.22264971 34 6
nan nan nan 0 5
-0.21330567 -0.12676497 -0.20384751 45 4
nan nan nan 0 3
nan nan nan 0 2
nan nan nan 0 1
nan nan nan 0 0
-2.1245353 -1.6921798 0.71541542 45 31
-2.0203152 -1.2074345 0.53659761 51 30
-2.1139863 -1.6807773 0.51432467 45 29
-2.0140383 -1.2046237 0.36161879 51 28
-2.1110649 -1.6754745 0.32475269 45 27
-2.0162454 -1.2059267 0.22122565 53 26
-2.1200955 -1.6814561 0.18584059 45 25
-2.0231397 -1.2100344 0.10830647 54 24
-2.1153841 -1.676517 0.061856765 46 23
-2.0190773 -1.2071317 0 54 22
-2.1159692 -1.6757785 -0.061856765 46 21
-2.0149825 -1.2042117 -0.10784063 53 20
-2.1213193 -1.6800158 -0.18490823 46 19
-2.0204976 -1.2060733 -0.20811529 54 18
-2.126343 -1.6839941 -0.30648464 46 17
-2.0226641 -1.206414 -0.3223688 51 16
-2.1196659 -1.679878 -0.46546191 46 15
-2.0256839 -1.2044317 -0.66444862 53 13
-2.1202586 -1.6809283 -0.61170536 46 14
-1.9400985 -1.1509438 -0.76818681 49 12
-0.43103582 -0.34066728 -0.20808628 4 11
-0.44581857 -0.26464748 -0.25678253 4 9
-0.42296529 -0.33489519 -0.23701973 3 10
nan nan nan 0 8
-0.28990906 -0.23035368 -0.22700027 8 7
-0.27654788 -0.16358039 -0.21810584 35 6
nan nan nan 0 5
-0.2184466 -0.12872209 -0.20903008 49 4
nan nan nan 0 3
nan nan nan 0 2
nan nan nan 0 1
nan nan nan 0 0
-2.1190698 -1.6757535 0.71154833 45 31
-2.0203252 -1.1978946 0.53547037 51 30
-2.1082883 -1.6642516 0.51148313 45 29
-2.0076041 -1.191294 0.35968706 53 28
-2.1091094 -1.6619446 0.32354093 45 27
-2.0140181 -1.1950775 0.220512 53 26
-2.1142037 -1.6647772 0.18479946 45 25
-2.0209043 -1.1991478 0.10795708 54 24
-2.1175883 -1.6656584 0.061740708 45 23
-2.014673 -1.194983 0 54 22
-2.1139526 -1.6621957 -0.061624657 46 21
-2.0193825 -1.1968184 -0.10784063 53 20
-2.1193345 -1.6664274 -0.18421763 46 19
-2.0182643 -1.1952127 -0.20744468 54 18
-2.1227441 -1.668506 -0.3050631 46 17
-2.022598 -1.196828 -0.32168069 51 16
-2.1180711 -1.6660001 -0.46374434 46 15
-2.0217984 -1.1921239 -0.66169727 54 13
-2.1203728 -1.6689899 -0.61003089 45 14
-2.0156205 -1.1856833 -0.79678959 54 12
-0.43409836 -0.34052411 -0.20902361 4 11
-0.43910873 -0.258643 -0.25209242 4 9
-0.42596227 -0.33474946 -0.2380826 3 10
nan nan nan 0 8
-0.29236743 -0.23058379 -0.2284015 8 7
-0.28231615 -0.16554371 -0.22264971 35 6
-0.14922622 -0.11669177 -0.13084011 13 5
-0.22048682 -0.12881567 -0.21075761 56 4
nan nan nan 0 3
nan nan nan 0 2
nan nan nan 0 1
nan nan nan 0 0
-2.1157036 -1.6605097 0.70832574 45 31
-2.0183997 -1.1867841 0.53377932 51 30
-2.1066504 -1.6504507 0.50958878 46 29
-2.0098274 -1.1826771 0.35930073 53 28
-2.1112802 -1.6511421 0.32293507 46 27
-2.0162389 -1.1864277 0.22027414 53 26
-2.1144001 -1.6524047 0.18427891 47 25
-2.0145185 -1.1854105 0.10737479 54 24
-2.1135478 -1.6505561 0.061450578 46 23
-2.0168834 -1.1863256 0 54 22
-2.1101856 -1.6467392 -0.061334521 47 21
-2.0149322 -1.1847073 -0.10737479 53 20
-2.1136391 -1.6494316 -0.18318172 46 19
-2.0140381 -1.1827719 -0.20655052 55 18
-2.1148584 -1.650377 -0.30307296 45 17
-2.0226974 -1.1869045 -0.32099265 54 16
-2.1161151 -1.6525261 -0.46202677 47 15
-2.0217957 -1.182636 -0.66032153 51 13
-2.1187997 -1.6551992 -0.6077984 46 14
-2.0156634 -1.1762624 -0.79515511 55 12
-0.43710622 -0.34043935 -0.20996094 4 11
-0.44196552 -0.25813651 -0.25326493 4 9
-0.42890537 -0.3346611 -0.23914547 4 10
nan nan nan 0 8
-0.28668842 -0.22440755 -0.22279654 9 7
-0.27771136 -0.16159728 -0.21810584 37 6
-0.1555883 -0.12094323 -0.13730134 18 5
-0.22408111 -0.12982443 -0.21421266 47 4
nan nan nan 0 3
nan nan nan 0 2
nan nan nan 0 1
nan nan nan 0 0
-2.1138713 -1.6471686 0.70574766 45 31
-2.0141098 -1.1748307 0.53152472 50 30
-2.1007812 -1.6340333 0.50674719 45 29
-2.0032718 -1.1694384 0.35736901 53 28
-2.1072371 -1.6361437 0.32142034 45 27
-2.0094109 -1.17347 0.21908475 54 26
-2.1083412 -1.6358302 0.18323778 46 25
-2.0121703 -1.1746004 0.10702541 54 24
-2.1094275 -1.635502 0.061160441 46 23
-2.0123701 -1.1742463 0 54 22
-2.1116869 -1.636667 -0.06121847 47 21
-2.0125802 -1.1738979 -0.10702541 53 20
-2.107563 -1.6328679 -0.18214582 46 19
-2.0157967 -1.1748348 -0.20632698 55 18
-2.1127584 -1.6368928 -0.3019357 45 17
-2.0159175 -1.17397 -0.31927243 53 16
-2.1102006 -1.6360643 -0.45945039 47 15
-2.0196714 -1.1719586 -0.65825808 53 13
-2.116581 -1.6421815 -0.60556591 45 14
-2.0136192 -1.1656742 -0.79270345 54 12
-0.43823275 -0.33898801 -0.20996094 4 11
-0.44856548 -0.25996447 -0.25678253 4 9
-0.42472458 -0.32897884 -0.23595686 3 10
-0.36165527 -0.20935254 -0.23148295 3 8
-0.29234505 -0.22725417 -0.22700027 9 7
-0.27997595 -0.16165639 -0.21962045 37 6
-0.15748137 -0.12161496 -0.13891666 18 5
-0.2245104 -0.12908062 -0.21421266 47 4
nan nan nan 0 3
nan nan nan 0 2
nan nan nan 0 1
nan nan nan 0 0
-2.1097775 -1.632749 0.70252508 45 31
-2.0116675 -1.1644907 0.52983379 51 30
-2.1003647 -1.6225504 0.50532639 46 29
-2.0007236 -1.1590806 0.35620996 53 28
-2.1028326 -1.6215608 0.31990564 46 27
-2.0048766 -1.1614671 0.21813324 55 26
-2.1098061 -1.6257814 0.18289074 46 25
-2.0095682 -1.1641719 0.10667604 55 24
-2.1029661 -1.6193378 0.060812276 46 23
-2.0075943 -1.1625636 0 54 22
-2.1094697 -1.6231819 -0.060986362 46 21
-2.0078118 -1.1622214 -0.10655958 54 20
-2.1070406 -1.6213015 -0.18162787 46 19
-2.0091014 -1.1615701 -0.20520927 55 18
-2.1083393 -1.6222953 -0.30051416 45 17
-2.0157125 -1.1644528 -0.31858435 53 16
-2.1058645 -1.6215355 -0.45730343 47 15
-2.0152106 -1.1604651 -0.65550673 51 13
-2.1087961 -1.6243609 -0.60165906 43 14
-2.0133739 -1.1566406 -0.79106897 54 12
-0.43391877 -0.33319572 -0.20714895 4 11
-0.44755092 -0.25730547 -0.25561002 4 9
-0.42581317 -0.32756859 -0.23595686 4 10
-0.35493743 -0.20387071 -0.22631015 4 8
-0.29146779 -0.22500595 -0.22559904 9 7
-0.27880487 -0.15970324 -0.21810584 39 6
-0.16239595 -0.12461384 -0.14376259 17 5
-0.2249596 -0.12829615 -0.21421266 47 4
nan nan nan 0 3
nan nan nan 0 2
nan nan nan 0 1
nan nan nan 0 0
-2.1058936 -1.6180071 0.69930249 45 31
-2.0093799 -1.153829 0.52814287 51 30
-2.0943372 -1.6062347 0.5024848 46 29
-1.998329 -1.1484038 0.35505092 54 28
-2.0986352 -1.6066592 0.31839097 45 27
-2.0067594 -1.1532236 0.21789536 54 26
-2.1075506 -1.6123381 0.18219666 46 25
-2.0092869 -1.1546658 0.10644312 56 24
-2.1006694 -1.6059083 0.060580168 46 23
-2.0029643 -1.1505759 0 55 22
-2.1091683 -1.6112512 -0.060812276 46 21
-2.0053561 -1.1514815 -0.10621021 54 20
-2.1027846 -1.6063575 -0.18076462 47 19
-2.0066602 -1.1508397 -0.20453866 55 18
-2.1060998 -1.6088873 -0.29937693 47 17
-2.0133159 -1.1537223 -0.31755218 53 16
-2.1076014 -1.6111797 -0.45644465 47 15
-2.0150728 -1.1510434 -0.65413111 51 13
-2.1067159 -1.6110615 -0.59942657 43 14
-2.0112374 -1.1461023 -0.78861731 54 12
-0.43691567 -0.33309278 -0.20808628 4 11
-0.44844639 -0.25574166 -0.25561002 4 9
-0.42337081 -0.32331583 -0.23383114 4 10
-0.36310801 -0.20682262 -0.23148295 7 8
-0.29225141 -0.22398716 -0.22559904 9 7
-0.27762359 -0.15776025 -0.21659121 41 6
-0.17934231 -0.13700289 -0.161531 16 5
-0.23015225 -0.13013016 -0.21939522 51 4
nan nan nan 0 3
nan nan nan 0 2
nan nan nan 0 1
nan nan nan 0 0
-2.1038523 -1.6047791 0.69672441 45 31
-2.0070426 -1.1431977 0.52645189 53 30
-2.0960279 -1.5959364 0.50153762 46 29
-1.9937375 -1.1365366 0.35350552 54 28
-2.0943589 -1.5918063 0.31687623 46 27
-2.0042832 -1.1425208 0.21718173 55 26
-2.1052272 -1.5989306 0.18150258 47 25
-2.0002806 -1.1402372 0.10574438 55 24
-2.0965924 -1.5906358 0.060290035 47 23
-2.0026219 -1.141106 0 55 22
-2.1028399 -1.5948063 -0.060464118 46 21
-2.0030489 -1.1404233 -0.10586084 54 20
-2.0984502 -1.591463 -0.17990138 47 19
-2.0041687 -1.1401408 -0.20386805 55 18
-2.108027 -1.5981526 -0.29880834 47 17
-2.006561 -1.1405793 -0.31583196 54 16
-2.1095712 -1.6004633 -0.45558587 47 15
-2.0088153 -1.1377378 -0.65069193 50 13
-2.1006896 -1.5948457 -0.5960778 45 14
-2.0133662 -1.1375629 -0.78780007 54 12
-0.43813357 -0.33148918 -0.20808628 4 11
-0.44162899 -0.24986193 -0.25091991 4 9
-0.42634961 -0.32313755 -0.23489399 4 10
-0.36760181 -0.20757274 -0.23406935 7 8
-0.29634714 -0.22544613 -0.2284015 9 7
-0.27645937 -0.1557792 -0.2150766 34 6
-0.17081065 -0.12931043 -0.15183914 14 5
-0.22270139 -0.12494802 -0.21075761 54 4
nan nan nan 0 3
nan nan nan 0 2
nan nan nan 0 1
nan nan nan 0 0
-2.1020217 -1.5912186 0.69414634 46 31
-2.0069752 -1.1334425 0.52532458 51 30
-2.0959918 -1.5837982 0.50011683 46 29
-1.993587 -1.1267952 0.35273287 54 28
-2.0942397 -1.5796306 0.31596741 46 27
-1.9997861 -1.130277 0.21623023 55 26
-2.1051025 -1.5866945 0.18098201 47 25
-2.0000958 -1.1304448 0.10551145 55 24
-2.0961468 -1.5787909 0.060115952 47 23
-2.0002575 -1.1300755 0 56 22
-2.0986934 -1.579564 -0.060173981 47 21
-1.9983147 -1.1285206 -0.105395 55 20
-2.0903299 -1.5732495 -0.17869282 47 19
-2.0018244 -1.1291238 -0.20319743 56 18
-2.1056602 -1.5848024 -0.29767108 47 17
-2.0064116 -1.1307899 -0.31514388 54 16
-2.1053154 -1.5856718 -0.45343888 47 15
-2.0085814 -1.1283685 -0.64931619 53 13
-2.0967965 -1.5797942 -0.59328723 46 14
-2.0090761 -1.125916 -0.78453124 53 12
-0.4374415 -0.32855719 -0.20714895 4 11
-0.4483341 -0.25145498 -0.25443748 4 9
-0.42927644 -0.32301667 -0.23595686 4 10
-0.36832413 -0.20628831 -0.23406935 7 8
-0.29384673 -0.22189014 -0.22559904 11 7
-0.27525753 -0.15385687 -0.21356197 32 6
-0.17578954 -0.13221471 -0.15668507 13 5
-0.22154789 -0.12330787 -0.20903008 51 4
nan nan nan 0 3
nan nan nan 0 2
nan nan nan 0 1
nan nan nan 0 0
-2.0979152 -1.5766064 0.69092369 46 31
-2.0002887 -1.1204888 0.5225063 55 30
-2.0936587 -1.5705725 0.49822244 46 29
-1.9910409 -1.1162121 0.3515738 55 28
-2.0898159 -1.5648644 0.31445271 46 27
-1.9991798 -1.1212088 0.21575446 55 26
-2.1006517 -1.5718567 0.18011442 47 25
-1.9996707 -1.1210181 0.10527854 56 24
-2.089644 -1.5624733 0.059767794 47 23
-1.9976435 -1.1194263 0 56 22
-2.0959179 -1.5666031 -0.059941873 46 21
-1.9957019 -1.1178832 -0.10504562 55 20
-2.0938122 -1.5644486 -0.17852017 47 19
-2.0012097 -1.1200513 -0.20275034 56 18
-2.1032259 -1.5714885 -0.29653382 47 17
-2.0058258 -1.1217171 -0.31445581 54 16
-2.0990117 -1.5694534 -0.45086256 47 15
-2.0062056 -1.117847 -0.64725274 53 13
-2.0961745 -1.5684468 -0.59161282 46 14
-2.0047293 -1.114313 -0.78126234 53 12
-0.44223094 -0.32989365 -0.20902361 4 11
-0.44529685 -0.24783742 -0.25209242 4 9
-0.43220752 -0.32287928 -0.23701973 4 10
-0.36337775 -0.20198046 -0.23018974 7 8
-0.29791385 -0.22337177 -0.2284015 11 7
-0.27401912 -0.15199266 -0.21204734 33 6
-0.18984739 -0.1420899 -0.17122285 13 5
-0.22513783 -0.12428599 -0.21248513 55 4
nan nan nan 0 3
nan nan nan 0 2
nan nan nan 0 1
nan nan nan 0 0
-2.0992632 -1.5667475 0.68963474 46 31
-1.9976034 -1.1103057 0.52081537 53 30
-2.090987 -1.5577475 0.49632806 46 29
-1.9882526 -1.1060076 0.35041478 55 28
-2.0850441 -1.5505122 0.312938 47 27
-1.9943775 -1.1093929 0.21480295 55 26
-2.0938501 -1.5559456 0.17907329 46 25
-1.99901 -1.111957 0.10504562 56 24
-2.0847876 -1.5480756 0.059477657 47 23
-1.9947865 -1.1091573 0 58 22
-2.0933506 -1.5533127 -0.059709765 47 21
-1.9906623 -1.1064148 -0.10457978 55 20
-2.0889816 -1.5500567 -0.17765692 47 19
-1.9963944 -1.1082333 -0.20185618 58 18
-2.0984597 -1.5570958 -0.29511231 47 17
-2.0010626 -1.1099128 -0.31307963 56 16
-2.0943248 -1.5551335 -0.44871557 47 15
-2.0035877 -1.1077055 -0.64518923 53 13
-2.093817 -1.5553004 -0.58938026 46 14
-2.0042734 -1.1053811 -0.77962792 53 12
-0.43595564 -0.32279602 -0.20527431 4 11
-0.45584941 -0.25157136 -0.25795507 4 9
-0.42965448 -0.31873015 -0.23489399 4 10
-0.36784005 -0.20275456 -0.23277615 7 8
-0.29535028 -0.21988487 -0.22559904 12 7
-0.27804881 -0.15292417 -0.2150766 35 6
-0.19034223 -0.14142634 -0.17122285 17 5
-0.22716442 -0.12435053 -0.21421266 59 4
nan nan nan 0 3
nan nan nan 0 2
nan nan nan 0 1
nan nan nan 0 0
-2.0969617 -1.553651 0.68705666 46 31
-1.9950645 -1.0998049 0.51912439 53 30
-2.0885229 -1.544593 0.49443367 46 29
-1.9834459 -1.0942965 0.34886941 55 28
-2.0784731 -1.5343699 0.31112036 47 27
-1.9938774 -1.1000245 0.21432722 56 26
-2.0932519 -1.5441802 0.17855273 47 25
-1.9941282 -1.1001555 0.10457978 56 24
-2.0861578 -1.5378189 0.059361603 47 23
-1.992075 -1.098572 0 58 22
-2.0887055 -1.5385749 -0.059419632 47 21
-1.990136 -1.0970526 -0.10434687 55 20
-2.0843461 -1.53535 -0.17679366 47 19
-1.9937035 -1.0976616 -0.20118557 58 18
-2.0958884 -1.5438614 -0.29397509 46 17
-1.9984125 -1.0993466 -0.31204751 55 16
-2.0937974 -1.5434238 -0.44742742 47 15
-2.0032246 -1.0983979 -0.64381355 55 13
-2.0913935 -1.5421894 -0.58714777 47 14
-1.9998237 -1.0938513 -0.77635908 53 12
-0.43707976 -0.32127231 -0.20527431 4 11
-0.45089963 -0.24682502 -0.25443748 4 9
-0.4271335 -0.314527 -0.23276827 4 10
-0.37419537 -0.20451528 -0.23665574 7 8
-0.29942733 -0.22133878 -0.2284015 21 7
-0.27331984 -0.14913762 -0.21053272 35 6
-0.22278525 -0.16494259 -0.20514438 17 5
-0.22600001 -0.12271121 -0.21248513 67 4
nan nan nan 0 3
nan nan nan 0 2
nan nan nan 0 1
nan nan nan 0 0
-2.0945942 -1.5405896 0.68447858 46 31
-1.9924766 -1.0893351 0.5174334 54 30
-2.0840151 -1.5300202 0.49206567 46 29
-1.9807498 -1.0838158 0.34771037 55 28
-2.0758154 -1.5212303 0.3099086 47 27
-1.9889677 -1.0882879 0.2133757 56 26
-2.0885756 -1.5294867 0.17768513 47 25
-1.9935726 -1.0907949 0.10434687 56 24
-2.081701 -1.5227749 0.059071466 49 23
-1.993703 -1.0904142 0 58 22
-2.085999 -1.5253659 -0.059187524 47 21
-1.9875656 -1.0861645 -0.10399749 56 20
-2.0796337 -1.5206945 -0.17593041 47 19
-1.9931496 -1.0883131 -0.20073849 56 18
-2.0955212 -1.5317661 -0.29312214 47 17
-1.995713 -1.0888127 -0.31101537 55 16
-2.0934808 -1.5313712 -0.44613919 49 15
-1.9966729 -1.0853196 -0.64037436 54 13
-2.0889041 -1.5291145 -0.58491528 47 14
-1.9996631 -1.0842658 -0.7747246 54 12
-0.4307906 -0.31416944 -0.20152499 4 11
-0.46148527 -0.25047162 -0.2603001 4 9
-0.43192419 -0.31564751 -0.23489399 4 10
-0.37116846 -0.20112559 -0.23406935 7 8
-0.30023658 -0.22023982 -0.2284015 25 7
-0.279136 -0.1509306 -0.2150766 35 6
-0.23406795 -0.17214632 -0.21645153 16 5
-0.22964858 -0.12356155 -0.21594018 66 4
nan nan nan 0 3
nan nan nan 0 2
nan nan nan 0 1
nan nan nan 0 0
-2.0885286 -1.5243465 0.68061143 46 31
-1.9900284 -1.0785497 0.51574248 54 30
-2.0796957 -1.515135 0.48969772 46 29
-1.9781922 -1.0730222 0.34655136 56 28
-2.0753603 -1.5092275 0.30899978 47 27
-1.9885654 -1.0786219 0.21289994 55 26
-2.0840869 -1.5144811 0.17681752 47 25
-1.9887718 -1.0787265 0.10388104 58 24
-2.080941 -1.5110878 0.058897387 49 23
-1.9932882 -1.0807207 0 58 22
-2.0814683 -1.5103612 -0.058897387 46 21
-1.9891483 -1.0780323 -0.10388104 56 20
-2.0831761 -1.5115954 -0.17575777 50 19
-1.9949343 -1.0798175 -0.20051496 58 18
-2.0888021 -1.5156783 -0.29141629 47 17
-1.9931526 -1.0779632 -0.30998325 55 16
-2.0868647 -1.5153604 -0.44356287 49 15
-1.9940987 -1.0749282 -0.63831085 54 13
-2.0846431 -1.5142773 -0.58212465 47 14
-1.9951078 -1.0728118 -0.77145571 54 12
-0.43188462 -0.31266376 -0.20152499 4 11
-0.46045104 -0.24774124 -0.25912759 4 9
-0.43119836 -0.31280017 -0.23383114 4 10
-0.37186828 -0.19982874 -0.23406935 7 8
-0.30266806 -0.2204217 -0.22980274 30 7
-0.27085936 -0.14532644 -0.20750348 37 6
-0.23466741 -0.17132825 -0.21645153 13 5
-0.23168156 -0.12359333 -0.2176677 67 4
nan nan nan 0 3
nan nan nan 0 2
nan nan nan 0 1
nan nan nan 0 0
-2.0860178 -1.5113704 0.67803335 46 31
-1.9873415 -1.0681438 0.51405156 54 30
-2.0770214 -1.5021046 0.48780337 47 29
-1.9753964 -1.0626066 0.34539229 56 28
-2.0725732 -1.4961562 0.30778801 49 27
-1.9877461 -1.0696672 0.21242417 56 26
-2.0812755 -1.5013534 0.17612344 49 25
-1.9881243 -1.0694162 0.10364812 56 24
-2.0780985 -1.497961 0.058665279 49 23
-1.9926424 -1.0713928 0 56 22
-2.0783598 -1.4975984 -0.058665279 49 21
-1.9818947 -1.0651819 -0.10329875 56 20
-2.0823729 -1.4999357 -0.17523982 49 19
-1.9941144 -1.0708442 -0.20006788 59 18
-2.088038 -1.5040171 -0.29056334 49 17
-1.990167 -1.067842 -0.30895111 58 16
-2.0841553 -1.5022982 -0.4418453 49 15
-1.9935973 -1.065699 -0.63693523 54 13
-2.0817535 -1.501646 -0.57989216 47 14
-1.9925828 -1.0625124 -0.76900405 55 12
-0.42729336 -0.30714405 -0.19871302 4 11
-0.45736483 -0.24415138 -0.25678253 4 9
-0.43594703 -0.31395578 -0.23595686 4 10
-0.37063506 -0.19759895 -0.23277615 7 8
-0.29842922 -0.2156876 -0.22559904 39 7
-0.27310318 -0.14534736 -0.2090181 37 6
-0.20456573 -0.14783901 -0.18414535 14 5
-0.22887847 -0.1211667 -0.21421266 72 4
nan nan nan 0 3
nan nan nan 0 2
nan nan nan 0 1
nan nan nan 0 0
-2.0831809 -1.4987942 0.67545527 46 31
-1.9844218 -1.0581162 0.51236057 55 30
-2.0760136 -1.4909071 0.48638254 47 29
-1.9723685 -1.0525678 0.34423327 56 28
-2.0694611 -1.4834843 0.30657625 47 27
-1.989271 -1.0615528 0.21218632 56 26
-2.0801644 -1.4900804 0.17560288 47 25
-1.9828422 -1.0581232 0.10318229 58 24
-2.0769618 -1.4866915 0.0584912 49 23
-1.9917704 -1.06243 0 56 22
-2.0795124 -1.4874225 -0.058549229 49 21
-1.9832116 -1.057431 -0.10318229 58 20
-2.079227 -1.4872105 -0.17454921 49 19
-1.9934422 -1.0615405 -0.19962078 56 18
-2.0869579 -1.4927438 -0.28971043 49 17
-1.9873208 -1.0574055 -0.30791897 55 16
-2.081121 -1.4896371 -0.44012773 49 15
-1.9907465 -1.0557102 -0.63487166 55 13
-2.0830226 -1.4915289 -0.57877594 47 14
-1.9898266 -1.0525911 -0.76655245 55 12
-0.4302429 -0.30700603 -0.19965033 4 11
-0.46212667 -0.24460134 -0.25912759 4 9
-0.43698573 -0.31250834 -0.23595686 4 10
-0.38080892 -0.2012486 -0.23924215 7 8
-0.29914281 -0.21469681 -0.22559904 45 7
-0.26830906 -0.14165187 -0.20447423 33 6
-0.21276744 -0.15277475 -0.19222188 12 5
-0.23412618 -0.12283669 -0.21939522 68 4
nan nan nan 0 3
nan nan nan 0 2
nan nan nan 0 1
nan nan nan 0 0
-2.0805428 -1.4858904 0.67287719 46 31
-1.9837945 -1.0489101 0.51123327 55 30
-2.0692205 -1.4750903 0.48354098 47 29
-1.9738461 -1.0445235 0.34384692 55 28
-2.0726063 -1.4748107 0.30627331 47 27
-1.9907638 -1.0534406 0.21194844 56 26
-2.0731661 -1.4741269 0.17456175 47 25
-1.9821068 -1.0488635 0.10294937 58 24
-2.0739949 -1.4736342 0.058259092 49 23
-1.9888337 -1.0519708 0 56 22
-2.0724728 -1.4714613 -0.058201063 49 21
-1.9846816 -1.0493367 -0.10306582 56 20
-2.0783091 -1.4756062 -0.17403127 49 19
-1.9861207 -1.0487732 -0.19850311 58 18
-2.0820365 -1.4782506 -0.28828889 49 17
-1.984426 -1.047002 -0.30688685 56 16
-2.0762765 -1.4752214 -0.43798074 49 15
-1.9859058 -1.0442888 -0.63212031 55 13
-2.0822616 -1.4800076 -0.57710159 47 14
-1.9872081 -1.0423528 -0.76410073 55 12
-0.42942718 -0.30415353 -0.19871302 4 11
-0.46885693 -0.24603814 -0.26264516 4 9
-0.44175142 -0.31361878 -0.2380826 4 10
-0.37580693 -0.19697121 -0.23536254 7 8
-0.30492175 -0.21729338 -0.22980274 46 7
-0.27765083 -0.14525241 -0.21204734 34 6
-0.20867547 -0.14865683 -0.18737596 12 5
-0.23133036 -0.12038349 -0.21594018 77 4
nan nan nan 0 3
nan nan nan 0 2
nan nan nan 0 1
nan nan nan 0 0
-2.0778403 -1.4730232 0.67029917 47 31
-1.9809691 -1.0385927 0.50954229 55 30
-2.0643449 -1.4607589 0.48117301 47 29
-1.9752918 -1.0364815 0.34346056 56 28
-2.0635629 -1.4575315 0.30415273 47 27
-1.9944289 -1.0464851 0.21194844 58 26
-2.0681188 -1.4596809 0.17369416 47 25
-1.9835435 -1.0407803 0.10283291 59 24
-2.0691755 -1.4588121 0.057968955 49 23
-1.9880636 -1.0427041 0 58 22
-2.0694301 -1.4584509 -0.057968955 49 21
-1.9885143 -1.0420554 -0.10306582 56 20
-2.071224 -1.4597102 -0.17299536 49 19
-1.9941834 -1.0441394 -0.19895017 58 18
-2.0752659 -1.4620149 -0.28658307 49 17
-1.9858735 -1.038923 -0.30654281 56 16
-2.067589 -1.4576541 -0.43497503 49 15
-1.98972 -1.037003 -0.63212031 58 13
-2.0754762 -1.4642893 -0.57375282 47 14
-1.9889181 -1.0339748 -0.76328355 55 12
-0.43620801 -0.30660325 -0.20152499 4 11
-0.46774963 -0.24338974 -0.26147261 4 9
-0.44474146 -0.31330961 -0.23914547 4 10
-0.38223928 -0.19851846 -0.23924215 7 8
-0.29394528 -0.20771924 -0.21999407 47 7
-0.27995446 -0.14513491 -0.21356197 33 6
-0.20149179 -0.14229541 -0.17929941 12 5
-0.23661374 -0.12196988 -0.22112274 80 4
nan nan nan 0 3
nan nan nan 0 2
nan nan nan 0 1
nan nan nan 0 0
-2.0694051 -1.4556559 0.66578752 46 31
-1.9869248 -1.032446 0.51010597 55 30
-2.0636623 -1.4489453 0.47975224 47 29
-1.9746926 -1.02696 0.3426879 56 28
-2.0648293 -1.4471058 0.30354682 47 27
-1.9872056 -1.0334378 0.21075904 56 26
-2.0714133 -1.4506584 0.17352062 50 25
-1.9806945 -1.0300531 0.10248354 59 24
-2.0681159 -1.4472755 0.057794876 49 23
-1.9852138 -1.0319577 0 56 22
-2.0706677 -1.4479876 -0.057852898 49 21
-1.9810541 -1.0293617 -0.10248354 56 20
-2.0683901 -1.4463841 -0.17230476 49 19
-1.9869407 -1.0310998 -0.19783247 58 18
-2.0722203 -1.4490607 -0.28544581 49 17
-1.9830697 -1.0282246 -0.3055107 56 16
-2.0706477 -1.4490138 -0.43454561 49 15
-1.9826458 -1.0245451 -0.62868112 56 13
-2.0788341 -1.4552728 -0.57319468 47 14
-1.9820091 -1.0216241 -0.75919741 55 12
-0.43916991 -0.30641401 -0.20246232 4 11
-0.47650641 -0.24568608 -0.26616272 4 9
-0.45137683 -0.31567225 -0.24233407 4 10
-0.3772068 -0.19427699 -0.23536254 7 8
-0.29804009 -0.20909588 -0.22279654 63 7
-0.27335441 -0.14057715 -0.20750348 32 6
-0.20973389 -0.14715979 -0.18737596 12 5
-0.23380327 -0.11953111 -0.2176677 74 4
nan nan nan 0 3
nan nan nan 0 2
nan nan nan 0 1
nan nan nan 0 0
-2.0705154 -1.4456539 0.66449845 47 31
-1.9840176 -1.022164 0.50841498 55 30
-2.0586448 -1.4347054 0.47738424 47 29
-1.9760689 -1.0189309 0.34230155 56 28
-2.0596893 -1.4327937 0.30203211 47 27
-1.9841617 -1.0230799 0.21004541 58 26
-2.0682786 -1.437717 0.17282654 47 25
-1.9842782 -1.0231329 0.10248354 59 24
-2.0608473 -1.4314804 0.057446711 49 23
-1.9843572 -1.0227356 0 56 22
-2.0716062 -1.4378967 -0.057736848 49 21
-1.982414 -1.0212988 -0.10236707 58 20
-2.0611417 -1.4306109 -0.17126887 49 19
-1.9905279 -1.0241578 -0.19783247 59 18
-2.0691097 -1.4361454 -0.28430858 49 17
-1.9866468 -1.0212961 -0.3055107 58 16
-2.0676079 -1.4361492 -0.43282804 50 15
-1.9819295 -1.0154306 -0.62730551 58 13
-2.0679026 -1.4368676 -0.56872964 47 14
-1.9834579 -1.0136263 -0.75838017 56 12
-0.44783264 -0.3101939 -0.20621163 4 11
-0.47144976 -0.2410326 -0.26264516 4 9
-0.44506526 -0.30889797 -0.2380826 4 10
-0.37788266 -0.19295911 -0.23536254 7 8
-0.29538828 -0.20566206 -0.21999407 51 7
-0.27740216 -0.14139952 -0.21053272 30 6
-0.21956554 -0.15307657 -0.19706783 12 5
-0.24069986 -0.12191584 -0.22457777 80 4
nan nan nan 0 3
nan nan nan 0 2
nan nan nan 0 1
nan nan nan 0 0
-2.0656295 -1.4315283 0.66127592 47 31
-1.9854035 -1.0141265 0.50785136 56 30
-2.0575881 -1.423315 0.47596347 49 29
-1.9686117 -1.0064164 0.34036979 56 28
-2.064678 -1.4255954 0.30203211 49 27
-1.9786763 -1.0119706 0.20909391 56 26
-2.0691819 -1.427652 0.1724795 50 25
-1.9811631 -1.0127968 0.10213415 59 24
-2.0617189 -1.4214369 0.057330661 50 23
-1.9790058 -1.0112611 0 56 22
-2.0701935 -1.4267584 -0.057562768 49 21
-1.9792916 -1.0109713 -0.1020177 58 20
-2.0640702 -1.4219904 -0.17109622 50 19
-1.9805994 -1.0107733 -0.19649124 58 18
-2.0679777 -1.4246807 -0.28345564 50 17
-1.9834013 -1.0113345 -0.30447853 58 16
-2.0685556 -1.4261231 -0.43196923 49 15
-1.9790301 -1.0052472 -0.62524199 58 13
-2.0666425 -1.4258447 -0.56705528 47 14
-1.9764409 -1.0013684 -0.7542941 55 12
-0.44314876 -0.30473998 -0.20339964 4 11
-0.47027269 -0.23847823 -0.26147261 4 9
-0.45356959 -0.31251335 -0.24233407 4 10
-0.3766062 -0.19074927 -0.23406935 7 8
-0.30118668 -0.20820028 -0.22419778 68 7
-0.27074036 -0.13694766 -0.20447423 28 6
-0.22941318 -0.15896648 -0.20675968 12 5
-0.23785715 -0.11952693 -0.22112274 80 4
nan nan nan 0 3
nan nan nan 0 2
nan nan nan 0 1
nan nan nan 0 0
-2.0604227 -1.4178144 0.65805334 47 31
-1.9800605 -1.003143 0.50559676 55 30
-2.0582526 -1.4137005 0.47501627 49 29
-1.9675303 -0.99765325 0.33959714 56 28
-2.0591674 -1.4117148 0.30051744 47 27
-1.977755 -1.0028112 0.20861815 56 26
-2.0677364 -1.4165479 0.17195894 50 25
-1.9778255 -1.0028399 0.10178478 58 24
-2.0604844 -1.4099909 0.057156578 50 23
-1.9778863 -1.002437 0 56 22
-2.071038 -1.4166969 -0.057446711 49 21
-1.9738923 -0.99955237 -0.10155187 56 20
-2.0564315 -1.406677 -0.17006031 50 19
-1.9774468 -1.0004879 -0.19582063 56 18
-2.0667915 -1.4132415 -0.28260273 50 17
-1.9824972 -1.0021752 -0.30379045 58 16
-2.069459 -1.4161083 -0.43111047 50 15
-1.9803792 -0.99725419 -0.62455416 58 13
-2.0655792 -1.4144853 -0.56538093 47 14
-1.973587 -0.99128848 -0.75184244 56 12
-0.4423545 -0.30179834 -0.20246232 4 11
-0.47505671 -0.23880079 -0.26381767 4 9
-0.44907257 -0.30706954 -0.23914547 4 10
-0.37730286 -0.18936768 -0.23406935 7 8
-0.29681686 -0.20359486 -0.21999407 50 7
-0.27302599 -0.13683067 -0.20598885 26 6
-0.22999428 -0.15812457 -0.20675968 12 5
-0.24317087 -0.12102155 -0.22630529 83 4
nan nan nan 0 3
nan nan nan 0 2
nan nan nan 0 1
nan nan nan 0 0
-2.0616181 -1.4075249 0.65676427 47 31
-1.9750123 -0.99151653 0.50334209 55 30
-2.061393 -1.4047627 0.47454265 50 29
-1.9645493 -0.98711503 0.33843812 58 28
-2.0581763 -1.399965 0.29960859 49 27
-1.9725177 -0.99109513 0.20766664 56 26
-2.0646696 -1.4033439 0.17126486 50 25
-1.9747902 -0.99222726 0.10143541 59 24
-2.0571291 -1.3971649 0.05692447 50 23
-1.9703711 -0.989582 0 58 22
-2.0617502 -1.3992578 -0.057040524 49 21
-1.9751364 -0.99153787 -0.10143541 56 20
-2.0615735 -1.3991305 -0.17006031 51 19
-1.9721924 -0.98877853 -0.19492647 60 18
-2.0696583 -1.4046216 -0.28231841 50 17
-1.9817271 -0.99268866 -0.30310234 58 16
-2.0703175 -1.4061043 -0.43025166 50 15
-1.9795449 -0.98819256 -0.62317848 58 13
-2.0606782 -1.4000477 -0.5625903 49 14
-1.972803 -0.98229152 -0.75020796 58 12
-0.44914365 -0.3041786 -0.20527431 4 11
-0.46602479 -0.23218037 -0.25795507 4 9
-0.44640937 -0.30294067 -0.23701973 4 10
-0.38564569 -0.19181724 -0.23924215 7 8
-0.30093047 -0.20491421 -0.22279654 49 7
-0.28244478 -0.14022693 -0.21356197 24 6
-0.23836847 -0.16278064 -0.21483622 12 5
-0.24359183 -0.12017199 -0.22630529 85 4
nan nan nan 0 3
nan nan nan 0 2
nan nan nan 0 1
nan nan nan 0 0
-2.0585256 -1.3948919 0.65418619 47 31
-1.9740981 -0.98245054 0.50221479 55 30
-2.0561242 -1.3906721 0.47217467 49 29
-1.9613469 -0.97695434 0.33727905 58 28
-2.0507181 -1.3844287 0.29779097 50 27
-1.9737368 -0.98309648 0.20742878 56 26
-2.0633571 -1.3919379 0.1707443 50 25
-1.9737687 -0.9831056 0.10120249 59 24
-2.0537093 -1.3843794 0.056692362 50 23
-1.9693353 -0.98047417 0 58 22
-2.0624788 -1.3892559 -0.05692447 49 21
-1.9674013 -0.97908539 -0.10085312 58 20
-2.0540419 -1.3835536 -0.16902442 51 19
-1.973401 -0.98078233 -0.19470292 60 18
-2.0683727 -1.3932197 -0.2814655 50 17
-1.9763044 -0.98136878 -0.30172619 56 16
-2.0629683 -1.3905973 -0.42767534 49 15
-1.9786719 -0.9791491 -0.62180281 58 13
-2.0594957 -1.3887525 -0.56091595 49 14
-1.9677408 -0.9712252 -0.74693906 53 12
-0.44636798 -0.30000481 -0.20339964 4 11
-0.47080076 -0.23248942 -0.2603001 4 9
-0.44185227 -0.29756099 -0.23383114 4 10
-0.37284273 -0.18392332 -0.23018974 7 8
-0.29993746 -0.20269012 -0.22139531 50 7
-0.27755776 -0.13664882 -0.2090181 21 6
-0.23893522 -0.16194759 -0.21483622 12 5
-0.24237861 -0.11854325 -0.22457777 90 4
nan nan nan 0 3
nan nan nan 0 2
nan nan nan 0 1
nan nan nan 0 0
-2.0593762 -1.3849978 0.65289718 49 31
-1.9731445 -0.97340298 0.50108749 55 30
-2.0548558 -1.3793759 0.47075388 49 29
-1.9603137 -0.96791953 0.33650637 56 28
-2.0472975 -1.3717285 0.29657921 50 27
-1.9680562 -0.97214615 0.20647725 58 26
-2.0599196 -1.3791689 0.17005022 50 25
-1.9704674 -0.97289979 0.10085312 59 24
-2.0502255 -1.371635 0.056460254 50 23
-1.9682598 -0.9713856 0 59 22
-2.0566933 -1.3754516 -0.056634337 49 21
-1.9663254 -0.9700067 -0.10062019 58 20
-2.0505707 -1.3708227 -0.16833381 51 19
-1.9721732 -0.97203571 -0.19425584 59 18
-2.0649695 -1.3804617 -0.28032824 50 17
-1.9751027 -0.97262633 -0.30103812 58 16
-2.0575814 -1.3765303 -0.42552835 50 15
-1.9799186 -0.97117996 -0.62111497 58 13
-2.0539715 -1.3751265 -0.55812532 49 14
-1.9605024 -0.9591701 -0.74285305 45 12
-0.44928205 -0.29981863 -0.20433699 4 11
-0.46560699 -0.22804084 -0.25678253 4 9
-0.45038849 -0.30108345 -0.2380826 4 10
-0.38694239 -0.18918779 -0.23924215 7 8
-0.29893258 -0.2004755 -0.21999407 49 7
-0.28159827 -0.13744332 -0.21204734 24 6
-0.23632669 -0.15899177 -0.21160561 12 5
-0.24603793 -0.11928342 -0.22803281 90 4
nan nan nan 0 3
nan nan nan 0 2
nan nan nan 0 1
nan nan nan 0 0
-2.0579355 -1.3741308 0.6509636 49 31
-1.9676058 -0.96258199 0.49883288 56 30
-2.0532951 -1.368464 0.46933311 49 29
-1.9568542 -0.95816171 0.33534732 56 28
-2.0477054 -1.3621789 0.2959733 49 27
-1.9602567 -0.95980984 0.20528789 59 26
-2.0582547 -1.3681822 0.16952965 49 25
-1.9691949 -0.96416831 0.10062019 59 24
-2.0443599 -1.357904 0.056170117 50 23
-1.9669772 -0.96265984 0 59 22
-2.0510769 -1.3613429 -0.056344204 50 21
-1.9650427 -0.96129066 -0.10038728 58 20
-2.0509522 -1.3612527 -0.16798851 50 19
-1.9666009 -0.96078259 -0.19336168 60 18
-2.0591955 -1.3667284 -0.2789067 50 17
-1.9762594 -0.96464205 -0.30069408 58 16
-2.0580344 -1.3669699 -0.42466956 50 15
-1.972316 -0.95936352 -0.61767578 55 13
-2.0506454 -1.3625456 -0.55589283 49 14
-1.9275171 -0.93516988 -0.72896028 33 12
-0.44647357 -0.29567063 -0.20246232 4 11
-0.46440944 -0.22545911 -0.25561002 4 9
