# .PCD v0.7 - Point Cloud Data file format
VERSION 0.7
FIELDS x y z intensity ring
SIZE 4 4 4 4 2
TYPE F F F F U
COUNT 1 1 1 1 1
WIDTH 1120
HEIGHT 1
VIEWPOINT 0 0 0 1 0 0 0
POINTS 1120
DATA ascii
1.1027868 -0.070453681 0.10228712 8 26
1.1074994 -0.074647292 0.10276287 12 26
1.099786 -0.077969849 0.10204925 81 26
1.0970114 -0.081810169 0.10181136 84 26
1.1106536 -0.082861207 0.050310094 8 24
1.0992149 -0.085645832 0.10204925 77 26
1.1103575 -0.086737603 0.050310094 11 24
1.0964291 -0.089275338 0.10181136 76 26
1.1075753 -0.090211548 0.050193641 75 24
1.0985901 -0.093317658 0.10204925 67 26
1.1022779 -0.093644448 0.049960721 84 24
1.105912 -0.094154924 0 4 22
1.1007192 -0.097568244 0.10228712 51 26
1.1044142 -0.097909339 0.050077178 87 24
1.1105388 -0.098659955 0 11 22
1.100372 -0.10140987 0.10228712 43 26
1.1015794 -0.10152972 0.049960721 85 24
1.1002319 -0.1015965 0 76 22
1.0925807 -0.10452432 0.10157349 30 26
1.1012183 -0.10537433 0.049960721 84 24
1.107335 -0.10616699 0 77 22
1.1136084 -0.10697718 -0.050543014 8 20
1.094704 -0.10839707 0.10181136 14 26
1.1033475 -0.10927659 0.050077178 84 24
1.0995148 -0.10908315 0 77 22
1.110763 -0.11041753 -0.050426558 38 20
1.0967942 -0.11247649 0.10204925 13 26
1.1029594 -0.11312734 0.050077178 84 24
1.1065867 -0.11370187 0 16 22
1.1078671 -0.11422689 -0.050310094 83 20
1.0939004 -0.11622776 0.10181136 13 26
1.0975717 -0.11663143 0.049844261 85 24
1.1036769 -0.11748737 0 11 22
1.1099443 -0.11836308 -0.050426558 84 20
1.1166413 -0.11967596 -0.097686768 4 18
1.0885624 -0.1193024 0.10133561 13 26
1.0946763 -0.12018447 0.049727805 87 24
1.1032602 -0.12133921 0 11 22
1.1070428 -0.12195842 -0.050310094 85 20
1.1211871 -0.12393506 -0.098133847 45 18
1.112129 -0.12585217 0.16960539 90 28
1.1005008 -0.12452519 0.102525 13 26
1.0992334 -0.12438535 0.049960721 83 24
1.1053354 -0.12528357 0 11 22
1.1016707 -0.12505564 -0.050077178 89 20
1.1133275 -0.12698682 -0.097463235 72 18
1.0847026 -0.12653059 0.16535559 84 28
1.0926455 -0.12748578 0.10181136 14 26
1.0987924 -0.12822163 0.049960721 81 24
1.1098564 -0.12973143 0 11 22
1.1037072 -0.12919569 -0.050193641 88 20
1.1128775 -0.13087228 -0.097463235 68 18
1.0842543 -0.13031614 0.16535559 85 28
1.0946642 -0.13160107 0.10204925 46 26
1.100817 -0.1323594 0.050077178 80 24
1.0994709 -0.13238953 0 11 22
1.1007476 -0.13293576 -0.050077178 89 20
1.1148851 -0.13506046 -0.097686768 51 18
1.0813189 -0.13398053 0.16496925 84 28
1.086767 -0.13467915 0.10133561 84 26
1.0953691 -0.13576894 0.049844261 79 24
1.1064191 -0.13735709 0 11 22
1.1077096 -0.13771626 -0.050426558 84 20
1.1119125 -0.13883245 -0.097463235 12 18
1.0808446 -0.13775423 0.16496925 85 28
1.0838463 -0.13796304 0.10109774 87 26
1.092412 -0.13927089 0.049727805 76 24
1.1034538 -0.14089683 0 11 22
1.1047456 -0.1412604 -0.050310094 87 20
1.1163843 -0.14316204 -0.097910315 12 18
1.075485 -0.1406869 0.16419657 88 28
1.0882921 -0.1424012 0.10157349 84 26
1.0993707 -0.14387965 0.050077178 46 24
1.0930679 -0.14323615 0 12 22
1.1067466 -0.14525294 -0.050426558 85 20
1.1183457 -0.14738823 -0.098133847 12 18
1.0798819 -0.14510807 0.16496925 87 28
1.0877883 -0.14619921 0.10157349 85 26
1.0939128 -0.14704105 0.049844261 13 24
1.0900842 -0.14671236 0 12 22
1.1062068 -0.1493084 -0.050426558 83 20
1.1153576 -0.15095231 -0.097910315 12 18
1.0744506 -0.14837925 0.16419657 89 28
1.0872452 -0.15018517 0.10157349 85 26
1.0859473 -0.15000938 0.049494889 12 24
1.0845877 -0.15001172 0 12 22
1.1032058 -0.15282132 -0.050310094 83 20
1.1123313 -0.15469146 -0.097686768 11 18
1.0788159 -0.15283175 0.16496925 87 28
1.0891777 -0.15433353 0.10181136 81 26
1.0854172 -0.15379912 0.049494889 12 24
1.0989044 -0.15593359 0 50 22
1.1026657 -0.1566713 -0.050310094 79 20
1.1142489 -0.15892972 -0.097910315 12 18
1.0758321 -0.1562366 0.16458291 88 28
1.0812736 -0.15685776 0.10109774 81 26
1.0947561 -0.15904279 0.049960721 12 24
1.0909338 -0.15867421 0 79 22
1.0996417 -0.16015457 -0.050193641 79 20
1.118642 -0.16335304 -0.098357394 11 18
1.0728658 -0.15943529 0.16419657 87 28
1.0831802 -0.16100198 0.10133561 80 26
1.0868146 -0.16155586 0.049611345 12 24
1.0928735 -0.16266395 0 81 22
1.0991045 -0.16380022 -0.050193641 79 20
1.1106794 -0.1661372 -0.097686768 12 18
1.0723028 -0.16317932 0.16419657 88 28
1.0850712 -0.16516146 0.10157349 76 26
1.0936482 -0.16649082 0.049960721 12 24
1.0898285 -0.16609621 0 81 22
1.0960288 -0.1674455 -0.050077178 26 20
1.1051716 -0.16924962 -0.097239695 18 18
1.0741371 -0.16749394 0.16458291 88 28
1.0869167 -0.1695258 0.10181136 75 26
1.0979642 -0.17127775 0.050193641 12 24
1.0941509 -0.17087083 0 79 22
1.1028372 -0.17244229 -0.050426558 12 20
1.109462 -0.17408074 -0.097686768 33 18
1.0711076 -0.17084831 0.16419657 90 28
1.0838616 -0.17292178 0.10157349 71 26
1.0973595 -0.1751093 0.050193641 13 24
1.0935478 -0.17468908 0 79 22
1.1096241 -0.1774887 -0.050775934 12 20
1.1113055 -0.17835185 -0.097910315 45 18
1.0705047 -0.17458613 0.16419657 89 28
1.0881622 -0.17751531 0.10204925 14 26
1.0942777 -0.17853172 0.050077178 13 24
1.0929314 -0.17850521 0 75 22
1.1114614 -0.18176879 -0.05089239 12 20
1.103307 -0.18100603 -0.097239695 72 18
1.0723243 -0.17873287 0.16458291 88 28
1.0875676 -0.18112282 0.10204925 12 26
1.0862604 -0.18110354 0.049727805 14 24
1.0873716 -0.18148619 0 77 22
1.1083579 -0.18523094 -0.050775934 12 20
1.1076107 -0.18549594 -0.097686768 75 18
1.0717257 -0.18228786 0.16458291 84 28
1.0869287 -0.18491803 0.10204925 12 26
1.0905759 -0.18555225 0.049960721 13 24
1.0867637 -0.18509105 0 77 22
1.1077377 -0.18890536 -0.050775934 12 20
1.0995959 -0.18808706 -0.097016148 75 18
1.0686502 -0.18560013 0.16419657 81 28
1.0764722 -0.18698752 0.10109774 12 26
1.0899217 -0.18935795 0.049960721 72 24
1.0836487 -0.18845016 0 77 22
1.0947411 -0.19079591 -0.050193641 13 20
1.1038368 -0.19279072 -0.097463235 76 18
1.0703938 -0.18995222 0.16458291 77 28
1.078229 -0.19137157 0.10133561 12 26
1.0769303 -0.19114457 0.049378429 83 24
1.0829508 -0.19242066 0 72 22
1.1038997 -0.19638504 -0.050659474 28 20
1.1006722 -0.19639295 -0.097239695 77 18
1.0721538 -0.19413246 0.16496925 72 28
1.0848984 -0.19647932 0.10204925 12 26
1.0787132 -0.19535254 0.049494889 80 24
1.0871904 -0.19710143 0 60 22
1.100751 -0.19978634 -0.050543014 41 20
1.09998 -0.20023382 -0.097239695 74 18
1.066648 -0.19678065 0.16419657 74 28
1.074455 -0.19824985 0.10109774 12 26
1.0805142 -0.19938672 0.049611345 79 24
1.0865309 -0.2007056 0 13 22
1.0976279 -0.20297652 -0.050426558 49 20
1.0968626 -0.20342147 -0.097016148 75 18
1.0611017 -0.19957963 0.16342388 63 28
1.0977376 -0.062105477 0.12996167 9 27
1.0835359 -0.20385939 0.10204925 13 26
1.0847182 -0.20409052 0.049844261 79 24
1.0882796 -0.20496468 0 12 22
1.0944234 -0.20653021 -0.050310094 62 20
1.1010375 -0.2081839 -0.097463235 72 18
1.0627879 -0.20393786 0.16381021 22 28
1.0975026 -0.06612847 0.12996167 29 27
1.0827814 -0.20782937 0.10204925 14 26
1.0815114 -0.20758919 0.049727805 80 24
1.0899752 -0.20942864 0 12 22
1.0961473 -0.21082571 -0.050426558 37 20
1.1002671 -0.212218 -0.097463235 72 18
1.0572233 -0.20668863 0.16303752 14 28
1.0947881 -0.069806695 0.12965873 49 27
1.0796078 -0.21112518 0.10181136 14 26
1.0783303 -0.21087891 0.049611345 79 24
1.0794276 -0.21129145 0 12 22
1.0880556 -0.21319555 -0.050077178 12 20
1.0995195 -0.21605736 -0.097463235 72 18
1.0613382 -0.21135248 0.16381021 14 28
1.0871087 -0.073144779 0.12874991 53 27
1.0789018 -0.21470413 0.10181136 13 26
1.1172265 -0.07548856 0.075481474 7 25
1.0824839 -0.21562719 0.049844261 76 24
1.0811343 -0.21555181 0 12 22
1.0897528 -0.21748587 -0.050193641 11 20
1.0939156 -0.21871625 -0.097016148 74 18
1.0509524 -0.2128893 0.16226484 17 28
1.0893359 -0.076918572 0.12905285 53 27
1.0732695 -0.21747062 0.10133561 62 26
1.1119938 -0.078851134 0.075134434 24 25
1.0793165 -0.21871479 0.049727805 76 24
1.0804136 -0.21913578 0 12 22
1.0938795 -0.22229278 -0.050426558 11 20
1.1004623 -0.22403799 -0.097686768 75 18
1.0501651 -0.21673982 0.16226484 22 28
1.0890467 -0.080910668 0.12905285 53 27
1.0724653 -0.22140288 0.10133561 80 26
1.1042349 -0.082386114 0.074613869 46 25
1.0858417 -0.22419871 0.050077178 72 24
1.0796031 -0.22309422 0 13 22
1.0906523 -0.22559908 -0.050310094 12 20
1.0971967 -0.22755943 -0.097463235 79 18
1.0518183 -0.22091694 0.1626512 24 28
1.0887576 -0.084711663 0.12905285 53 27
1.0692515 -0.22462857 0.10109774 81 26
1.1064274 -0.086428858 0.074787393 49 25
1.0777237 -0.22643255 0.049727805 76 24
1.1211603 -0.087934554 0.025299765 8 23
1.0885997 -0.22893879 0 30 22
1.0849729 -0.22836637 -0.050077178 11 20
1.0939603 -0.23086901 -0.097239695 79 18
1.0558695 -0.22562937 0.16342388 24 28
1.0884552 -0.088511616 0.12905285 54 27
1.0709333 -0.22869775 0.10133561 84 26
1.1086051 -0.09048789 0.07496091 42 25
1.0744857 -0.22966625 0.049611345 32 24
1.1083894 -0.090854064 0.02500963 32 23
1.0780194 -0.23062578 0 41 22
1.0914917 -0.23373546 -0.050426558 12 20
1.0931886 -0.23449543 -0.097239695 72 18
1.0623533 -0.23071687 0.16458291 24 28
1.0856827 -0.091916822 0.12874991 54 27
1.0676976 -0.23190147 0.10109774 81 26
1.1008426 -0.093546703 0.074440353 13 25
1.0737183 -0.2332281 0.049611345 14 24
1.1006098 -0.093908213 0.024835547 47 23
1.0796905 -0.23473534 0 50 22
1.0955889 -0.23842536 -0.050659474 12 20
1.0923635 -0.23830993 -0.097239695 72 18
1.0567199 -0.23334868 0.16381021 25 28
1.0853553 -0.095706001 0.12874991 53 27
1.0668818 -0.23562701 0.10109774 81 26
1.1029941 -0.097603112 0.074613869 11 25
1.0777724 -0.23806162 0.049844261 13 24
1.1002581 -0.097941525 0.024835547 51 23
1.0764246 -0.23795824 0 58 22
1.1151806 -0.099432707 -0.025183709 8 21
1.0898333 -0.24134974 -0.050426558 12 20
1.0915251 -0.24212155 -0.097239695 72 18
1.0582664 -0.23776658 0.16419657 26 28
1.0825255 -0.099461921 0.12844697 53 27
1.066011 -0.23953576 0.10109774 85 26
1.097661 -0.10119826 0.074266829 9 25
1.0793279 -0.2425627 0.049960721 13 24
1.0999095 -0.10178154 0.024835547 53 23
1.0804211 -0.24300881 0 13 22
1.1222761 -0.10419634 -0.025357792 34 21
1.09629 -0.24681234 -0.050775934 12 20
1.0906303 -0.24612056 -0.097239695 74 18
1.0574299 -0.24145918 0.16419657 26 28
1.0871134 -0.10370019 0.12905285 51 27
1.0700611 -0.24418657 0.10157349 77 26
1.1097168 -0.10618971 0.075134434 9 25
1.0833417 -0.24745062 0.050193641 13 24
1.0970591 -0.10538685 0.024777522 54 23
1.0820022 -0.24734065 0 11 22
1.1069943 -0.10651395 -0.02500963 50 21
1.0929885 -0.25007582 -0.050659474 12 20
1.09466 -0.25085783 -0.097686768 74 18
1.0566235 -0.24496442 0.16419657 70 28
1.0842935 -0.10706636 0.12874991 51 27
1.0692022 -0.2479203 0.10157349 74 26
1.0994292 -0.10890775 0.074440353 11 25
1.0752202 -0.24933477 0.049844261 14 24
1.0967035 -0.10902426 0.024777522 54 23
1.0690055 -0.24807721 0 11 22
1.1115907 -0.11086261 -0.025125684 53 21
1.0848588 -0.25198942 -0.050310094 22 20
1.1341304 -0.11306684 -0.07648398 9 19
1.0937777 -0.25467736 -0.097686768 75 18
1.0533588 -0.24808006 0.16381021 83 28
1.0913209 -0.11159129 0.12965873 50 27
1.0683303 -0.25165099 0.10157349 71 26
1.1015238 -0.1129938 0.074613869 11 25
1.0840619 -0.25539634 0.050310094 25 24
1.0987834 -0.11329398 0.024835547 53 23
1.068133 -0.25180724 0 11 22
1.111197 -0.11474212 -0.025125684 46 21
1.0790694 -0.25480646 -0.050077178 79 20
1.116359 -0.11526983 -0.075275436 37 19
1.0928822 -0.25849381 -0.097686768 75 18
1.0596453 -0.25367904 0.16496925 85 28
1.0834997 -0.1148226 0.12874991 50 27
1.0625626 -0.25439626 0.10109774 76 26
1.096141 -0.11651414 0.074266829 11 25
1.0758361 -0.25760883 0.049960721 38 24
1.0958954 -0.11686924 0.024777522 53 23
1.0672028 -0.25572044 0 11 22
1.1132545 -0.11907446 -0.025183709 43 21
1.0781734 -0.25857157 -0.050077178 80 20
1.1084876 -0.11858122 -0.074757479 46 19
1.0919273 -0.26249769 -0.097686768 71 18
1.0587534 -0.25737634 0.16496925 84 28
1.0806247 -0.11833945 0.12844697 50 27
1.0641302 -0.25851077 0.10133561 71 26
1.1056464 -0.12140667 0.07496091 11 25
1.0749303 -0.26136261 0.049960721 47 24
1.0979657 -0.12096211 0.024835547 51 23
1.0760155 -0.26182777 0 11 22
1.1078839 -0.12222824 -0.025067655 47 21
1.0821146 -0.26352486 -0.050310094 79 20
1.1105464 -0.12271833 -0.074930124 47 19
1.0886329 -0.26552242 -0.097463235 68 18
1.057894 -0.26088586 0.16496925 85 28
1.082693 -0.12219503 0.12874991 26 27
1.0656365 -0.26282454 0.10157349 16 26
1.10028 -0.12452252 0.074613869 12 25
1.0740577 -0.26492575 0.049960721 56 24
1.0975586 -0.12460243 0.024835547 51 23
1.0775672 -0.26599845 0 11 22
1.1099344 -0.12637204 -0.025125684 51 21
1.0812347 -0.26711184 -0.050310094 79 20
1.1175693 -0.1272305 -0.075448081 30 19
1.0949469 -0.2711305 -0.098133847 59 18
1.0521873 -0.26336771 0.16419657 81 28
1.0773287 -0.12541087 0.12814403 13 27
1.0622996 -0.26593345 0.10133561 13 26
1.1072721 -0.12921333 0.075134434 12 25
1.0682839 -0.26745066 0.049727805 71 24
1.0921285 -0.12805328 0.024719493 51 23
1.079056 -0.27037066 0 11 22
1.1070036 -0.12995967 -0.025067655 55 21
1.0778277 -0.2704604 -0.050193641 80 20
1.1022525 -0.1294186 -0.074412182 11 19
1.0536073 -0.2678358 0.16458291 80 28
1.0842552 -0.13022979 0.12905285 12 27
1.058907 -0.26920715 0.10109774 13 26
1.1018378 -0.13268542 0.074787393 12 25
1.0721345 -0.2726047 0.049960721 59 24
1.0916749 -0.13186473 0.024719493 51 23
1.070793 -0.27245986 0 12 22
1.1090019 -0.13431124 -0.025125684 55 21
1.076877 -0.27422109 -0.050193641 76 20
1.1067238 -0.13404657 -0.074757479 9 19
1.0502758 -0.27089021 0.16419657 80 28
1.0837941 -0.13401376 0.12905285 12 27
1.0651864 -0.2747812 0.10181136 13 26
1.1038435 -0.13683207 0.07496091 41 25
1.0735933 -0.27697417 0.050077178 13 24
1.093689 -0.13597745 0.024777522 47 23
1.0649967 -0.2749365 0 12 22
1.1060452 -0.13787784 -0.025067655 56 21
1.0783298 -0.27860785 -0.050310094 75 20
1.1037736 -0.13760585 -0.074584827 8 19
1.0493238 -0.27455473 0.16419657 76 28
1.0857822 -0.13810368 0.12935579 11 27
1.0714887 -0.28021535 0.102525 13 26
1.0984099 -0.14006439 0.074613869 51 25
1.0702052 -0.28008294 0.049960721 12 24
1.0932076 -0.1397943 0.024777522 43 23
1.0616134 -0.27801418 0 12 22
1.105582 -0.14154485 -0.025067655 56 21
1.0773506 -0.28237024 -0.050310094 76 20
1.1131846 -0.1427048 -0.075275436 8 19
1.0484076 -0.27803287 0.16419657 75 28
1.0828568 -0.14138775 0.12905285 12 27
1.058483 -0.28073955 0.10133561 13 26
1.0979394 -0.1437061 0.074613869 51 25
1.0765082 -0.28556556 0.050310094 12 24
1.0902342 -0.14328928 0.024719493 35 23
1.0703458 -0.28411791 0 58 22
1.10756 -0.14572382 -0.025125684 55 21
1.0787708 -0.2867755 -0.050426558 72 20
1.1052849 -0.14543569 -0.074757479 9 19
1.0402302 -0.2799333 0.16303752 70 28
1.0774109 -0.14470614 0.12844697 12 27
1.0646524 -0.28657219 0.10204925 17 26
1.0974052 -0.14772928 0.074613869 51 25
1.070634 -0.28820139 0.050077178 12 24
1.0922049 -0.14742288 0.024777522 43 23
1.0668845 -0.28738391 0 77 22
1.1045408 -0.14945255 -0.025067655 55 21
1.0729432 -0.28922987 -0.050193641 74 20
1.1096889 -0.15014376 -0.075102776 9 19
1.0440594 -0.28469062 0.16381021 55 28
1.0818433 -0.14894401 0.12905285 12 27
1.058897 -0.28878188 0.10157349 30 26
1.1018519 -0.15203848 0.07496091 53 25
1.0720804 -0.2924121 0.050193641 12 24
1.086731 -0.15055956 0.024661468 49 23
1.0659257 -0.29092026 0 81 22
1.1089919 -0.15379032 -0.025183709 53 21
1.0791498 -0.29496285 -0.050543014 71 20
1.1042426 -0.15314843 -0.074757479 11 19
1.0358713 -0.28652525 0.1626512 20 28
1.0788323 -0.15256624 0.12874991 12 27
1.0674202 -0.29533464 0.102525 42 26
1.0988173 -0.15573147 0.074787393 50 25
1.0637847 -0.29432729 0.049844261 12 24
1.0911491 -0.15504426 0.024777522 53 23
1.0672604 -0.295497 0 80 22
1.1034706 -0.15715998 -0.025067655 47 21
1.0829244 -0.30007121 -0.050775934 12 20
1.1086136 -0.15788713 -0.075102776 11 19
1.0419954 -0.2921544 0.16381021 13 28
1.0832067 -0.15703218 0.12935579 12 27
1.0640402 -0.29819638 0.10228712 50 26
1.0933293 -0.15885985 0.074440353 50 25
1.0723636 -0.30075526 0.050310094 12 24
1.0906013 -0.15885213 0.024777522 55 23
1.0638165 -0.29854038 0 77 22
1.0955215 -0.15975283 -0.024893576 18 21
1.0746615 -0.30180958 -0.050426558 11 20
1.1006497 -0.16069135 -0.074584827 11 19
1.0433955 -0.29628775 0.16419657 12 28
1.0777688 -0.15990603 0.12874991 13 27
1.0582074 -0.30053931 0.10181136 66 26
1.0952641 -0.16284588 0.074613869 45 25
1.0665585 -0.30293557 0.050077178 12 24
1.0925413 -0.16283077 0.024835547 54 23
1.0652242 -0.30275473 0 80 22
1.0974299 -0.16393976 -0.024951601 11 21
1.0760553 -0.30605951 -0.050543014 11 20
1.1025783 -0.16470341 -0.074757479 11 19
1.0470995 -0.3013038 0.16496925 13 28
1.0845668 -0.16476884 0.12965873 34 27
1.0523714 -0.30284515 0.10133561 22 26
1.0971555 -0.16703802 0.074787393 38 25
1.0750885 -0.3094385 0.050543014 13 24
1.0894657 -0.16646203 0.024777522 54 23
1.0641608 -0.3064712 0 76 22
1.1017938 -0.16851439 -0.025067655 11 21
1.0725284 -0.30930468 -0.050426558 11 20
1.1118615 -0.17003775 -0.075448081 30 19
1.0436182 -0.304443 0.16458291 13 28
1.076597 -0.16761421 0.12874991 53 27
1.0560298 -0.30810392 0.10181136 13 26
1.0965359 -0.17105818 0.074787393 29 25
1.0667595 -0.31126413 0.050193641 13 24
1.0864078 -0.16988331 0.024719493 56 23
1.0630305 -0.31036949 0 74 22
1.0986987 -0.17217003 -0.02500963 11 21
1.0714421 -0.31304663 -0.050426558 11 20
1.1038362 -0.17296968 -0.074930124 50 19
1.0354476 -0.30596969 0.16342388 20 28
1.0735538 -0.17098644 0.12844697 58 27
1.0621034 -0.31391871 0.102525 12 26
1.0910047 -0.17410962 0.074440353 18 25
1.058486 -0.31284806 0.049844261 13 24
1.088277 -0.17406382 0.024777522 55 23
1.0595447 -0.31336442 0 75 22
1.0882162 -0.17444368 -0.024777522 11 21
1.0655564 -0.31535789 -0.050193641 11 20
1.1056893 -0.17721105 -0.075102776 53 19
1.0320084 -0.30886906 0.16303752 20 28
1.0754006 -0.17512614 0.12874991 59 27
1.0586737 -0.31672099 0.10228712 12 26
1.0953149 -0.17870922 0.074787393 38 25
1.0621696 -0.31798288 0.050077178 76 24
1.0851954 -0.17746368 0.024719493 54 23
1.0584444 -0.31706104 0 74 22
1.0900992 -0.17844969 -0.024835547 11 21
1.0644491 -0.31907547 -0.050193641 12 20
1.1026019 -0.18067163 -0.074930124 58 19
1.0451529 -0.3166151 0.16535559 22 28
1.0772628 -0.17909276 0.12905285 60 27
1.0551815 -0.3196882 0.10204925 12 26
1.0922552 -0.18193609 0.074613869 51 25
1.0611092 -0.32150343 0.050077178 83 24
1.087067 -0.18146737 0.024777522 53 23
1.0621692 -0.32202944 0 68 22
1.0968677 -0.18347451 -0.02500963 11 21
1.0633852 -0.32260355 -0.050193641 12 20
1.0995359 -0.18392096 -0.074757479 56 19
1.0393215 -0.31880313 0.16458291 24 28
1.0717362 -0.18203203 0.12844697 62 27
1.0588145 -0.32483885 0.102525 12 26
1.089154 -0.18533476 0.074440353 58 25
1.0575944 -0.32446823 0.049960721 83 24
1.0863947 -0.18545048 0.024777522 50 23
1.0610386 -0.32573512 0 51 22
1.0986849 -0.18771768 -0.025067655 11 21
1.0741237 -0.33019122 -0.050775934 12 20
1.0988872 -0.18775795 -0.074757479 58 19
1.0452176 -0.32482374 0.16574195 24 28
1.0735077 -0.1863779 0.12874991 60 27
1.0599918 -0.32946077 0.10276287 12 26
1.0909253 -0.18974736 0.074613869 60 25
1.0516316 -0.32685041 0.049727805 85 24
1.0882039 -0.18966526 0.024835547 34 23
1.0622234 -0.33036903 0 12 22
1.0930637 -0.19089422 -0.024951601 11 21
1.0729647 -0.3339386 -0.050775934 12 20
1.0981916 -0.19178432 -0.074757479 56 19
1.0393683 -0.32697818 0.16496925 24 28
1.075295 -0.19055149 0.12905285 59 27
1.056463 -0.33240718 0.102525 13 26
1.092713 -0.19398478 0.074787393 60 25
1.0576262 -0.33278212 0.050077178 84 24
1.0850735 -0.19303034 0.024777522 12 23
1.0634468 -0.33483037 0 11 22
1.0973135 -0.19557482 -0.025067655 11 21
1.0765532 -0.33919209 -0.05100885 12 20
1.0975155 -0.19561654 -0.074757479 55 19
1.0359261 -0.32966921 0.16458291 75 28
1.0673282 -0.19280945 0.12814403 59 27
1.052985 -0.3351492 0.10228712 13 26
1.0871536 -0.19672999 0.074440353 60 25
1.0612731 -0.3378118 0.050310094 80 24
1.0918081 -0.19794886 0.024951601 11 23
1.0647111 -0.33911848 0 11 22
1.0991192 -0.19965389 -0.025125684 12 21
1.0659108 -0.33970818 -0.050543014 71 20
1.0944059 -0.19881457 -0.074584827 55 19
1.0371186 -0.33404532 0.16496925 87 28
1.0666486 -0.19653392 0.12814403 60 27
1.0470741 -0.33728713 0.10181136 13 26
1.0864601 -0.20052366 0.074440353 62 25
1.0553366 -0.33997336 0.050077178 81 24
1.086158 -0.2010503 0.024835547 11 23
1.0587652 -0.34128949 0 11 22
1.0934985 -0.20258953 -0.02500963 45 21
1.0694088 -0.34515613 -0.050775934 80 20
1.0937052 -0.20263356 -0.074584827 55 19
1.0335405 -0.33707365 0.16458291 88 28
1.0708009 -0.20134825 0.12874991 58 27
1.0552886 -0.34422842 0.10276287 13 26
1.0857179 -0.20450439 0.074440353 59 25
1.0588286 -0.34539738 0.050310094 79 24
1.0879066 -0.20529851 0.024893576 11 23
1.055132 -0.34438735 0 11 22
1.0952053 -0.20705493 -0.025067655 58 21
1.0634526 -0.34732693 -0.050543014 83 20
1.0954069 -0.20709877 -0.074757479 54 19
1.0417335 -0.34379461 0.16612828 83 28
1.065215 -0.20416161 0.12814403 53 27
1.051719 -0.34712529 0.102525 46 26
1.0825471 -0.20782822 0.074266829 60 25
1.0576165 -0.34909129 0.050310094 77 24
1.0920942 -0.21002799 0.02500963 11 23
1.0515512 -0.34727964 0 11 22
1.0920208 -0.21040919 -0.02500963 63 21
1.0669731 -0.35261354 -0.050775934 80 20
1.0971272 -0.21138766 -0.074930124 46 19
1.0335034 -0.34506786 0.16496925 85 28
1.0766789 -0.21022916 0.12965873 39 27
1.0482029 -0.34981847 0.10228712 81 26
1.0916097 -0.21349898 0.07496091 56 25
1.0563915 -0.35278094 0.050310094 77 24
1.076632 -0.21098775 0.024661468 11 23
1.0645499 -0.35573006 0 11 22
1.0962243 -0.21498054 -0.025125684 63 21
1.0633689 -0.35553929 -0.050659474 80 20
1.1012796 -0.21616612 -0.075275436 18 19
1.0323535 -0.34849319 0.16496925 85 28
1.0686709 -0.21236388 0.12874991 37 27
1.0446192 -0.35267448 0.10204925 84 26
1.0811074 -0.21519202 0.074266829 59 25
1.0552158 -0.35628211 0.050310094 77 24
1.0832828 -0.21600677 0.024835547 11 23
1.0633643 -0.35925826 0 11 22
1.0905633 -0.21783741 -0.02500963 66 21
1.0645484 -0.35986799 -0.050775934 79 20
1.0932163 -0.21836747 -0.074757479 11 19
1.0311307 -0.35209465 0.16496925 80 28
1.0727898 -0.2170663 0.12935579 43 27
1.0433818 -0.35631874 0.10204925 87 26
1.0827951 -0.21945445 0.074440353 50 25
1.0492425 -0.35833976 0.050077178 20 24
1.0800334 -0.21948344 0.024777522 11 23
1.0597398 -0.36215478 0 12 22
1.0897962 -0.22164285 -0.02500963 66 21
1.0655832 -0.36458036 -0.05089239 79 20
1.1046728 -0.22464061 -0.075620733 11 19
1.0298333 -0.35587159 0.16496925 77 28
1.0646923 -0.21951002 0.12844697 50 27
1.0420687 -0.36014053 0.10204925 87 26
1.0795398 -0.22292268 0.074266829 24 25
1.047922 -0.362183 0.050077178 11 24
1.0841579 -0.22425383 0.024893576 11 23
1.0536832 -0.364393 0 12 22
1.0938735 -0.22663909 -0.025125684 63 21
1.0666625 -0.36911899 -0.05100885 79 20
1.1062853 -0.22918858 -0.075793378 11 19
1.0309148 -0.36028379 0.16535559 76 28
1.0639195 -0.22322516 0.12844697 55 27
1.0455643 -0.36524495 0.102525 83 26
1.081197 -0.2271971 0.074440353 12 25
1.0537188 -0.36832476 0.050426558 11 24
1.0784749 -0.22701809 0.024777522 12 23
1.054763 -0.36889881 0 12 22
1.0931159 -0.23026526 -0.025125684 63 21
1.0606567 -0.37118107 -0.050775934 79 20
1.0957125 -0.23101215 -0.075102776 11 19
1.0273871 -0.36287311 0.16496925 74 28
1.0607452 -0.22623989 0.12814403 59 27
1.044283 -0.36889243 0.102525 80 26
1.0828776 -0.23129675 0.074613869 11 25
1.0524915 -0.37181699 0.050426558 11 24
1.0801612 -0.23111069 0.024835547 25 23
1.048823 -0.3707189 0 76 22
1.0874156 -0.23304281 -0.02500963 64 21
1.05942 -0.37469631 -0.050775934 79 20
1.1046996 -0.23671344 -0.075793378 11 19
1.0261142 -0.36645716 0.16496925 77 28
1.0648018 -0.23098242 0.12874991 59 27
1.040647 -0.37169367 0.10228712 80 26
1.0796255 -0.23455125 0.074440353 11 25
1.0511872 -0.37548861 0.050426558 9 24
1.0719773 -0.23348875 0.024661468 50 23
1.049875 -0.37522373 0 81 22
1.0914818 -0.23789099 -0.025125684 60 21
1.0580395 -0.37857679 -0.050775934 75 20
1.1038667 -0.24056813 -0.075793378 11 19
1.0224428 -0.36937162 0.16458291 34 28
1.0566747 -0.23329505 0.12784109 64 27
1.0392778 -0.37550536 0.10228712 79 26
1.0763221 -0.23797368 0.074266829 11 25
1.040416 -0.37592569 0.049960721 11 24
1.073597 -0.23776419 0.024719493 60 23
1.0484927 -0.37906918 0 85 22
1.0857201 -0.24081817 -0.02500963 59 21
1.0590582 -0.38312182 -0.05089239 24 20
1.0981054 -0.24354297 -0.075448081 11 19
1.0281023 -0.37549457 0.16574195 22 28
1.060699 -0.23805805 0.12844697 58 27
1.0356908 -0.37809151 0.10204925 81 26
1.0779194 -0.24227081 0.074440353 12 25
1.0414414 -0.3804166 0.050077178 11 24
1.0752001 -0.24205381 0.024777522 62 23
1.0448167 -0.38186401 0 83 22
1.0897944 -0.24550509 -0.025125684 39 21
1.0530272 -0.38509169 -0.050659474 21 20
1.0948145 -0.24683139 -0.075275436 11 19
1.0222204 -0.3771823 0.16496925 25 28
1.0574831 -0.24102814 0.12814403 58 27
1.0366977 -0.38257071 0.10228712 79 26
1.0868407 -0.24804223 0.075134434 12 25
1.0425154 -0.38473734 0.050193641 11 24
1.0743915 -0.24561797 0.024777522 62 23
1.0505751 -0.38793841 0 77 22
1.0864931 -0.24875522 -0.025067655 12 21
1.0657891 -0.39380196 -0.051358223 37 20
1.0866928 -0.24880673 -0.074757479 11 19
1.027835 -0.38335168 0.16612828 33 28
1.0590541 -0.24527243 0.12844697 55 27
1.037686 -0.38706151 0.102525 70 26
1.0811069 -0.25071841 0.074787393 12 25
1.038828 -0.38749662 0.050077178 11 24
1.0734841 -0.24955417 0.024777522 60 23
1.0492147 -0.39160326 0 77 22
1.0880539 -0.25310725 -0.025125684 11 21
1.0620011 -0.39682701 -0.05124177 47 20
1.0955395 -0.25483754 -0.075448081 12 19
1.0218045 -0.3853637 0.16535559 42 28
1.0557312 -0.24858911 0.12814403 38 27
1.0409138 -0.39262807 0.10300075 12 26
1.0801806 -0.2546792 0.074787393 12 25
1.0374007 -0.39130148 0.050077178 12 24
1.0726063 -0.2532998 0.024777522 62 23
1.0430979 -0.39367148 0 81 22
1.0895523 -0.25766331 -0.025183709 11 21
1.0559403 -0.39875802 -0.05100885 62 20
1.0897413 -0.25771382 -0.075102776 43 19
1.0227593 -0.38981253 0.16574195 51 28
1.0596868 -0.25341624 0.12874991 13 27
1.039537 -0.39625916 0.10300075 11 26
1.0744318 -0.25729731 0.074440353 12 25
1.0453553 -0.39849684 0.050543014 12 24
1.0717156 -0.25704235 0.024777522 60 23
1.0417174 -0.39731014 0 81 22
1.0862148 -0.26088667 -0.025125684 11 21
1.0545418 -0.40244153 -0.05100885 76 20
1.088835 -0.26151615 -0.075102776 54 19
1.0259988 -0.39516506 0.16651464 58 28
1.05397 -0.25595337 0.12814403 12 27
1.0451092 -0.40258288 0.10371439 9 26
1.0711023 -0.26046228 0.074266829 12 25
1.0416296 -0.40124112 0.050426558 53 24
1.070812 -0.26078176 0.024777522 64 23
1.0426551 -0.40184769 0 80 22
1.0901564 -0.26585037 -0.025241738 11 21
1.0554591 -0.40702322 -0.051125307 79 20
1.0879155 -0.26531532 -0.075102776 56 19
1.026913 -0.39964443 0.16690096 67 28
1.0578917 -0.26080802 0.12874991 11 27
1.0437684 -0.40604639 0.10371439 9 26
1.079877 -0.26656899 0.07496091 39 25
1.0402225 -0.40487465 0.050426558 79 24
1.0674675 -0.26392356 0.024719493 60 23
1.0435739 -0.40639654 0 79 22
1.0819863 -0.26767924 -0.025067655 11 21
1.0517067 -0.40979373 -0.05100885 79 20
1.0894052 -0.26970533 -0.075275436 56 19
1.0232853 -0.4021396 0.16651464 71 28
1.057021 -0.26431468 0.12874991 11 27
1.0446589 -0.41060218 0.10395226 9 26
1.0741459 -0.26894772 0.074613869 58 25
1.0388741 -0.40832192 0.050426558 81 24
1.069012 -0.26806444 0.024777522 59 23
1.0491947 -0.41261345 0 75 22
1.0834708 -0.27205786 -0.025125684 11 21
1.052664 -0.41419801 -0.051125307 80 20
1.0860845 -0.27271432 -0.075102776 58 19
1.0218753 -0.40570909 0.16651464 68 28
1.0633119 -0.26981762 0.12965873 11 27
1.0385969 -0.41240028 0.10347651 11 26
1.0732005 -0.27269557 0.074613869 66 25
1.0397617 -0.41287196 0.050543014 80 24
1.065599 -0.27136937 0.024719493 55 23
1.0454266 -0.41534573 0 12 22
1.0873611 -0.27706188 -0.025241738 11 21
1.0488203 -0.417126 -0.05100885 81 20
1.0851259 -0.2765038 -0.075102776 56 19
1.0249623 -0.41130066 0.16728732 66 28
1.057507 -0.27248549 0.12905285 12 27
1.0347707 -0.41527265 0.10323863 11 26
1.0746102 -0.27724493 0.074787393 64 25
1.0405573 -0.41761485 0.050659474 80 24
1.0743301 -0.27756685 0.024951601 30 23
1.041579 -0.41823846 0 13 22
1.0863383 -0.28104538 -0.025241738 11 21
1.0519887 -0.42265555 -0.05124177 76 20
1.0816891 -0.27985972 -0.074930124 58 19
1.0166585 -0.4120785 0.16612828 38 28
1.0541472 -0.27555305 0.12874991 12 27
1.0333148 -0.41888219 0.10323863 11 26
1.0712216 -0.28036818 0.074613869 67 25
1.0367806 -0.42030171 0.050543014 83 24
1.0709356 -0.28068694 0.024893576 12 23
1.0447425 -0.42376015 0 28 22
1.080513 -0.28357738 -0.025125684 11 21
1.052819 -0.42726862 -0.051358223 77 20
1.0855333 -0.28488949 -0.075275436 55 19
1.0220659 -0.41844612 0.16728732 9 28
1.0555788 -0.27986157 0.12905285 12 27
1.0249428 -0.41964388 0.102525 11 26
1.0702366 -0.28410572 0.074613869 66 25
1.0376165 -0.42486903 0.050659474 80 24
1.057865 -0.28123969 0.024603439 12 23
1.0455685 -0.42835665 0 42 22
1.0819331 -0.28798494 -0.025183709 25 21
1.0467036 -0.42903778 -0.051125307 80 20
1.0821207 -0.28804073 -0.075102776 54 19
1.0229534 -0.42278114 0.16767366 8 28
1.0546451 -0.28336045 0.12905285 12 27
1.0281416 -0.42495081 0.10300075 11 26
1.0668788 -0.2870107 0.074440353 64 25
1.0338956 -0.42734906 0.050543014 79 24
1.0593413 -0.28539097 0.024661468 11 23
1.0418339 -0.43086156 0 51 22
1.0761431 -0.29027992 -0.025067655 50 21
1.0498863 -0.434425 -0.051358223 76 20
1.0787501 -0.29098332 -0.074930124 54 19
1.0214714 -0.42634931 0.16767366 8 28
1.0584412 -0.28833389 0.12965873 12 27
1.0381255 -0.43335307 0.10419014 12 26
1.0658704 -0.29073304 0.074440353 62 25
1.0370032 -0.43288854 0.050775934 77 24
1.0607005 -0.28992534 0.024719493 11 23
1.0380186 -0.43352768 0 68 22
1.0775356 -0.29468867 -0.025125684 59 21
1.0482869 -0.43827009 -0.051358223 75 20
1.0825422 -0.2960524 -0.075275436 54 19
1.017628 -0.42912605 0.16728732 8 28
1.0478036 -0.28958875 0.12844697 17 27
1.0296568 -0.43424031 0.10347651 75 26
1.072013 -0.29661697 0.07496091 58 25
1.0331104 -0.43571147 0.050659474 79 24
1.0572721 -0.29296407 0.024661468 11 23
1.0387239 -0.43830568 0 80 22
1.078858 -0.29929894 -0.025183709 58 21
1.0467508 -0.44192666 -0.051358223 75 20
1.0790449 -0.29935667 -0.075102776 53 19
1.0739163 -0.29979393 0.20838203 75 29
1.0183944 -0.43364787 0.16767366 9 28
1.0515685 -0.29457247 0.12905285 51 27
1.0304226 -0.43881145 0.10371439 79 26
1.0685683 -0.29968905 0.074787393 56 25
1.0361745 -0.44128099 0.05089239 79 24
1.0610584 -0.29799372 0.024777522 11 23
1.0371877 -0.44192886 0 76 22
1.0778067 -0.30306301 -0.025183709 54 21
1.0452018 -0.4455778 -0.051358223 76 20
1.0803959 -0.30379128 -0.075275436 54 19
1.0586821 -0.29956263 0.20554042 64 29
1.0191416 -0.43818024 0.16806002 12 28
1.0505339 -0.29824132 0.12905285 59 27
1.0266771 -0.44123882 0.10347651 77 26
1.0651151 -0.30274066 0.074613869 54 25
1.027751 -0.44192222 0.050543014 32 24
1.0552011 -0.30033803 0.024661468 11 23
1.0333443 -0.44455418 0 80 22
1.0719854 -0.30527699 -0.025067655 49 21
1.0459321 -0.45021531 -0.051474687 76 20
1.0793289 -0.30756071 -0.075275436 55 19
1.0553218 -0.30240092 0.20506684 63 29
1.0108912 -0.43859443 0.16690096 12 28
1.0471526 -0.30104315 0.12874991 63 27
1.0251307 -0.4448199 0.10347651 79 26
1.0665038 -0.30695561 0.074787393 45 25
1.0400137 -0.45131955 0.05124177 13 24
1.0637583 -0.30676845 0.024893576 11 23
1.0387381 -0.45097861 0 74 22
1.0781218 -0.31108001 -0.025241738 41 21
1.0466425 -0.45486334 -0.051591143 75 20
1.0807008 -0.31182438 -0.075448081 55 19
1.0518473 -0.30558729 0.20459324 64 29
1.0137974 -0.44428849 0.16767366 12 28
1.0460423 -0.30487913 0.12874991 66 27
1.0234934 -0.44857422 0.10347651 79 26
1.0629756 -0.31016913 0.074613869 17 25
1.033782 -0.45311436 0.05100885 20 24
1.0578797 -0.30908856 0.024777522 11 23
1.0347906 -0.45377433 0 70 22
1.0793748 -0.31572592 -0.025299765 29 21
1.0450484 -0.45851403 -0.051591143 77 20
1.0771554 -0.3150883 -0.075275436 54 19
1.0507743 -0.30925709 0.20459324 66 29
1.0122404 -0.4478246 0.16767366 12 28
1.04259 -0.30783132 0.12844697 63 27
1.0219215 -0.45214415 0.10347651 79 26
1.0690662 -0.31598267 0.075134434 12 25
1.0367576 -0.4587501 0.05124177 34 24
1.0615906 -0.31418735 0.024893576 12 23
1.0377685 -0.45941654 0 11 22
1.0806639 -0.32019648 -0.025357792 13 21
1.0411601 -0.4611434 -0.051474687 76 20
1.076049 -0.31884634 -0.075275436 55 19
1.0543964 -0.31431496 0.20554042 62 29
1.0129243 -0.45236695 0.16806002 11 28
1.0415092 -0.31146878 0.12844697 63 27
1.0272279 -0.45858738 0.10419014 75 26
1.0679567 -0.31971246 0.075134434 11 25
1.0397062 -0.464412 0.051474687 46 24
1.0652788 -0.31931576 0.02500963 35 23
1.0270365 -0.4589386 0 9 22
1.0819917 -0.32449114 -0.025415819 12 21
1.039544 -0.46477494 -0.051474687 74 20
1.0725391 -0.32188883 -0.075102776 55 19
1.0462934 -0.3156985 0.20411965 67 29
1.000169 -0.45062751 0.16612828 45 28
1.045224 -0.31634784 0.12905285 60 27
1.0210872 -0.46011654 0.10371439 76 26
1.0645022 -0.32253426 0.07496091 11 25
1.0313362 -0.46476594 0.051125307 60 24
1.0546409 -0.31996542 0.024777522 51 23
1.0368943 -0.46750164 0 9 22
1.0784595 -0.32754487 -0.025357792 11 21
1.0379971 -0.46821961 -0.051474687 76 20
1.0738537 -0.32616335 -0.075275436 55 19
1.0475341 -0.32006079 0.20459324 66 29
1.0165607 -0.46233228 0.16921906 70 28
1.0464878 -0.32071626 0.12935579 59 27
1.0217379 -0.46471271 0.10395226 76 26
1.0633699 -0.32624811 0.07496091 11 25
1.0297076 -0.46836314 0.051125307 68 24
1.0582423 -0.32528687 0.024893576 54 23
1.0329828 -0.47007835 0 9 22
1.070138 -0.32911894 -0.025183709 12 21
1.0408154 -0.47410008 -0.051707603 72 20
1.0774796 -0.33136567 -0.075620733 53 19
1.0463541 -0.32389802 0.20459324 64 29
1.0126168 -0.46501976 0.1688327 71 28
1.0476769 -0.32528016 0.12965873 55 27
1.0200279 -0.46845445 0.10395226 75 26
1.0669334 -0.33161336 0.07530795 11 25
1.0257167 -0.47108734 0.05100885 75 24
1.0547124 -0.32824141 0.024835547 54 23
1.0335225 -0.47490945 0 9 22
1.0689245 -0.33303899 -0.025183709 46 21
1.0368872 -0.47668281 -0.051591143 72 20
1.0762578 -0.3353126 -0.075620733 55 19
1.047561 -0.32827726 0.20506684 62 29
1.0109874 -0.46855167 0.1688327 74 28
1.044166 -0.3281965 0.12935579 54 27
1.0228982 -0.47411409 0.10442802 74 26
1.0610082 -0.33384898 0.07496091 11 25
1.0263298 -0.47571951 0.051125307 75 24
1.0559456 -0.33266678 0.024893576 50 23
1.0318584 -0.47851425 0 9 22
1.0701407 -0.33751479 -0.025241738 58 21
1.0374802 -0.48135477 -0.051707603 71 20
1.0750809 -0.33906743 -0.075620733 55 19
1.0464089 -0.33193192 0.20506684 63 29
1.0115809 -0.47312865 0.16921906 76 28
1.043014 -0.33183932 0.12935579 51 27
1.0235727 -0.478562 0.1046659 72 26
1.0669703 -0.33980542 0.075481474 11 25
1.0269228 -0.48036167 0.05124177 75 24
1.0571607 -0.3371048 0.024951601 43 23
1.0279195 -0.48104915 0 9 22
1.0690156 -0.34106162 -0.025241738 62 21
1.0606492 -0.49666944 -0.052988645 74 20
1.0715132 -0.34206477 -0.075448081 56 19
1.0429633 -0.33465543 0.20459324 64 29
1.0419079 -0.33529627 0.12935579 35 27
1.0173987 -0.47999942 0.10419014 74 26
1.0610867 -0.34182277 0.075134434 11 25
1.0275806 -0.4848344 0.051358223 70 24
1.0584176 -0.34137052 0.02500963 34 23
1.0353535 -0.48874137 0 9 22
1.0678186 -0.34479114 -0.025241738 62 21
1.0703729 -0.34561616 -0.075448081 55 19
1.0441252 -0.3390469 0.20506684 60 29
1.0383698 -0.33816797 0.12905285 12 27
1.0224518 -0.48677033 0.10490377 71 26
1.0622599 -0.34629235 0.07530795 11 25
1.0236294 -0.48734057 0.05124177 71 24
1.0547816 -0.34447688 0.024951601 20 23
1.0313863 -0.49127305 0 9 22
1.0713633 -0.35005859 -0.025357792 63 21
1.0739048 -0.35088927 -0.075793378 55 19
1.0428755 -0.34287149 0.20506684 62 29
1.0441989 -0.34428695 0.12996167 9 27
1.0206608 -0.49051449 0.10490377 68 26
1.0491335 -0.34630108 0.074440353 11 25
1.0195875 -0.49000293 0.051125307 72 24
1.0511979 -0.34737769 0.024893576 12 23
1.0318297 -0.49613768 0 9 22
1.0676986 -0.35320321 -0.025299765 62 21
1.0702418 -0.35404482 -0.075620733 58 19
1.0416723 -0.34650975 0.20506684 56 29
1.0477023 -0.34948981 0.13056755 9 27
1.0573874 -0.35310006 0.075134434 38 25
1.0223607 -0.49574688 0.051358223 70 24
1.0547231 -0.35261944 0.02500963 11 23
1.0323387 -0.5008319 0 41 22
1.0665215 -0.35674188 -0.025299765 58 21
1.0666327 -0.3569921 -0.075448081 56 19
1.0451744 -0.35151669 0.20601404 55 29
1.0441843 -0.35217431 0.13026461 9 27
1.0514814 -0.35501939 0.074787393 47 25
1.0229524 -0.5002358 0.051474687 72 24
1.0559174 -0.35691017 0.025067655 11 23
1.0239416 -0.5009436 0 70 22
1.0629004 -0.35966659 -0.025241738 59 21
1.0701714 -0.36211571 -0.075793378 53 19
1.0392896 -0.35359207 0.20506684 55 29
1.0429486 -0.35581708 0.13026461 9 27
1.0573213 -0.36109006 0.07530795 43 25
1.0212001 -0.50380355 0.051474687 72 24
1.0546021 -0.36077791 0.025067655 24 23
1.0266662 -0.5067364 0 72 22
1.064005 -0.36417884 -0.025299765 55 21
1.064178 -0.36424407 -0.075448081 54 19
1.0356638 -0.35660499 0.20459324 50 29
1.0439851 -0.36044195 0.13056755 9 27
1.0583497 -0.3657724 0.075481474 38 25
1.048609 -0.3628329 0.024951601 47 23
1.0270375 -0.51161486 0 74 22
1.0602995 -0.36726326 -0.025241738 55 21
1.0675528 -0.36976436 -0.075793378 55 19
1.0367328 -0.36101994 0.20506684 45 29
1.0403758 -0.36327106 0.13026461 9 27
1.0570666 -0.36946452 0.075481474 29 25
1.0473362 -0.36649099 0.024951601 53 23
1.0252453 -0.51519674 0 67 22
1.0542899 -0.36931998 -0.025125684 54 21
1.0874559 -0.38086301 -0.077347234 58 19
1.0401007 -0.36625689 0.20601404 20 29
1.0344179 -0.36525846 0.12965873 11 27
1.0534171 -0.37232617 0.07530795 14 25
1.0484085 -0.3709732 0.02500963 54 23
1.0624251 -0.37631527 -0.025357792 28 21
1.0365013 -0.36906704 0.20554042 12 29
1.0354756 -0.3696962 0.12996167 11 27
1.0497606 -0.37516686 0.075134434 12 25
1.0471072 -0.37463057 0.02500963 54 23
1.0587504 -0.37918398 -0.025299765 11 21
1.0375185 -0.37350917 0.20601404 8 29
1.0388509 -0.3749831 0.13056755 11 27
1.0531396 -0.38051364 0.075481474 11 25
1.0410888 -0.37659338 0.024893576 56 23
1.0668278 -0.38626057 -0.025531873 8 21
1.0338997 -0.37629414 0.20554042 7 29
1.0305362 -0.37607059 0.12965873 25 27
1.0564938 -0.38588849 0.075828515 11 25
1.0444661 -0.38193154 0.02500963 54 23
1.065541 -0.38979617 -0.025531873 9 21
1.0395635 -0.38224655 0.20696121 7 29
1.033944 -0.38119233 0.13026461 47 27
1.0505251 -0.38767323 0.075481474 11 25
1.0478866 -0.38711497 0.025125684 53 23
1.0618278 -0.39265144 -0.025473846 9 21
1.0359201 -0.38502297 0.20648764 7 29
1.0326071 -0.38479915 0.13026461 51 27
1.0491655 -0.3913379 0.075481474 11 25
1.0511471 -0.39269218 0.025241738 50 23
1.0674798 -0.39896545 -0.025647927 8 21
1.0391015 -0.39053416 0.20743483 7 29
1.0288658 -0.38771144 0.12996167 51 27
1.052395 -0.39693075 0.075828515 34 25
1.0450897 -0.39460352 0.025125684 51 23
1.0613308 -0.40111816 -0.025531873 8 21
1.0354352 -0.3932924 0.20696121 7 29
1.0321484 -0.39305645 0.13056755 50 27
1.0440059 -0.39795229 0.07530795 49 25
1.0413688 -0.39736322 0.025067655 50 23
1.0646685 -0.40640807 -0.025647927 9 21
1.0410068 -0.39934617 0.20838203 8 29
1.0308391 -0.39647704 0.13056755 50 27
1.0426805 -0.40141213 0.07530795 50 25
1.0423796 -0.40170807 0.025125684 42 23
1.056242 -0.40743858 -0.025473846 9 21
1.0373157 -0.40209547 0.20790841 8 29
1.0271338 -0.3991791 0.13026461 49 27
1.0459256 -0.40684748 0.075654998 51 25
1.0362387 -0.40372142 0.02500963 13 23
1.0548133 -0.41112307 -0.025473846 9 21
1.026685 -0.40233275 0.20601404 12 29
1.0302874 -0.40474555 0.13087049 47 27
1.0467504 -0.41158575 0.075828515 50 25
1.0394784 -0.4091568 0.025125684 11 23
1.0509721 -0.41407526 -0.025415819 9 21
1.0252743 -0.4059141 0.20601404 39 29
1.0288682 -0.40833944 0.13087049 46 27
1.0429876 -0.41432148 0.075654998 51 25
1.0380437 -0.41278276 0.025125684 9 23
1.0495203 -0.4177413 -0.025415819 37 21
1.0306948 -0.41220981 0.20743483 46 29
1.0274366 -0.41192839 0.13087049 43 27
1.0438515 -0.41888338 0.075828515 50 25
1.0458815 -0.42010987 0.025357792 9 23
1.0411659 -0.41843846 -0.025241738 51 21
1.0270439 -0.41471142 0.20696121 49 29
1.0283674 -0.41625929 0.13117343 38 27
1.0378296 -0.42047974 0.075481474 50 25
1.0398463 -0.42170733 0.025241738 8 23
1.0443347 -0.42394039 -0.025357792 53 21
1.0323417 -0.42123997 0.20838203 47 29
1.0291337 -0.42096001 0.13147637 38 27
1.0385917 -0.4252207 0.075654998 49 25
1.0429231 -0.42740121 0.025357792 9 23
1.0474026 -0.42965233 -0.025473846 54 21
1.0240501 -0.42205012 0.20696121 49 29
1.0253624 -0.42360741 0.13117343 43 27
1.0371011 -0.42884344 0.075654998 49 25
1.0368019 -0.42913747 0.025241738 9 23
1.0458965 -0.4333058 -0.025473846 53 21
1.024839 -0.42656037 0.20743483 49 29
1.0261697 -0.42813444 0.13147637 45 27
1.037901 -0.43341696 0.075828515 47 25
1.042222 -0.43563059 0.025415819 9 23
1.0444539 -0.43677178 -0.025473846 54 21
1.0256841 -0.43090224 0.20790841 49 29
1.0224552 -0.43057698 0.13117343 49 27
1.0410588 -0.43878368 0.076175556 26 25
1.0453814 -0.44101739 0.025531873 9 23
1.0429229 -0.44041491 -0.025473846 53 21
1.0264356 -0.43543354 0.20838203 49 29
1.0232317 -0.43510938 0.13147637 49 27
1.0395207 -0.442415 0.076175556 11 25
1.0414567 -0.44387093 0.025473846 11 23
1.0436804 -0.44502807 -0.025531873 51 21
1.0248328 -0.43919268 0.20838203 49 29
1.02163 -0.43885675 0.13147637 49 27
1.0355991 -0.44524202 0.076002039 8 25
1.0399009 -0.44750363 0.025473846 22 23
1.0443397 -0.44983411 -0.0255899 51 21
1.0210385 -0.44179758 0.20790841 49 29
1.0178133 -0.44143793 0.13117343 50 27
1.0431981 -0.45280647 0.07669612 8 25
1.0314492 -0.44815782 0.025299765 46 23
1.0474309 -0.45527759 -0.025705952 50 21
1.0195678 -0.44518101 0.20790841 49 29
1.020895 -0.44679055 0.13177931 50 27
1.0348309 -0.45327637 0.076175556 8 25
1.0345397 -0.45357296 0.025415819 50 23
1.0389628 -0.45593286 -0.025531873 46 21
1.0180076 -0.44873723 0.20790841 49 29
1.0216012 -0.45134926 0.13208227 49 27
1.0332423 -0.45688587 0.076175556 8 25
1.0260078 -0.4543407 0.025241738 51 23
1.0419396 -0.46157151 -0.025647927 20 21
1.0163561 -0.45246542 0.20790841 47 29
1.0176717 -0.4540844 0.13177931 50 27
1.0361198 -0.46269381 0.076522596 8 25
1.0312674 -0.46096429 0.025415819 51 23
1.040241 -0.46538734 -0.025647927 9 21
1.0170118 -0.45701158 0.20838203 47 29
1.0183454 -0.45864809 0.13208227 49 27
1.0367743 -0.46732768 0.07669612 8 25
1.0342131 -0.46660715 0.025531873 50 23
1.0477302 -0.47311053 -0.025880035 8 21
1.0198858 -0.46257678 0.2093292 46 29
1.0189996 -0.46322197 0.13238519 49 27
1.0374089 -0.47197172 0.076869637 8 25
1.030301 -0.4691835 0.025473846 50 23
1.0415195 -0.47470152 -0.025763981 8 21
1.0228151 -0.46798915 0.2102764 43 29
1.0174578 -0.46659851 0.13238519 47 27
1.0381069 -0.47644472 0.077043161 8 25
1.0332034 -0.47485471 0.0255899 50 23
1.0422126 -0.47919196 -0.025822006 8 21
1.0157409 -0.47032458 0.13238519 47 27
1.0318235 -0.47815892 0.07669612 11 25
1.0315396 -0.47845837 0.0255899 50 23
1.0563335 -0.49034154 -0.026228197 8 21
1.0185939 -0.47595853 0.13299108 47 27
1.0346711 -0.48386103 0.077043161 34 25
1.0253314 -0.47994688 0.025473846 50 23
1.0500847 -0.49191496 -0.026112143 8 21
1.02142 -0.48161808 0.13359696 47 27
1.0239449 -0.48323169 0.07634908 46 25
1.0304365 -0.48671079 0.025647927 49 23
1.0507096 -0.49645737 -0.026170168 8 21
1.0268451 -0.48875853 0.07669612 47 25
1.0264727 -0.48923418 0.0255899 50 23
1.0376788 -0.49476767 -0.025880035 9 21
1.0227966 -0.49144357 0.076522596 47 25
1.0292681 -0.49497098 0.025705952 49 23
1.0403671 -0.50072592 -0.025996089 12 21
1.0230322 -0.49638832 0.0255899 50 23
1.0363622 -0.50326741 -0.02593806 26 21
1.0280347 -0.50323856 0.025763981 49 23
1.0301938 -0.50451249 -0.025822006 45 21
1.0263603 -0.5066449 0.025763981 50 23
1.0329126 -0.51030999 -0.02593806 51 21
1.0288858 -0.5128023 -0.025880035 59 21
1.0292345 -0.51768821 -0.02593806 58 21
