# .PCD v0.7 - Point Cloud Data file format
VERSION 0.7
FIELDS x y z intensity ring
SIZE 4 4 4 4 2
TYPE F F F F U
COUNT 1 1 1 1 1
WIDTH 1325
HEIGHT 1
VIEWPOINT 0 0 0 1 0 0 0
POINTS 1325
DATA ascii
-2.1721466 -1.8842312 0.75795364 46 31
-2.0535691 -1.3470061 0.56027108 50 30
-2.1641314 -1.873989 0.545582 46 29
-2.040338 -1.339341 0.37629989 51 28
-2.1534872 -1.8614995 0.3432321 45 27
-2.0451641 -1.3424883 0.23050283 51 26
-2.1628654 -1.8683087 0.19642535 45 25
-2.0479841 -1.3443285 0.11261543 50 24
-2.1567562 -1.8617152 0.065338381 42 23
-2.0441399 -1.3412997 0 50 22
-2.1630795 -1.8658648 -0.065512463 45 21
-2.0463638 -1.3422457 -0.11249897 51 20
-2.1661081 -1.8684736 -0.19561252 44 19
-2.0474124 -1.3414077 -0.21660979 50 18
-2.17048 -1.8722432 -0.32411179 44 17
-2.0553615 -1.3455878 -0.3364746 49 16
-2.1629641 -1.867043 -0.49208426 44 15
-2.0540276 -1.3406763 -0.69196194 50 13
-2.1641214 -1.868679 -0.64686722 45 14
-1.8050153 -1.1758152 -0.73304641 18 12
-0.4233897 -0.36449912 -0.21183558 4 11
-0.4436219 -0.28906953 -0.26264516 4 9
nan nan nan 0 10
-0.3394039 -0.22105236 -0.22372375 35 8
-0.23645696 -0.20403074 -0.18776564 4 7
-0.27783793 -0.18036816 -0.22567897 17 6
nan nan nan 0 5
-0.17162254 -0.11168459 -0.16238701 35 4
nan nan nan 0 3
nan nan nan 0 2
nan nan nan 0 1
nan nan nan 0 0
-2.167738 -1.8671695 0.75408655 46 31
-2.0460038 -1.3318682 0.55688918 50 30
-2.1576409 -1.8552094 0.54226685 46 29
-2.0367177 -1.3268255 0.37475452 50 28
-2.1524453 -1.8474995 0.34202033 45 27
-2.0435784 -1.3312716 0.22978921 50 26
-2.1580241 -1.8509954 0.19538422 44 25
-2.0442896 -1.3317266 0.1121496 50 24
-2.1537607 -1.8460346 0.065048248 44 23
-2.0404246 -1.3287069 0 50 22
-2.1544046 -1.8452828 -0.065048248 45 21
-2.0405657 -1.3282918 -0.11191668 50 20
-2.1574745 -1.8479086 -0.19423133 44 19
-2.0416386 -1.3274754 -0.21549208 50 18
-2.169462 -1.8581858 -0.32297453 45 17
-2.0496573 -1.3316691 -0.33475438 50 16
-2.1601253 -1.8514594 -0.48993731 44 15
-2.0526395 -1.3295838 -0.68989849 50 13
-2.1539936 -1.8468231 -0.64184409 42 14
-1.8091087 -1.1695074 -0.73304641 19 12
-0.41764069 -0.35696268 -0.20808628 4 11
-0.43719023 -0.28275698 -0.25795507 3 9
nan nan nan 0 10
-0.33476186 -0.21641469 -0.21984413 35 8
-0.23872791 -0.20456514 -0.18916689 4 7
-0.27510533 -0.17726868 -0.22264971 22 6
nan nan nan 0 5
-0.17507304 -0.11300543 -0.16584206 37 4
nan nan nan 0 3
nan nan nan 0 2
nan nan nan 0 1
nan nan nan 0 0
-2.1632364 -1.8501616 0.7502194 45 31
-2.0444992 -1.3207589 0.55519819 50 30
-2.1529105 -1.8380932 0.53942525 46 29
-2.0309594 -1.3130124 0.37282279 49 28
-2.1532192 -1.8351406 0.34111151 45 27
-2.0419395 -1.3200823 0.22907558 50 26
-2.1530883 -1.8337389 0.1943431 44 25
-2.0426302 -1.3205206 0.11180022 50 24
-2.1525838 -1.8320192 0.06481614 42 23
-2.0366464 -1.3161564 0 51 22
-2.1551254 -1.8328886 -0.064874165 45 21
-2.0367942 -1.3157481 -0.11145084 50 20
-2.1544197 -1.8322794 -0.19336808 44 19
-2.0378859 -1.3149482 -0.21459794 50 18
-2.1608098 -1.8377156 -0.32070008 42 17
-2.045964 -1.3191468 -0.3333782 49 16
-2.1572042 -1.8359185 -0.48779032 42 15
-2.049176 -1.3172197 -0.68714714 50 13
-2.1530104 -1.8329675 -0.6396116 42 14
-1.8131801 -1.1631852 -0.73304641 19 12
-0.42240411 -0.35851857 -0.20996094 4 11
-0.44562915 -0.28596547 -0.26264516 3 9
nan nan nan 0 10
-0.3373231 -0.21638905 -0.22113733 31 8
-0.23318084 -0.19830826 -0.18356194 4 7
-0.27572241 -0.17630731 -0.22264971 22 6
nan nan nan 0 5
-0.1846716 -0.11812332 -0.17620718 37 4
nan nan nan 0 3
nan nan nan 0 2
nan nan nan 0 1
nan nan nan 0 0
-2.1608031 -1.8343961 0.74699688 46 31
-2.0411186 -1.3080077 0.55294359 50 30
-2.146534 -1.8190694 0.5361101 46 29
-2.0295172 -1.3015654 0.37166375 50 28
-2.1447854 -1.8144013 0.33868799 43 27
-2.0381517 -1.307579 0.22812408 51 26
-2.150279 -1.8177764 0.1934755 45 25
-2.0348361 -1.304948 0.11110147 53 24
-2.1478367 -1.81443 0.064467974 45 23
-2.0372448 -1.3059883 0 53 22
-2.1500616 -1.8156694 -0.064526007 45 21
-2.0373955 -1.3055832 -0.11121793 51 20
-2.1515992 -1.8163183 -0.19250482 43 19
-2.0382674 -1.3051451 -0.21415086 51 18
-2.1561515 -1.8201603 -0.31899422 46 17
-2.0463824 -1.3093317 -0.33269012 51 16
-2.1526387 -1.8184539 -0.48521399 45 15
-2.0438509 -1.3032484 -0.68370795 51 13
-2.1500974 -1.8175665 -0.63682097 43 14
-1.8174312 -1.1565318 -0.73304641 20 12
-0.42365301 -0.35704193 -0.20996094 4 11
-0.44102135 -0.2808755 -0.25912759 3 9
-0.42090893 -0.35528252 -0.24233407 3 10
-0.33264083 -0.21179655 -0.21725774 29 8
-0.26373371 -0.22309905 -0.21018544 4 7
-0.27802384 -0.17639631 -0.22416434 28 6
nan nan nan 0 5
-0.19123283 -0.12127631 -0.18311726 42 4
nan nan nan 0 3
nan nan nan 0 2
nan nan nan 0 1
nan nan nan 0 0
-2.155803 -1.8178678 0.74312973 47 31
-2.03722 -1.29601 0.55068898 51 30
-2.1431713 -1.8040289 0.53374207 46 29
-2.0213134 -1.2868807 0.36934566 51 28
-2.1412981 -1.7992883 0.33717328 43 27
-2.0364015 -1.2964526 0.22741044 54 26
-2.1505697 -1.8058196 0.19295494 46 25
-2.0307212 -1.2928363 0.11063564 53 24
-2.1426764 -1.7972744 0.064119816 43 23
-2.0373437 -1.2965446 0 53 22
-2.150645 -1.8033307 -0.064351924 45 21
-2.0356145 -1.294449 -0.11086854 51 20
-2.1480618 -1.8011527 -0.19164157 43 19
-2.038605 -1.2953554 -0.21370378 51 18
-2.1510792 -1.8030396 -0.31728837 45 17
-2.0425737 -1.2968789 -0.33131394 51 16
-2.1476595 -1.8014221 -0.48263761 45 15
-2.0422909 -1.2922564 -0.68164444 51 13
-2.1452377 -1.8006401 -0.6334722 42 14
-1.819458 -1.1489214 -0.73222917 20 12
-0.42850018 -0.35847735 -0.21183558 4 11
-0.44199908 -0.27933434 -0.25912759 4 9
-0.41869196 -0.3508876 -0.24020834 3 10
-0.34794301 -0.21962595 -0.22760335 26 8
-0.25663799 -0.21545537 -0.20317924 4 7
-0.28035998 -0.17642243 -0.22567897 25 6
nan nan nan 0 5
-0.19938099 -0.12529434 -0.19175488 33 4
nan nan nan 0 3
nan nan nan 0 2
nan nan nan 0 1
nan nan nan 0 0
-2.1513457 -1.8006423 0.73926258 46 31
-2.0357735 -1.2846409 0.548998 51 30
-2.1403573 -1.7882838 0.5313741 46 29
-2.0260165 -1.2794634 0.36934566 51 28
-2.1383569 -1.7834724 0.33565858 42 27
-2.0348237 -1.2849995 0.2266968 51 26
-2.1514306 -1.7931299 0.19243439 44 25
-2.0312204 -1.2827216 0.11040271 51 24
-2.1412609 -1.7833796 0.063887708 44 23
-2.0378518 -1.2864035 0 51 22
-2.1457224 -1.7858329 -0.064003766 42 21
-2.027442 -1.2793511 -0.1101698 51 20
-2.1431558 -1.7836848 -0.19060567 44 19
-2.0391238 -1.2852234 -0.2132567 51 18
-2.1497293 -1.7891577 -0.31615114 45 17
-2.0389273 -1.2841132 -0.32993779 50 16
-2.1482618 -1.789181 -0.48134944 45 15
-2.0406797 -1.2812912 -0.67958099 51 13
-2.1405981 -1.7833964 -0.63012344 42 14
-1.8234574 -1.1425632 -0.73222917 22 12
-0.427973 -0.35549036 -0.21089825 4 11
-0.43739152 -0.27421996 -0.25561002 3 9
-0.42684379 -0.35524675 -0.24445981 3 10
-0.34506762 -0.21616027 -0.22501695 21 8
-0.27002257 -0.22526889 -0.21438913 6 7
-0.27758381 -0.1733619 -0.22264971 27 6
nan nan nan 0 5
-0.19827287 -0.12365905 -0.19002736 35 4
nan nan nan 0 3
nan nan nan 0 2
nan nan nan 0 1
nan nan nan 0 0
-2.1464803 -1.7838486 0.73539555 46 31
-2.0299175 -1.2710736 0.54617971 51 30
-2.1409228 -1.7760947 0.5299533 44 29
-2.0220935 -1.2671452 0.3678003 51 28
-2.1331098 -1.7664902 0.33384094 42 27
-2.0350766 -1.27525 0.22622107 51 26
-2.1461568 -1.7760587 0.19139326 42 25
-2.0272162 -1.2703271 0.10993688 51 24
-2.1359251 -1.7663273 0.06353955 44 23
-2.0338502 -1.2739817 0 51 22
-2.144242 -1.7719568 -0.063771658 44 21
-2.0297775 -1.2709428 -0.11005334 51 20
-2.1378417 -1.7666504 -0.18956977 44 19
-2.0393727 -1.2754608 -0.21280962 51 18
-2.1502216 -1.7768914 -0.31529823 44 17
-2.0349927 -1.2717468 -0.3285616 50 16
-2.1450112 -1.7738153 -0.47920248 45 15
-2.0349336 -1.2678148 -0.6761418 50 13
-2.1393049 -1.7696936 -0.62789094 42 14
-1.8274345 -1.1361912 -0.73222917 27 12
-0.42743018 -0.35251135 -0.20996094 4 11
-0.44022626 -0.27384913 -0.25678253 3 9
-0.42808121 -0.35375467 -0.24445981 3 10
-0.34582004 -0.21495444 -0.22501695 23 8
-0.26922336 -0.22299166 -0.2129879 6 7
-0.27818727 -0.17239189 -0.22264971 31 6
nan nan nan 0 5
-0.20798852 -0.12856519 -0.20039248 35 4
nan nan nan 0 3
nan nan nan 0 2
nan nan nan 0 1
nan nan nan 0 0
-2.1433852 -1.7686499 0.73217291 46 31
-2.0302022 -1.2614132 0.54505247 50 30
-2.1376431 -1.7607988 0.52758533 44 29
-2.0181091 -1.2548698 0.36625493 51 28
-2.1296861 -1.7511444 0.3323262 44 27
-2.0371799 -1.2671818 0.22598319 51 26
-2.1388648 -1.7574613 0.19017862 42 25
-2.0273941 -1.2606097 0.10970397 53 24
-2.1324265 -1.7509221 0.063249409 44 23
-2.0340357 -1.264239 0 51 22
-2.1385233 -1.7553121 -0.063423492 42 21
-2.0320787 -1.2625337 -0.10993688 51 20
-2.1343622 -1.7512586 -0.18870652 44 19
-2.0351245 -1.2634454 -0.21191546 51 18
-2.1468174 -1.7614888 -0.31387669 44 17
-2.0307772 -1.259778 -0.32718542 51 16
-2.14168 -1.7584941 -0.47705549 44 15
-2.0332098 -1.2569181 -0.67407829 51 13
-2.1338727 -1.753297 -0.62454218 44 14
-1.8334017 -1.1310438 -0.73304641 31 12
-0.42859679 -0.35109201 -0.20996094 4 11
-0.44489998 -0.27469051 -0.25912759 3 9
-0.42582843 -0.34937108 -0.24233407 3 10
-0.333738 -0.20601904 -0.21596454 21 8
-0.28906292 -0.23798385 -0.22980274 6 7
-0.28045961 -0.17249729 -0.22416434 29 6
nan nan nan 0 5
-0.21151495 -0.12973082 -0.20384751 37 4
nan nan nan 0 3
nan nan nan 0 2
nan nan nan 0 1
nan nan nan 0 0
-2.1380379 -1.7523353 0.72830582 45 31
-2.028151 -1.250844 0.54336149 51 30
-2.1301811 -1.7428076 0.52427018 42 29
-2.0180533 -1.2455801 0.36548224 51 28
-2.1277988 -1.7377869 0.33111444 45 27
-2.0309961 -1.2535374 0.22479379 51 26
-2.1388886 -1.745623 0.18965805 44 25
-2.0273108 -1.2512604 0.10947105 53 24
-2.1266086 -1.7343532 0.062901251 44 23
-2.0318303 -1.2535547 0 53 22
-2.1349576 -1.7399331 -0.063133359 44 21
-2.0277474 -1.2505527 -0.10947105 50 20
-2.1285665 -1.7347074 -0.18767062 44 19
-2.0310376 -1.2511181 -0.2110213 51 18
-2.141103 -1.7449349 -0.3121708 42 17
-2.0330524 -1.2513856 -0.32684138 50 16
-2.1398706 -1.7451494 -0.47533792 44 15
-2.0312171 -1.2464033 -0.67201477 51 13
-2.1305459 -1.7381268 -0.62175155 44 14
-1.8411746 -1.127421 -0.73468083 31 12
-0.42802852 -0.34812298 -0.20902361 4 11
-0.44019204 -0.26970151 -0.25561002 3 9
-0.4304792 -0.35083261 -0.24445981 3 10
nan nan nan 0 8
-0.28029275 -0.22908898 -0.22139531 8 7
-0.27253124 -0.16640277 -0.21659121 31 6
nan nan nan 0 5
-0.21041265 -0.12806909 -0.20212001 37 4
nan nan nan 0 3
nan nan nan 0 2
nan nan nan 0 1
nan nan nan 0 0
-2.1385252 -1.7402824 0.72637224 44 31
-2.0304263 -1.2424874 0.54279786 50 30
-2.1286356 -1.7291633 0.52237582 44 29
-2.0181737 -1.235952 0.36470953 51 28
-2.1222954 -1.7209604 0.32929683 44 27
-2.026865 -1.2412492 0.22384228 51 26
-2.1314151 -1.7271433 0.18844341 44 25
-2.0274045 -1.2415717 0.10923813 53 24
-2.1213031 -1.7171016 0.062553085 45 23
-2.0297935 -1.2425448 0 53 22
-2.1274273 -1.721453 -0.062727168 44 21
-2.0237908 -1.2379075 -0.10900521 51 20
-2.1268594 -1.7209846 -0.18698002 45 19
-2.0311406 -1.2414277 -0.21057424 51 18
-2.1378355 -1.729257 -0.31074926 44 17
-2.02895 -1.2391267 -0.3254652 51 16
-2.1366878 -1.7295383 -0.47319096 44 15
-2.0296087 -1.2352074 -0.66995126 51 13
-2.1271389 -1.7230015 -0.61896098 42 14
-1.8473153 -1.1218896 -0.73549807 31 12
-0.43289471 -0.34948024 -0.21089825 4 11
-0.44869888 -0.27271608 -0.2603001 4 9
-0.42124692 -0.34066421 -0.2380826 3 10
nan nan nan 0 8
-0.27633709 -0.22411014 -0.21719161 8 7
-0.27655828 -0.16743605 -0.21962045 32 6
nan nan nan 0 5
-0.21088064 -0.12729704 -0.20212001 40 4
nan nan nan 0 3
nan nan nan 0 2
nan nan nan 0 1
nan nan nan 0 0
-2.1336229 -1.723316 0.72250515 44 31
-2.0307999 -1.2325138 0.5416705 50 30
-2.1235018 -1.712095 0.51953423 42 29
-2.0184658 -1.2259865 0.36393687 51 28
-2.1169977 -1.7038243 0.32747915 44 27
-2.0228877 -1.2286524 0.22289078 51 26
-2.128021 -1.7114959 0.18757579 44 25
-2.0255342 -1.2302493 0.10888875 53 24
-2.1194971 -1.7034166 0.062320981 45 23
-2.0257814 -1.2299154 0 51 22
-2.1298282 -1.7105106 -0.062611118 45 21
-2.0259638 -1.2295423 -0.10888875 51 20
-2.1234369 -1.7053603 -0.18611677 45 19
-2.0292854 -1.2301084 -0.2099036 51 18
-2.1303127 -1.7108847 -0.30875912 42 17
-2.031359 -1.2304008 -0.32512116 51 16
-2.1312022 -1.7128019 -0.47061461 45 15
-2.0297909 -1.2256345 -0.66857558 53 13
-2.1258485 -1.7090791 -0.61672848 44 14
-1.8613453 -1.1215205 -0.73958415 36 12
-0.43411195 -0.34796703 -0.21089825 4 11
-0.44021448 -0.2654134 -0.25443748 4 9
-0.42594853 -0.34204221 -0.24020834 3 10
nan nan nan 0 8
-0.28512961 -0.22969954 -0.22419778 8 7
-0.27542803 -0.16545899 -0.21810584 35 6
nan nan nan 0 5
-0.21288413 -0.12747163 -0.20384751 42 4
nan nan nan 0 3
nan nan nan 0 2
nan nan nan 0 1
nan nan nan 0 0
-2.1339762 -1.7113189 0.72057158 45 31
-2.0267389 -1.2203996 0.5394159 50 30
-2.1218054 -1.6985289 0.51763982 45 29
-2.0163827 -1.2151144 0.3627778 53 28
-2.1151834 -1.6902205 0.32626739 45 27
-2.0248187 -1.2206546 0.2226529 53 26
-2.1222978 -1.6947094 0.18653467 45 25
-2.0276763 -1.2218844 0.1087723 54 24
-2.1176214 -1.6897652 0.062088873 46 23
-2.023634 -1.2189726 0 53 22
-2.1218214 -1.6925163 -0.062204923 46 21
-2.0216808 -1.2173179 -0.10842291 53 20
-2.1235311 -1.6932678 -0.18559882 46 19
-2.0269492 -1.2195272 -0.20923299 53 18
-2.13045 -1.6987873 -0.30790621 46 17
-2.0290575 -1.2198362 -0.32408905 54 16
-2.1256256 -1.696125 -0.46803826 46 15
-2.0278678 -1.2148421 -0.66651207 53 13
-2.1238928 -1.6959308 -0.61449599 45 14
-1.8875699 -1.1283278 -0.74857354 43 12
-0.43887642 -0.3494294 -0.21277291 4 11
-0.45249173 -0.27070189 -0.26147261 3 9
-0.42361492 -0.33771506 -0.2380826 3 10
nan nan nan 0 8
-0.28914359 -0.23131378 -0.22700027 8 7
-0.27769157 -0.16554971 -0.21962045 32 6
nan nan nan 0 5
-0.2195594 -0.13039012 -0.21075761 47 4
nan nan nan 0 3
nan nan nan 0 2
nan nan nan 0 1
nan nan nan 0 0
-2.1283114 -1.6951931 0.71670449 43 31
-2.0265911 -1.2111771 0.53828865 51 30
-2.1159065 -1.6823068 0.51479828 42 29
-2.0161593 -1.2058896 0.36200514 51 28
-2.1091225 -1.6739302 0.32444978 45 27
-2.0162454 -1.2059267 0.22122565 51 26
-2.1181428 -1.6799046 0.18566707 44 25
-2.0209951 -1.2087544 0.10819001 53 24
-2.1192987 -1.6796252 0.061972816 46 23
-2.0212243 -1.2084126 0 53 22
-2.1159692 -1.6757785 -0.061856765 46 21
-2.0171273 -1.2054908 -0.10795708 51 20
-2.1232729 -1.681566 -0.18508086 45 19
-2.0204976 -1.2060733 -0.20811529 53 18
-2.126343 -1.6839941 -0.30648464 45 17
-2.024792 -1.2076803 -0.32271287 51 16
-2.1235232 -1.6829408 -0.46632069 45 15
-2.0298178 -1.2068843 -0.66582423 51 13
-2.116442 -1.6778969 -0.61058903 45 14
-1.9461981 -1.1545539 -0.77063847 47 12
-0.43103582 -0.34066728 -0.20808628 4 11
-0.44581857 -0.26464748 -0.25678253 3 9
-0.42826688 -0.33913499 -0.24020834 3 10
nan nan nan 0 8
-0.29474288 -0.23425408 -0.23120397 8 7
-0.27654788 -0.16358039 -0.21810584 32 6
-0.14879753 -0.11723791 -0.13084011 18 5
-0.21531343 -0.12692045 -0.20557503 51 4
nan nan nan 0 3
nan nan nan 0 2
nan nan nan 0 1
nan nan nan 0 0
-2.1228561 -1.6787534 0.71283734 44 31
-2.0224216 -1.1991348 0.53603399 50 30
-2.1102135 -1.6657741 0.51195669 45 29
-2.0076041 -1.191294 0.35968706 53 28
-2.1091094 -1.6619446 0.32354093 45 27
-2.0161595 -1.1963454 0.22074988 53 26
-2.1122456 -1.6632324 0.18462594 46 25
-2.0166068 -1.1966032 0.10772417 54 24
-2.115335 -1.6644808 0.061682686 46 23
-2.018976 -1.1975298 0 55 22
-2.1139526 -1.6621957 -0.061624657 46 21
-2.0127256 -1.1933559 -0.10749125 53 20
-2.1173751 -1.664884 -0.18404497 46 19
-2.0182643 -1.1952127 -0.20744468 54 18
-2.120502 -1.6673393 -0.30477878 46 17
-2.0247307 -1.1980872 -0.32202476 53 16
-2.1235828 -1.6709441 -0.46503252 46 15
-2.0278041 -1.196134 -0.66376072 54 13
-2.1184595 -1.6674808 -0.60947281 46 14
-2.013376 -1.1848385 -0.79597235 54 12
-0.43403891 -0.34059989 -0.20902361 4 11
-0.44864738 -0.26420131 -0.25795507 4 9
-0.42235959 -0.33200964 -0.23595686 3 10
nan nan nan 0 8
-0.2923272 -0.23063479 -0.2284015 9 7
-0.28056389 -0.16460001 -0.22113508 35 6
-0.15365945 -0.12031397 -0.13568604 18 5
-0.22203405 -0.12974949 -0.21248513 46 4
nan nan nan 0 3
nan nan nan 0 2
nan nan nan 0 1
nan nan nan 0 0
-2.1192107 -1.6638658 0.70961481 45 31
-2.0139916 -1.1846706 0.53265208 53 30
-2.1102233 -1.6538501 0.5105359 45 29
-2.0053613 -1.1805259 0.35852802 51 28
-2.1090386 -1.6499797 0.3226321 45 27
-2.0160317 -1.1867795 0.22027414 53 26
-2.1121483 -1.6512358 0.18410538 46 25
-2.0164647 -1.1870267 0.10749125 53 24
-2.1132596 -1.6509249 0.061450578 45 23
-2.0145204 -1.1854116 0 54 22
-2.1118672 -1.6486473 -0.061392549 46 21
-2.0104179 -1.1825308 -0.10714187 51 20
-2.1153157 -1.6513368 -0.18335438 45 19
-2.0159798 -1.1843827 -0.20677406 54 18
-2.1184833 -1.6538064 -0.30364156 44 17
-2.0224905 -1.1872574 -0.32099265 53 16
-2.1158268 -1.6528955 -0.46202677 46 15
-2.0215893 -1.1829889 -0.66032153 51 13
-2.1165922 -1.6540667 -0.60724032 44 14
-2.0154579 -1.1766142 -0.79515511 53 12
-0.4370468 -0.34051564 -0.20996094 4 11
-0.45721325 -0.2670536 -0.26264516 4 9
-0.42706999 -0.33333507 -0.2380826 3 10
nan nan nan 0 8
-0.29637107 -0.2321907 -0.23120397 8 7
-0.27595633 -0.16065881 -0.21659121 36 6
-0.16152203 -0.12574454 -0.14376259 18 5
-0.22563128 -0.1307534 -0.21594018 45 4
nan nan nan 0 3
nan nan nan 0 2
nan nan nan 0 1
nan nan nan 0 0
-2.1138713 -1.6471686 0.70574766 45 31
-2.0162151 -1.1760559 0.5320884 50 30
-2.1027176 -1.6355423 0.50722075 44 29
-2.0032718 -1.1694384 0.35736901 53 28
-2.1072371 -1.6361437 0.32142034 44 27
-2.0096154 -1.1731194 0.21908475 54 26
-2.1122792 -1.6388915 0.18358482 46 25
-2.0143282 -1.1758573 0.10714187 53 24
-2.1074536 -1.6339687 0.061102413 45 23
-2.0123701 -1.1742463 0 54 22
-2.1119726 -1.6362984 -0.06121847 46 21
-2.0082636 -1.1713856 -0.1067925 51 20
-2.1095331 -1.634397 -0.18231846 45 19
-2.0138493 -1.1732317 -0.20610344 54 18
-2.1147203 -1.6384158 -0.30222002 44 17
-2.0204046 -1.1761056 -0.3199605 51 16
-2.1102006 -1.6360643 -0.45945039 46 15
-2.0196714 -1.1719586 -0.65825808 51 13
-2.111095 -1.6373262 -0.60389155 42 14
-2.0177109 -1.1680375 -0.79433787 53 12
-0.43098462 -0.33320653 -0.20621163 4 11
-0.45244208 -0.2620821 -0.25912759 3 9
-0.4229424 -0.32758445 -0.23489399 4 10
-0.3728404 -0.21565361 -0.23924215 4 8
-0.29559511 -0.22981998 -0.22980274 9 7
-0.27308249 -0.15768507 -0.21356197 36 6
-0.16795412 -0.12990396 -0.15022384 18 5
-0.22610898 -0.12992553 -0.21594018 46 4
nan nan nan 0 3
nan nan nan 0 2
nan nan nan 0 1
nan nan nan 0 0
-2.1100624 -1.6323807 0.70252508 45 31
-2.0097613 -1.1629217 0.52927011 51 30
-2.1006477 -1.6221837 0.50532639 46 29
-2.0030644 -1.1599669 0.35659629 53 28
-2.1031156 -1.6211939 0.31990564 46 27
-2.0093887 -1.1636072 0.21860899 54 26
-2.1120644 -1.6269369 0.18306427 46 25
-2.0097711 -1.1638213 0.10667604 55 24
-2.1072071 -1.6220238 0.060928334 46 23
-2.0077972 -1.1622131 0 54 22
-2.1117322 -1.6243392 -0.061044384 47 21
-2.0080144 -1.161871 -0.10655958 54 20
-2.1053481 -1.6194116 -0.18145522 46 19
-2.011461 -1.1624632 -0.20543282 55 18
-2.1125574 -1.6249597 -0.30108279 46 17
-2.0202067 -1.1665734 -0.31927243 53 16
-2.1100481 -1.6241761 -0.45816222 47 15
-2.0174973 -1.1613104 -0.65619457 51 13
-2.1110091 -1.6254816 -0.6022172 43 14
-2.0176759 -1.1586384 -0.79270345 55 12
-0.43947226 -0.33737952 -0.20996094 4 11
-0.45719311 -0.26268378 -0.26147261 3 9
-0.42587033 -0.32749423 -0.23595686 3 10
-0.36055836 -0.20697138 -0.23018974 4 8
-0.30128399 -0.23261842 -0.23400643 9 7
-0.27363127 -0.15673088 -0.21356197 38 6
-0.17589259 -0.13523114 -0.15830037 17 5
-0.23287778 -0.13264984 -0.22285026 50 4
nan nan nan 0 3
nan nan nan 0 2
nan nan nan 0 1
nan nan nan 0 0
-2.1080904 -1.6191128 0.699947 45 31
-2.0095811 -1.1534783 0.52814287 51 30
-2.1004577 -1.6103551 0.50390559 45 29
-2.0006723 -1.1492832 0.35543728 53 28
-2.1008847 -1.6078026 0.31869388 44 27
-2.0089185 -1.1544617 0.21813324 53 26
-2.107832 -1.6119702 0.18219666 45 25
-2.0073216 -1.1530733 0.10632667 55 24
-2.1029339 -1.6070611 0.060638197 45 23
-2.0053344 -1.1514691 0 55 22
-2.1091683 -1.6112512 -0.060812276 45 21
-2.0055571 -1.1511315 -0.10621021 53 20
-2.103065 -1.6059903 -0.18076462 46 19
-2.0066602 -1.1508397 -0.20453866 54 18
-2.1122985 -1.6130475 -0.30022985 46 17
-2.0111663 -1.1524931 -0.31720817 51 16
-2.109838 -1.6123091 -0.45687401 46 15
-2.0152738 -1.1506917 -0.65413111 51 13
-2.1067159 -1.6110615 -0.59942657 42 14
-2.0175998 -1.1492534 -0.79106897 53 12
-0.44058862 -0.33592033 -0.20996094 4 11
-0.45421553 -0.2589964 -0.25912759 4 9
-0.43238637 -0.33015138 -0.23914547 3 10
-0.36497328 -0.20787065 -0.23277615 4 8
-0.29719234 -0.22775075 -0.22980274 9 7
-0.27067542 -0.15388501 -0.21053272 40 6
-0.17784117 -0.13582499 -0.15991569 17 5
-0.22540605 -0.12751012 -0.21421266 50 4
nan nan nan 0 3
nan nan nan 0 2
nan nan nan 0 1
nan nan nan 0 0
-2.1057715 -1.6062461 0.69736892 45 31
-2.004925 -1.1419942 0.52588826 53 30
-2.0999312 -1.5989143 0.5024848 45 29
-1.9980316 -1.138979 0.35427824 53 28
-2.0943589 -1.5918063 0.31687623 45 27
-2.0064461 -1.143751 0.21741959 54 26
-2.1091964 -1.601951 0.18184961 46 25
-2.004622 -1.1427064 0.10597729 54 24
-2.0983043 -1.5925145 0.06034806 46 23
-2.0026219 -1.141106 0 54 22
-2.10483 -1.5963185 -0.060522139 45 21
-2.0006785 -1.1395389 -0.10574438 54 20
-2.1024218 -1.5944808 -0.18024667 46 19
-2.0041687 -1.1401408 -0.20386805 54 18
-2.1136808 -1.6030287 -0.29966125 46 17
-2.0130231 -1.1442442 -0.31686413 53 16
-2.1073313 -1.5993408 -0.45515645 46 15
-2.010709 -1.1392713 -0.6513797 50 13
-2.0987501 -1.5933702 -0.59551972 44 14
-2.0090518 -1.1355932 -0.78616571 53 12
-0.43991709 -0.33297294 -0.20902361 4 11
-0.45511684 -0.2574093 -0.25912759 3 9
-0.42808962 -0.32458788 -0.23595686 4 10
-0.37317234 -0.21076143 -0.23794894 6 8
-0.29794595 -0.22676395 -0.22980274 9 7
-0.27643219 -0.15582745 -0.2150766 33 6
-0.18132468 -0.13754866 -0.16314632 13 5
-0.2306051 -0.12932599 -0.21939522 50 4
nan nan nan 0 3
nan nan nan 0 2
nan nan nan 0 1
nan nan nan 0 0
-2.1017439 -1.5915854 0.69414634 45 31
-2.0046556 -1.1325967 0.5247609 51 30
-2.0937588 -1.582682 0.49964324 46 29
-1.9933903 -1.1271431 0.35273287 55 28
-2.0900049 -1.5770031 0.31536153 46 27
-2.0039239 -1.1330718 0.21670596 54 26
-2.1008458 -1.5840554 0.18063498 46 25
-2.0020738 -1.132021 0.10562792 56 24
-2.0941517 -1.5772854 0.060057927 47 23
-2.0000601 -1.1304246 0 56 22
-2.1004131 -1.5814357 -0.06023201 46 21
-1.9983147 -1.1285206 -0.105395 55 20
-2.1000104 -1.5811243 -0.17955607 47 19
-1.9994575 -1.1282516 -0.20297389 58 18
-2.1076434 -1.5862979 -0.29795539 47 17
-2.0083723 -1.1323541 -0.31548795 54 16
-2.1053154 -1.5856718 -0.45343888 47 15
-2.0085814 -1.1283685 -0.64931619 53 13
-2.0984652 -1.5816284 -0.59384531 46 14
-2.007014 -1.1247631 -0.78371406 53 12
-0.44298112 -0.33275896 -0.20996094 4 11
-0.46373495 -0.26010492 -0.26381767 4 9
-0.43468073 -0.32712469 -0.23914547 4 10
-0.36457866 -0.204219 -0.23148295 7 8
-0.29713228 -0.22441033 -0.2284015 11 7
-0.27700144 -0.15481323 -0.2150766 35 6
-0.1923942 -0.14505288 -0.17445347 13 5
-0.23266582 -0.1293419 -0.22112274 54 4
nan nan nan 0 3
nan nan nan 0 2
nan nan nan 0 1
nan nan nan 0 0
-2.0998449 -1.5780596 0.69156826 46 31
-2.0002887 -1.1204888 0.5225063 53 30
-2.0956211 -1.5720475 0.49869603 46 29
-1.9931967 -1.1174178 0.35196015 54 28
-2.087831 -1.5633752 0.31414977 46 27
-1.9993753 -1.1208599 0.21575446 56 26
-2.1006517 -1.5718567 0.18011442 47 25
-1.9974911 -1.1197989 0.10516208 55 24
-2.089644 -1.5624733 0.059767794 47 23
-1.9954616 -1.1182063 0 56 22
-2.098192 -1.5677351 -0.059999902 47 21
-1.9935223 -1.116665 -0.10492917 55 20
-2.0918157 -1.5629539 -0.17834751 47 19
-1.9992309 -1.1184883 -0.20252679 56 18
-2.1072028 -1.5744656 -0.29710248 47 17
-2.0060213 -1.121367 -0.31445581 54 16
-2.1029534 -1.5724066 -0.45172131 47 15
-2.0083065 -1.1190147 -0.64794058 53 13
-2.0964482 -1.5680809 -0.59161282 46 14
-2.0067954 -1.1154587 -0.78207958 53 12
-0.4385857 -0.32702824 -0.20714895 4 11
-0.45888165 -0.25521037 -0.2603001 4 9
-0.43581992 -0.32560539 -0.23914547 4 10
-0.36528933 -0.20294513 -0.23148295 7 8
-0.29297236 -0.21960872 -0.22419778 11 7
-0.27754015 -0.15384537 -0.2150766 35 6
-0.205008 -0.15367508 -0.18737596 16 5
-0.23152462 -0.12767251 -0.21939522 60 4
nan nan nan 0 3
nan nan nan 0 2
nan nan nan 0 1
nan nan nan 0 0
-2.1014714 -1.5678275 0.69027925 46 31
-1.9956669 -1.1087762 0.52025169 54 30
-2.0932262 -1.5588506 0.49680164 45 29
-1.9862858 -1.1044624 0.35002843 54 28
-2.0853148 -1.5501482 0.312938 45 27
-1.9965534 -1.1106006 0.21504083 55 26
-2.0941217 -1.5555801 0.17907329 45 25
-1.9970206 -1.1103967 0.10492917 55 24
-2.0870633 -1.5492034 0.059535686 46 23
-1.9971664 -1.1100216 0 56 22
-2.0953565 -1.554804 -0.059767794 46 21
-1.9908553 -1.1060674 -0.10457978 54 20
-2.0892522 -1.5496918 -0.17765692 46 19
-1.9942161 -1.1070268 -0.20163265 56 18
-2.0987315 -1.5567293 -0.29511231 46 17
-2.0053959 -1.1123106 -0.31376773 55 16
-2.0965724 -1.5562376 -0.44914499 46 15
-2.0037811 -1.1073558 -0.64518923 51 13
-2.0918622 -1.5538454 -0.58882219 45 14
-2.0065367 -1.1061699 -0.78044516 53 12
-0.43781167 -0.324184 -0.20621163 4 11
-0.46360147 -0.2558032 -0.26264516 4 9
-0.43876484 -0.32543889 -0.24020834 3 10
-0.3715995 -0.20479834 -0.23536254 6 8
-0.29538867 -0.21983331 -0.22559904 12 7
-0.27979922 -0.15386863 -0.21659121 36 6
-0.20855133 -0.15530799 -0.19060658 15 5
-0.22716442 -0.12435053 -0.21421266 56 4
nan nan nan 0 3
nan nan nan 0 2
nan nan nan 0 1
nan nan nan 0 0
-2.0989013 -1.5550909 0.68770117 45 31
-1.9950645 -1.0998049 0.51912439 53 30
-2.0904953 -1.5460546 0.49490726 45 29
-1.9856098 -1.0954875 0.34925577 54 28
-2.0804682 -1.5358458 0.3114233 45 27
-1.9982377 -1.1024246 0.21480295 55 26
-2.0912461 -1.5426977 0.17837921 46 25
-1.9941282 -1.1001555 0.10457978 55 24
-2.0861578 -1.5378189 0.059361603 46 23
-1.9942653 -1.0997772 0 56 22
-2.0887055 -1.5385749 -0.059419632 46 21
-1.9879477 -1.095849 -0.10423041 55 20
-2.0883594 -1.5383121 -0.17713897 47 19
-1.995886 -1.0988604 -0.20140912 56 18
-2.0958884 -1.5438614 -0.29397509 45 17
-1.9984125 -1.0993466 -0.31204751 55 16
-2.0918164 -1.5419605 -0.446998 46 15
-2.0032246 -1.0983979 -0.64381355 54 13
-2.0894337 -1.5407414 -0.58658969 46 14
-2.0018978 -1.0949831 -0.77717632 53 12
-0.43894061 -0.3226538 -0.20621163 4 11
-0.46449158 -0.25418335 -0.26264516 4 9
-0.43257987 -0.3185792 -0.23595686 4 10
-0.3723121 -0.20349996 -0.23536254 6 8
-0.29611599 -0.21885256 -0.22559904 19 7
-0.2785809 -0.15195267 -0.2150766 36 6
-0.22734961 -0.16839707 -0.20999029 14 5
-0.22759709 -0.12355682 -0.21421266 64 4
nan nan nan 0 3
nan nan nan 0 2
nan nan nan 0 1
nan nan nan 0 0
-2.0945942 -1.5405896 0.68447858 45 31
-1.9924766 -1.0893351 0.5174334 53 30
-2.0879698 -1.5329295 0.49301291 46 29
-1.9850856 -1.0861827 0.34848306 55 28
-2.0758154 -1.5212303 0.3099086 47 27
-1.9933363 -1.0906729 0.21385145 56 26
-2.0905864 -1.5309621 0.17785865 47 25
-1.9891884 -1.0884017 0.10411395 58 24
-2.081701 -1.5227749 0.059071466 49 23
-1.9958977 -1.0916117 0 58 22
-2.085999 -1.5253659 -0.059187524 47 21
-1.9875656 -1.0861645 -0.10399749 56 20
-2.085669 -1.5251166 -0.17644836 49 19
-1.9953363 -1.0895044 -0.20096204 56 18
-2.0935175 -1.5302986 -0.29283786 49 17
-1.9978878 -1.0899966 -0.31135944 55 16
-2.0934808 -1.5313712 -0.44613919 49 15
-1.9987857 -1.0864654 -0.6410622 54 13
-2.0869391 -1.527673 -0.58435714 47 14
-1.9996631 -1.0842658 -0.7747246 53 12
-0.44571805 -0.32516682 -0.20902361 4 11
-0.45953992 -0.24942721 -0.25912759 3 9
-0.43920571 -0.32102373 -0.23914547 4 10
-0.36739448 -0.19910878 -0.23148295 7 8
-0.30023658 -0.22023982 -0.2284015 25 7
-0.27562177 -0.14906676 -0.21204734 38 6
-0.21423432 -0.15724941 -0.1954525 14 5
-0.23444903 -0.12608077 -0.22112274 68 4
nan nan nan 0 3
nan nan nan 0 2
nan nan nan 0 1
nan nan nan 0 0
-2.0904782 -1.5257723 0.68125594 46 31
-1.9878858 -1.0773913 0.5151788 55 30
-2.0836608 -1.5180297 0.4906449 46 29
-1.9803643 -1.0741976 0.34693766 54 28
-2.0733547 -1.5077661 0.30869684 46 27
-1.9907544 -1.0798063 0.21313782 55 26
-2.0840869 -1.5144811 0.17681752 47 25
-1.9865756 -1.077538 0.10376458 56 24
-2.0768991 -1.5081469 0.058781337 47 23
-1.997686 -1.0830996 0 56 22
-2.0794468 -1.5088913 -0.058839358 46 21
-1.9869517 -1.0768445 -0.10376458 56 20
-2.0831761 -1.5115954 -0.17575777 47 19
-1.997125 -1.0810006 -0.20073849 56 18
-2.0928197 -1.5185995 -0.29198492 46 17
-1.9909734 -1.0767874 -0.30963922 55 16
-2.0908475 -1.5182582 -0.44442162 47 15
-1.9940987 -1.0749282 -0.63831085 54 13
-2.0846431 -1.5142773 -0.58212465 46 14
-1.9951078 -1.0728118 -0.77145571 53 12
-0.44685036 -0.32360899 -0.20902361 4 11
-0.46629855 -0.25085303 -0.26264516 4 9
-0.43484849 -0.31547558 -0.23595686 3 10
-0.36808726 -0.1978251 -0.23148295 6 8
-0.3059971 -0.22288415 -0.2326052 31 7
-0.27261969 -0.14625221 -0.2090181 35 6
-0.23466741 -0.17132825 -0.21645153 13 5
-0.22847541 -0.12192503 -0.21421266 73 4
nan nan nan 0 3
nan nan nan 0 2
nan nan nan 0 1
nan nan nan 0 0
-2.0879726 -1.5127896 0.67867792 45 31
-1.9851949 -1.0669929 0.51348788 54 30
-2.0790088 -1.503545 0.48827693 46 29
-1.9775728 -1.0637746 0.34577864 55 28
-2.0745838 -1.4976108 0.30809096 47 27
-1.9923184 -1.0716739 0.21289994 55 26
-2.0832968 -1.5028143 0.17629696 46 25
-1.9815229 -1.0658736 0.10329875 56 24
-2.0801249 -1.4994245 0.058723308 47 23
-1.9948455 -1.0725745 0 55 22
-2.0826745 -1.5001611 -0.058781337 47 21
-1.9818947 -1.0651819 -0.10329875 55 20
-2.0843952 -1.5013955 -0.17541246 47 19
-1.9964963 -1.0716718 -0.20029141 58 18
-2.092066 -1.5069243 -0.29113197 47 17
-1.9947199 -1.069831 -0.30963922 56 16
-2.0861521 -1.5037405 -0.44227469 47 15
-1.9935973 -1.065699 -0.63693523 54 13
-2.0800402 -1.4998554 -0.57933408 46 14
-1.9946688 -1.063622 -0.76982129 54 12
-0.45172819 -0.32477048 -0.21089825 4 11
-0.45350185 -0.24201062 -0.25443748 3 9
-0.43960646 -0.31661841 -0.2380826 4 10
-0.37445754 -0.19952467 -0.23536254 6 8
-0.30343562 -0.21936384 -0.22980274 40 7
-0.2696014 -0.14346044 -0.20598885 36 6
-0.24139854 -0.17504901 -0.22291279 12 5
-0.23050559 -0.1219553 -0.21594018 69 4
nan nan nan 0 3
nan nan nan 0 2
nan nan nan 0 1
nan nan nan 0 0
-2.0854025 -1.4998429 0.67609984 45 31
-1.9846064 -1.0577699 0.51236057 54 30
-2.0742812 -1.4891113 0.48590899 46 29
-1.9725522 -1.0522237 0.34423327 55 28
-2.0717356 -1.4845705 0.30687919 46 27
-1.9938502 -1.0635437 0.21266206 55 26
-2.0804245 -1.4897172 0.17560288 46 25
-1.983027 -1.0577772 0.10318229 58 24
-2.0792527 -1.4877855 0.058549229 47 23
-1.994163 -1.0632564 0 56 22
-2.0757082 -1.4841481 -0.058433171 47 21
-1.9856008 -1.0582573 -0.10329875 56 20
-2.0815139 -1.4883002 -0.17472187 47 19
-1.9936274 -1.0611925 -0.19962078 55 18
-2.0851991 -1.4909329 -0.28942612 47 17
-1.9918802 -1.0593801 -0.30860707 54 16
-2.0833824 -1.4907089 -0.44055712 47 15
-1.9930556 -1.0564864 -0.6355595 54 13
-2.0773423 -1.4869046 -0.57710159 46 14
-1.9900103 -1.0522438 -0.76655245 54 12
-0.44533828 -0.31777146 -0.20714895 4 11
-0.46216935 -0.24452068 -0.25912759 4 9
-0.44070899 -0.31508195 -0.2380826 4 10
-0.3789466 -0.20019355 -0.23794894 6 8
-0.30085337 -0.21586415 -0.22700027 45 7
-0.27540088 -0.14525887 -0.21053272 35 6
-0.22663231 -0.16290653 -0.20675968 12 5
-0.23736532 -0.12444171 -0.22285026 76 4
nan nan nan 0 3
nan nan nan 0 2
nan nan nan 0 1
nan nan nan 0 0
-2.0805428 -1.4858904 0.67287719 45 31
-1.9837945 -1.0489101 0.51123327 55 30
-2.071218 -1.4765172 0.48401454 46 29
-1.9694777 -1.0422174 0.34307423 55 28
-2.0746267 -1.4762514 0.30657625 46 27
-1.9885628 -1.0522786 0.21171056 55 26
-2.0772288 -1.4770215 0.1749088 47 25
-1.9798985 -1.0476978 0.10283291 56 24
-2.076031 -1.4750838 0.058317121 47 23
-1.9910448 -1.0531377 0 56 22
-2.0745091 -1.4729103 -0.058259092 47 21
-1.9868906 -1.0505018 -0.10318229 56 20
-2.0783091 -1.4756062 -0.17403127 47 19
-1.9883236 -1.0499336 -0.19872662 56 18
-2.0800128 -1.4768109 -0.28800461 47 17
-1.9888084 -1.0493087 -0.30757493 55 16
-2.0802891 -1.4780781 -0.43883952 47 15
-1.9880341 -1.0454053 -0.63280821 55 13
-2.0822616 -1.4800076 -0.57710159 46 14
-1.9893017 -1.0434482 -0.76491797 54 12
-0.44638959 -0.31629291 -0.20714895 4 11
-0.46297768 -0.24298671 -0.25912759 4 9
-0.44359013 -0.31493759 -0.23914547 4 10
-0.3815091 -0.19991809 -0.23924215 6 8
-0.29989043 -0.2136513 -0.22559904 46 7
-0.27234143 -0.14252961 -0.20750348 32 6
-0.2287126 -0.16327888 -0.20837499 12 5
-0.23294196 -0.12120109 -0.2176677 76 4
nan nan nan 0 3
nan nan nan 0 2
nan nan nan 0 1
nan nan nan 0 0
-2.0778403 -1.4730232 0.67029917 46 31
-1.9831274 -1.0397215 0.51010597 55 30
-2.0683496 -1.4635986 0.48212019 47 29
-1.9731038 -1.0353361 0.34307423 55 28
-2.071665 -1.4632659 0.30536449 46 27
-1.9856094 -1.0418684 0.21099693 55 26
-2.072191 -1.4625609 0.1740412 47 25
-1.9835435 -1.0407803 0.10283291 56 24
-2.0732579 -1.4616964 0.058085013 47 23
-1.9836333 -1.040386 0 56 22
-2.0755546 -1.4627761 -0.058143035 47 21
-1.9863013 -1.0408984 -0.10294937 55 20
-2.0752983 -1.4625876 -0.17334066 47 19
-1.9875624 -1.040681 -0.19827956 56 18
-2.0793242 -1.4648798 -0.28715166 47 17
-1.9836782 -1.0377774 -0.30619875 55 16
-2.075635 -1.4633383 -0.4366926 47 15
-1.9854549 -1.0347856 -0.6307447 55 13
-2.077466 -1.4656961 -0.57431096 46 14
-1.9847231 -1.0317993 -0.76164907 54 12
-0.45321476 -0.31868041 -0.20996094 4 11
-0.46185976 -0.24035886 -0.25795507 4 9
-0.44474146 -0.31330961 -0.23914547 4 10
-0.38033497 -0.19754314 -0.23794894 6 8
-0.30403456 -0.21496645 -0.2284015 46 7
-0.27463514 -0.14243159 -0.2090181 31 6
-0.21540064 -0.15236744 -0.1938372 12 5
-0.23661374 -0.12196988 -0.22112274 73 4
nan nan nan 0 3
nan nan nan 0 2
nan nan nan 0 1
nan nan nan 0 0
-2.0753281 -1.459831 0.66772109 46 31
-1.9825999 -1.0302042 0.50897866 54 30
-2.0676775 -1.4517704 0.48069939 49 29
-1.9725001 -1.0258225 0.34230155 56 28
-2.0688913 -1.4499583 0.30415273 47 27
-1.9872056 -1.0334378 0.21075904 56 26
-2.0714133 -1.4506584 0.17352062 49 25
-1.982911 -1.031203 0.10259999 59 24
-2.0681159 -1.4472755 0.057794876 49 23
-1.9852138 -1.0319577 0 58 22
-2.0727148 -1.4494219 -0.057910927 49 21
-1.9810541 -1.0293617 -0.10248354 56 20
-2.0745177 -1.4506779 -0.17282273 49 19
-1.9847296 -1.0299551 -0.19760895 58 18
-2.0742543 -1.4504861 -0.28573012 49 17
-1.9852691 -1.0293622 -0.30585471 58 16
-2.0706477 -1.4490138 -0.43454561 49 15
-1.9847821 -1.0256463 -0.62936902 56 13
-2.0728493 -1.4510744 -0.57152027 47 14
-1.9820091 -1.0216241 -0.75919741 55 12
-0.45243007 -0.31576109 -0.20902361 4 11
-0.46470457 -0.23966755 -0.25912759 4 9
-0.44768056 -0.31306094 -0.24020834 4 10
-0.37911451 -0.19524565 -0.23665574 7 8
-0.30309734 -0.21270186 -0.22700027 60 7
-0.27157813 -0.13968223 -0.20598885 32 6
-0.21593119 -0.15161464 -0.1938372 12 5
-0.23703803 -0.12114319 -0.22112274 76 4
nan nan nan 0 3
nan nan nan 0 2
nan nan nan 0 1
nan nan nan 0 0
-2.0724947 -1.4470388 0.66514301 47 31
-1.9840176 -1.022164 0.50841498 56 30
-2.0626698 -1.4375162 0.47833142 46 29
-1.9716761 -1.0166714 0.34152886 55 28
-2.063761 -1.4356321 0.30263802 46 27
-1.9795572 -1.0211486 0.20956965 55 26
-2.0723712 -1.4405679 0.17317358 47 25
-1.9820573 -1.0219907 0.10236707 56 24
-2.0670013 -1.435764 0.05762079 47 23
-1.9821339 -1.0215925 0 55 22
-2.0734067 -1.4396858 -0.057794876 47 21
-1.9801929 -1.0201573 -0.10225061 56 20
-2.0713789 -1.4377313 -0.1721321 47 19
-1.9837041 -1.021093 -0.19716185 56 18
-2.0731876 -1.4389819 -0.28487718 49 17
-1.9864686 -1.0216429 -0.3055107 58 16
-2.0696294 -1.4375561 -0.43325746 49 15
-1.9819295 -1.0154306 -0.62730551 56 13
-2.0696511 -1.4386212 -0.56928778 46 14
-1.9813529 -1.0125533 -0.75756294 55 12
-0.45537344 -0.31558809 -0.20996094 4 11
-0.46943742 -0.24011834 -0.26147261 4 9
-0.44506526 -0.30889797 -0.2380826 4 10
-0.37402719 -0.19110037 -0.23277615 6 8
-0.30045807 -0.20925036 -0.22419778 51 7
-0.27559826 -0.14055891 -0.2090181 28 6
-0.21953881 -0.1531149 -0.19706783 12 5
-0.23905852 -0.12115716 -0.22285026 76 4
nan nan nan 0 3
nan nan nan 0 2
nan nan nan 0 1
nan nan nan 0 0
-2.0653796 -1.4318888 0.66127592 46 31
-1.9808865 -1.0122608 0.50672406 55 30
-2.0613742 -1.4264719 0.47691065 47 29
-1.9662361 -1.0056375 0.33998349 56 28
-2.0603485 -1.4231311 0.30142626 47 27
-1.9875433 -1.0164945 0.21004541 55 26
-2.0750861 -1.4322691 0.17300005 49 25
-1.983211 -1.0142775 0.10225061 58 24
-2.0635269 -1.4232177 0.057388686 49 23
-1.9810566 -1.0127424 0 56 22
-2.0681367 -1.4253379 -0.05750474 47 21
-1.9768902 -1.0101827 -0.10190124 56 20
-2.0679264 -1.4251852 -0.17144151 50 19
-1.9805994 -1.0107733 -0.19649124 56 18
-2.069773 -1.4264532 -0.28373995 49 17
-1.9856085 -1.0124573 -0.30482259 56 16
-2.070333 -1.4278846 -0.43239865 47 15
-1.9831421 -1.007766 -0.62661767 56 13
-2.0686471 -1.4272305 -0.56761342 46 14
-1.9762661 -1.0017134 -0.7542941 55 12
-0.44505215 -0.30606237 -0.20433699 4 11
-0.46829891 -0.23748855 -0.2603001 4 9
-0.44980112 -0.31000647 -0.24020834 4 10
-0.37469196 -0.18979362 -0.23277615 6 8
-0.30453813 -0.21063383 -0.22700027 68 7
-0.27430493 -0.13871324 -0.20750348 27 6
-0.22941318 -0.15896648 -0.20675968 12 5
-0.24272569 -0.121912 -0.22630529 81 4
nan nan nan 0 3
nan nan nan 0 2
nan nan nan 0 1
nan nan nan 0 0
-2.0663879 -1.421928 0.65998685 46 31
-1.9778866 -1.0020444 0.50503308 55 30
-2.0622966 -1.416484 0.47596347 50 29
-1.9653262 -0.9965384 0.33921078 56 28
-2.0591674 -1.4117148 0.30051744 49 27
-1.977755 -1.0028112 0.20861815 56 26
-2.0656803 -1.4151363 0.17178541 49 25
-1.9733688 -1.0005858 0.10155187 59 24
-2.0602381 -1.4103506 0.057156578 50 23
-1.9756554 -1.001309 0 58 22
-2.0689764 -1.4152838 -0.057388686 49 21
-1.973718 -0.99989688 -0.10155187 58 20
-2.0605459 -1.4094973 -0.17040561 50 19
-1.9752238 -0.99936604 -0.19559708 56 18
-2.072691 -1.4178151 -0.28345564 50 17
-1.9869193 -1.0044051 -0.30447853 58 16
-2.0692117 -1.4164693 -0.43111047 50 15
-1.9845001 -0.99975812 -0.62592983 58 13
-2.0675886 -1.4158641 -0.56593901 49 14
-1.9755263 -0.99269158 -0.75265968 56 12
-0.44611776 -0.30450699 -0.20433699 4 11
-0.4730795 -0.237818 -0.26264516 4 9
-0.44715756 -0.30586138 -0.2380826 4 10
-0.3753522 -0.18848455 -0.23277615 7 8
-0.29847935 -0.20483123 -0.22139531 49 7
-0.27835819 -0.13950804 -0.21053272 26 6
-0.23464881 -0.16145781 -0.21160561 12 5
-0.23989853 -0.11948528 -0.22285026 81 4
nan nan nan 0 3
nan nan nan 0 2
nan nan nan 0 1
nan nan nan 0 0
-2.0593791 -1.4065204 0.6561197 49 31
-1.9748391 -0.99186128 0.50334209 56 30
-2.0631747 -1.4065074 0.47501627 47 29
-1.9665848 -0.98856485 0.33882442 56 28
-2.0558815 -1.3989261 0.29930568 46 27
-1.9745693 -0.99255478 0.20790452 55 26
-2.0664856 -1.4051085 0.17143838 49 25
-1.9723846 -0.99145257 0.10131895 58 24
-2.0548193 -1.3961173 0.056866445 49 23
-1.9746685 -0.99216622 0 58 22
-2.0635722 -1.4010235 -0.057098553 47 21
-1.9704977 -0.98964542 -0.10120249 56 20
-2.0592675 -1.3980873 -0.16988768 49 19
-1.9720198 -0.98912275 -0.19492647 58 18
-2.0735204 -1.4077772 -0.28288704 49 17
-1.9815538 -0.99303448 -0.30310234 56 16
-2.0660005 -1.4036936 -0.4293929 49 15
-1.9858267 -0.99175322 -0.62524199 56 13
-2.0624478 -1.4017791 -0.56314844 47 14
-1.9747475 -0.9836871 -0.7510252 58 12
-0.45291564 -0.30687505 -0.20714895 4 11
-0.46400365 -0.23128581 -0.25678253 4 9
-0.45008841 -0.30557865 -0.23914547 4 10
-0.38177046 -0.18999998 -0.23665574 6 8
-0.30429903 -0.20732401 -0.22559904 47 7
-0.27884346 -0.13853554 -0.21053272 22 6
-0.23834005 -0.16282225 -0.21483622 12 5
-0.2484559 -0.12256551 -0.23148786 88 4
nan nan nan 0 3
nan nan nan 0 2
nan nan nan 0 1
nan nan nan 0 0
-2.0602803 -1.3966085 0.65483069 47 31
-1.9739265 -0.98279506 0.50221479 55 30
-2.0619769 -1.395164 0.4735955 49 29
-1.9611764 -0.97729665 0.33727905 58 28
-2.0545869 -1.3875686 0.29839683 50 27
-1.9735652 -0.983441 0.20742878 56 26
-2.0651798 -1.393695 0.17091781 50 25
-1.9713607 -0.98233843 0.10108603 59 24
-2.0534675 -1.3847377 0.056692362 50 23
-1.9714031 -0.98193026 0 59 22
-2.0580935 -1.3868184 -0.056808416 49 21
-1.969467 -0.98053956 -0.10096958 58 20
-2.0538003 -1.3839121 -0.16902442 51 19
-1.9732298 -0.98112667 -0.19470292 60 18
-2.0701878 -1.3949709 -0.28174981 50 17
-1.985008 -0.98611158 -0.30310234 58 16
-2.0668063 -1.3937151 -0.42853409 50 15
-1.984966 -0.98268688 -0.62386632 58 13
-2.0592532 -1.389112 -0.56091595 49 14
-1.969691 -0.9726125 -0.7477563 54 12
-0.45398405 -0.30529222 -0.20714895 4 11
-0.4747282 -0.2345095 -0.26264516 4 9
-0.45302278 -0.30527925 -0.24020834 4 10
-0.37665892 -0.18585952 -0.23277615 4 8
-0.29990208 -0.20274247 -0.22139531 49 7
-0.28290823 -0.13928953 -0.21356197 20 6
-0.23890695 -0.1619893 -0.21483622 12 5
-0.25051332 -0.12247548 -0.23321539 90 4
nan nan nan 0 3
nan nan nan 0 2
nan nan nan 0 1
nan nan nan 0 0
-2.0611374 -1.3867074 0.65354162 49 31
-1.9707897 -0.97267169 0.50052387 56 30
-2.0586884 -1.3824757 0.47170112 47 29
-1.9601446 -0.96826166 0.33650637 56 28
-2.0511777 -1.3748533 0.29718506 49 27
-1.9702885 -0.97324604 0.20671514 58 26
-2.0596788 -1.3795284 0.17005022 47 25
-1.9702976 -0.97324371 0.10085312 58 24
-2.0520618 -1.373385 0.056518283 49 23
-1.9680903 -0.9717291 0 58 22
-2.0587695 -1.376843 -0.056692362 49 21
-1.9639156 -0.96924704 -0.10050374 56 20
-2.0544748 -1.3739574 -0.1686791 50 19
-1.9699386 -0.97093713 -0.1940323 58 18
-2.0626652 -1.3794392 -0.28004393 49 17
-1.9751027 -0.97262633 -0.30103812 56 16
-2.0614316 -1.3796328 -0.42638713 47 15
-1.9819078 -0.97258222 -0.62180281 56 13
-2.055995 -1.3764843 -0.55868345 47 14
-1.960335 -0.95951229 -0.74285305 44 12
-0.45312533 -0.30240998 -0.20621163 4 11
-0.47753128 -0.23381299 -0.26381767 4 9
-0.44846106 -0.29989505 -0.23701973 4 10
-0.38308761 -0.18733013 -0.23665574 4 8
-0.30573902 -0.20519456 -0.22559904 49 7
-0.27980381 -0.13658549 -0.21053272 23 6
-0.24418733 -0.16439827 -0.21968216 12 5
-0.24930552 -0.12082798 -0.23148786 90 4
nan nan nan 0 3
nan nan nan 0 2
nan nan nan 0 1
nan nan nan 0 0
-2.0619504 -1.3768177 0.65225267 47 31
-1.9697949 -0.96365011 0.49939653 55 30
-2.0553365 -1.3698275 0.46980673 47 29
-1.9612932 -0.96032959 0.33612004 55 28
-2.0477054 -1.3621789 0.2959733 49 27
-1.9692014 -0.96417832 0.20623939 58 26
-2.0561793 -1.3667996 0.16935614 49 25
-1.966951 -0.96307242 0.10050374 58 24
-2.0425162 -1.3561627 0.056112096 49 23
-1.9692239 -0.96375656 0 59 22
-2.0573199 -1.3654954 -0.056518283 49 21
-1.9652106 -0.96094769 -0.10038728 56 20
-2.0467992 -1.3584902 -0.16764322 49 19
-1.9666009 -0.96078259 -0.19336168 59 18
-2.0594342 -1.3663691 -0.2789067 49 17
-1.9784857 -0.96572596 -0.30103812 56 16
-2.0582728 -1.3666106 -0.42466956 47 15
-1.9746461 -0.96006805 -0.61836362 56 13
-2.0567305 -1.3665978 -0.55756718 49 14
-1.9298069 -0.93586206 -0.72977746 31 12
-0.4523043 -0.29945859 -0.20527431 4 11
-0.47237235 -0.22927943 -0.2603001 4 9
-0.45331618 -0.30076957 -0.23914547 4 10
-0.38956401 -0.18869008 -0.24053536 4 8
-0.29791594 -0.19827037 -0.21859284 50 7
-0.28569528 -0.13811278 -0.2150766 19 6
-0.24005999 -0.16027558 -0.21483622 12 5
-0.2513833 -0.12067972 -0.23321539 90 4
nan nan nan 0 3
nan nan nan 0 2
nan nan nan 0 1
nan nan nan 0 0
-2.0609457 -1.3652431 0.6503191 47 31
-1.9623493 -0.95112371 0.49657828 54 30
-2.0480657 -1.3541495 0.46696514 47 29
-1.9559063 -0.94883156 0.33457464 55 28
-2.0402653 -1.3464508 0.29415569 49 27
-1.9682418 -0.95478654 0.20576362 59 26
-2.0549328 -1.3551289 0.16883557 49 25
-1.9659716 -0.95368135 0.10027082 58 24
-2.0493231 -1.3504018 0.056170117 49 23
-1.9637405 -0.95217872 0 58 22
-2.0518806 -1.3510631 -0.056228146 49 21
-1.9618077 -0.95082128 -0.10003791 58 20
-2.0517645 -1.3509792 -0.16764322 50 19
-1.9611397 -0.949238 -0.19246753 58 18
-2.0600448 -1.356436 -0.2783381 49 17
-1.973091 -0.95416498 -0.29966193 56 16
-2.0527554 -1.3526318 -0.42252263 47 15
-1.9779853 -0.95316929 -0.61836362 56 13
-2.0515592 -1.3523341 -0.55477655 47 14
-1.841449 -0.8852067 -0.69463706 18 12
-0.44755429 -0.29403222 -0.20246232 4 11
-0.47719795 -0.22944212 -0.26264516 4 9
-0.44682783 -0.29417124 -0.23489399 4 10
-0.39022028 -0.1873291 -0.24053536 4 8
-0.30032486 -0.19838369 -0.21999407 47 7
-0.27717295 -0.13288984 -0.20750348 17 6
-0.24693726 -0.16371672 -0.22129747 13 5
-0.25016376 -0.11904091 -0.23148786 90 4
nan nan nan 0 3
nan nan nan 0 2
nan nan nan 0 1
nan nan nan 0 0
-2.0556135 -1.3513957 0.64709651 47 31
-1.9590678 -0.94111085 0.49488732 56 30
-2.0486782 -1.3442947 0.46601796 47 29
-1.9547521 -0.93986231 0.33380193 56 28
-2.0408037 -1.3365972 0.29354978 47 27
-1.9648306 -0.94468194 0.20505001 59 26
-2.0513089 -1.3424765 0.16814148 49 25
-1.9625334 -0.94357353 0.099921443 59 24
-2.0373015 -1.3322802 0.055705901 49 23
-1.9647979 -0.94423753 0 58 22
-2.0482206 -1.3384154 -0.055996038 49 21
-1.9606105 -0.94180942 -0.099804983 58 20
-2.0460353 -1.336977 -0.16677997 50 19
-1.9621952 -0.94131184 -0.19224398 58 18
-2.0523 -1.3410722 -0.27663225 49 17
-1.9697071 -0.94406772 -0.29862979 55 16
-2.0533442 -1.3427581 -0.42166382 49 15
-1.9747908 -0.94315827 -0.61630017 51 13
-2.0440395 -1.3371478 -0.55142778 49 14
-1.7527614 -0.83518004 -0.65949655 13 12
-0.45051321 -0.29374331 -0.20339964 4 11
-0.4700059 -0.22401175 -0.25795507 4 9
-0.45162842 -0.29510361 -0.23701973 4 10
-0.39280897 -0.18687411 -0.24182856 4 8
-0.29757017 -0.19503726 -0.21719161 54 7
-0.27943861 -0.1327602 -0.2090181 15 6
-0.24434015 -0.16072474 -0.21806686 13 5
-0.2571454 -0.12118636 -0.23839796 90 4
nan nan nan 0 3
nan nan nan 0 2
nan nan nan 0 1
nan nan nan 0 0
-2.0522313 -1.3389244 0.64451844 47 31
-1.9601408 -0.933222 0.49432364 58 30
-2.0430799 -1.3304271 0.46364999 49 29
-1.9535593 -0.93091279 0.33302927 58 28
-2.0371394 -1.3240474 0.29233801 49 27
-1.9612099 -0.9349553 0.20433637 59 26
-2.047622 -1.3298658 0.1674474 49 25
-1.9613038 -0.93457323 0.099688523 60 24
-2.0419395 -1.3251607 0.055705901 50 23
-1.9613074 -0.93415517 0 59 22
-2.0442662 -1.3261666 -0.05576393 49 21
-1.9571184 -0.93174636 -0.09945561 58 20
-2.0444164 -1.3257496 -0.16626202 50 19
-1.9630563 -0.93373257 -0.19202046 60 18
-2.0528035 -1.3311933 -0.27606365 50 17
-1.9683518 -0.93540955 -0.29794171 56 16
-2.0497608 -1.3302113 -0.41994625 49 15
-1.9715502 -0.93318111 -0.61423659 51 13
-2.0443778 -1.3277032 -0.55031151 49 14
-1.6787118 -0.79282832 -0.63007665 12 12
-0.44760576 -0.28971031 -0.20152499 4 11
-0.46874556 -0.22151774 -0.25678253 4 9
-0.45076326 -0.29228503 -0.23595686 4 10
-0.39148635 -0.18466863 -0.24053536 4 8
-0.30342919 -0.19742464 -0.22139531 49 7
-0.27807108 -0.13100012 -0.20750348 12 6
-0.25280714 -0.16520981 -0.2261434 13 5
-0.25261265 -0.11808477 -0.23321539 90 4
nan nan nan 0 3
nan nan nan 0 2
nan nan nan 0 1
nan nan nan 0 0
-2.0526083 -1.3294811 0.64322937 47 31
-1.9610213 -0.92567945 0.49376005 58 30
-2.0412998 -1.3196404 0.46222919 49 29
-1.9476981 -0.92021799 0.3314839 59 28
-2.0310998 -1.3105469 0.29082331 49 27
-1.9622104 -0.92704284 0.20409849 56 26
-2.0457363 -1.3190076 0.16692685 49 25
-1.9530973 -0.92274195 0.099106237 60 24
-2.0358243 -1.3116034 0.055415772 50 23
-1.9576092 -0.92445034 0 60 22
-2.0383821 -1.3122475 -0.055473793 50 21
-1.9534192 -0.92206013 -0.099106237 58 20
-2.046706 -1.3176107 -0.16608937 50 19
-1.9572902 -0.92263693 -0.1911263 60 18
-2.0488584 -1.3189923 -0.27492639 49 17
-1.9671223 -0.92642754 -0.29725361 56 16
-2.0479534 -1.3193989 -0.41865808 49 15
-1.9659264 -0.92256284 -0.61148524 55 13
-2.0428588 -1.3165925 -0.54863715 50 14
-1.6470765 -0.77126914 -0.61700112 12 12
-0.4486143 -0.28814611 -0.20152499 4 11
-0.47552755 -0.22266173 -0.2603001 4 9
-0.45552337 -0.29325676 -0.2380826 4 10
-0.40184516 -0.18777627 -0.24700136 4 8
-0.30408221 -0.19641733 -0.22139531 50 7
-0.28214496 -0.13168143 -0.21053272 12 6
-0.25020075 -0.16221896 -0.22291279 14 5
-0.2530233 -0.11720227 -0.23321539 90 4
nan nan nan 0 3
nan nan nan 0 2
nan nan nan 0 1
nan nan nan 0 0
-2.0430222 -1.3131511 0.63871777 47 31
-1.959826 -0.91676909 0.49263272 58 30
-2.0376348 -1.3071965 0.46033478 49 29
-1.9486604 -0.91236871 0.33109754 58 28
-2.0314851 -1.3007686 0.29021743 50 27
-1.9609245 -0.91808194 0.20362273 59 26
-2.04403 -1.30782 0.16640629 49 25
-1.9540434 -0.9148621 0.098989777 60 24
-2.038286 -1.3031406 0.055357743 50 23
-1.9540281 -0.91443938 0 60 22
-2.0408456 -1.3037767 -0.055415772 50 21
-1.9498364 -0.91206831 -0.098756857 59 20
-2.042891 -1.305079 -0.16539876 50 19
