# .PCD v0.7 - Point Cloud Data file format
VERSION 0.7
FIELDS x y z intensity ring
SIZE 4 4 4 4 2
TYPE F F F F U
COUNT 1 1 1 1 1
WIDTH 1190
HEIGHT 1
VIEWPOINT 0 0 0 1 0 0 0
POINTS 1190
DATA ascii
0.88081592 -0.074850492 -0.039595909 9 20
0.89070624 -0.076179527 -0.077121131 49 18
0.89827985 -0.07715594 -0.12041525 46 16
0.80982947 -0.07118535 0.12169863 44 28
0.88287181 0.035777599 0.10360581 45 27
0.84047735 -0.073975973 0.077310033 10 26
0.9120357 0.036727898 0.061079264 23 25
0.84824437 -0.074686207 0.038081951 58 24
0.86156386 -0.076045267 0 41 22
0.8730883 -0.077245653 -0.039246533 10 20
0.88795525 -0.079061233 -0.076897591 50 18
0.90540242 -0.080970779 -0.12144738 45 16
0.80465782 -0.073548563 0.12092594 18 28
0.88795048 0.032893024 0.10421169 45 27
0.85013843 -0.077694319 0.078261547 14 26
0.90468228 0.033249035 0.060558699 35 25
0.8504647 -0.077880822 0.038198408 59 24
0.86627102 -0.079521887 0 19 22
0.86784095 -0.079822794 -0.039013617 14 20
0.88768822 -0.082005367 -0.076897591 50 18
0.90019882 -0.083503254 -0.12075929 45 16
0.80686784 -0.076456249 0.12131228 10 28
0.88309491 0.029767295 0.10360581 46 27
0.83747751 -0.07945361 0.077072158 26 26
0.90727997 0.0303389 0.060732223 35 25
0.84771633 -0.080458246 0.038081951 58 24
0.85107368 -0.080935583 0 8 22
0.86757153 -0.082700223 -0.039013617 13 20
0.88739657 -0.085103482 -0.076897591 50 18
0.89743769 -0.086401671 -0.12041525 45 16
0.87823296 0.026520848 0.10299993 46 27
0.83967108 -0.082626663 0.077310033 23 26
0.90488768 0.027090335 0.060558699 38 25
0.84494567 -0.083165772 0.037965491 56 24
0.90926808 0.026762899 0.020309445 8 23
0.85078591 -0.083905898 0 8 22
0.86974698 -0.086131841 -0.039130077 24 20
0.88461691 -0.087948054 -0.076674052 49 18
0.89713061 -0.089533783 -0.12041525 46 16
0.87832421 0.023301786 0.10299993 46 27
0.8344124 -0.085185125 0.076834284 31 26
0.91245961 0.023990313 0.061079264 14 25
0.8396678 -0.085741751 0.037732575 60 24
0.9143526 0.023731854 0.020425498 15 23
0.84301364 -0.086240955 0 4 22
0.86199021 -0.088384189 -0.0387807 19 20
0.88676488 -0.091451317 -0.076897591 49 18
0.89679646 -0.09282133 -0.12041525 47 16
0.80109686 -0.084510282 0.12053959 9 28
0.88088101 0.020299815 0.10330287 44 27
0.83659959 -0.088219143 0.077072158 24 26
0.91004461 0.020741545 0.060905743 9 25
0.84184617 -0.08894106 0.037849031 54 24
0.90943283 0.020414408 0.020309445 36 23
0.8476783 -0.089722224 0 4 22
0.86664188 -0.091931969 -0.039013617 33 20
0.87655544 -0.093312308 -0.07600344 46 18
0.88909906 -0.094987258 -0.11938312 48 16
0.79344815 -0.086344235 0.11938056 12 28
0.87846249 0.01732273 0.10299993 44 27
0.83628654 -0.091138884 0.077072158 45 26
0.91010845 0.017723612 0.060905743 6 25
0.83658284 -0.091178097 0.037616115 50 24
0.90949547 0.017398508 0.020309445 44 23
0.84489161 -0.092254929 0 6 22
0.86385041 -0.094527416 -0.03889716 47 20
0.87622434 -0.096371502 -0.07600344 46 18
0.89122266 -0.098367959 -0.11972716 49 16
0.80295688 -0.090243787 0.12092594 16 28
0.86859316 0.014067389 0.10178816 43 27
0.83349097 -0.093772769 0.076834284 51 26
0.84866387 -0.09552642 0.038198408 46 24
0.91455096 0.014155652 0.020425498 44 23
0.84704804 -0.095490068 0 8 22
0.8659789 -0.097979985 -0.039013617 48 20
0.87835598 -0.099716559 -0.076226972 44 18
0.88841426 -0.10119198 -0.11938312 49 16
0.79280996 -0.092019767 0.11938056 23 28
0.86367625 0.010807516 0.10118228 44 27
0.83067042 -0.096533231 0.076596409 58 26
0.85078788 -0.098931104 0.038314868 46 24
0.90209955 0.010779982 0.020135364 47 23
0.84172738 -0.098002858 0 9 22
0.92209589 0.010751238 -0.020599579 6 21
0.8581925 -0.10011514 -0.03866424 53 20
0.87303996 -0.10234299 -0.0757799 45 18
0.89295447 -0.10503818 -0.1200712 47 16
0.79003227 -0.094486482 0.11899421 26 28
0.86370867 0.0077926572 0.10118228 40 27
0.83034569 -0.099287309 0.076596409 61 26
0.88530743 0.0077460362 0.059170533 3 25
0.85539496 -0.10250727 0.038547784 43 24
0.90713 0.0076868366 0.020251418 46 23
0.84882444 -0.10185315 0 11 22
0.90463221 0.0075010322 -0.020193391 28 21
0.86031646 -0.10341454 -0.0387807 50 20
0.88258106 -0.10645479 -0.076674052 38 18
0.88522869 -0.10708828 -0.11903907 49 16
0.79706651 -0.098030657 0.12015325 31 28
0.8662113 0.0049496759 0.10148522 40 27
0.82258648 -0.10125328 0.07588277 67 26
0.87784666 0.0047488343 0.058649972 6 25
0.84513927 -0.10409651 0.038081951 40 24
0.89465427 0.0045804954 0.019961281 49 23
0.84352124 -0.10404246 0 12 22
0.91215068 0.0043995017 -0.020367472 37 21
0.85996878 -0.10626687 -0.0387807 51 20
0.87726367 -0.10890904 -0.076226972 13 18
0.89221883 -0.11111384 -0.1200712 47 16
0.79182035 -0.10017867 0.11938056 36 28
0.86374176 0.0019134439 0.10118228 40 27
0.82469606 -0.10444327 0.076120645 67 26
0.8878336 0.0017315596 0.059344053 6 25
0.84477079 -0.10704596 0.038081951 12 24
0.90216303 0.0013328006 0.020135364 47 23
0.84811151 -0.10762852 0 18 22
0.90966111 0.001205442 -0.020309445 40 21
0.85957354 -0.1094181 -0.0387807 51 20
0.86947072 -0.11100592 -0.07555636 6 18
0.8844595 -0.11326568 -0.11903907 47 16
0.79879302 -0.1040576 0.12053959 31 28
0.86374301 -0.001252341 0.10118228 23 27
0.8243078 -0.10746522 0.076120645 60 26
0.88284606 -0.0015277485 0.058997013 8 25
0.82704449 -0.10783555 0.037266739 10 24
0.89966285 -0.0018180888 0.020077337 47 23
0.84027702 -0.10974565 0 17 22
0.9071601 -0.0021295131 -0.020251418 36 21
0.85671097 -0.11208762 -0.03866424 51 20
0.92027581 -0.0021310248 -0.061290774 9 19
0.87399387 -0.11485316 -0.07600344 4 18
0.89140093 -0.11749554 -0.1200712 46 16
0.79108322 -0.1058422 0.11938056 33 28
0.87117803 -0.0042829509 0.1020911 10 27
0.81899619 -0.10966817 0.075644895 63 26
0.89031726 -0.0046277288 0.059517574 8 25
0.82913733 -0.11105989 0.037383199 8 24
0.89465231 -0.0049445285 0.019961281 47 23
0.8473196 -0.11369466 0 21 22
0.90464783 -0.0052882284 -0.020193391 13 21
0.8513661 -0.11439957 -0.038431324 51 20
0.90529871 -0.005296363 -0.060254876 28 19
0.87112087 -0.11756405 -0.0757799 4 18
0.88607931 -0.11992998 -0.11938312 47 16
0.7882629 -0.10826006 0.11899421 33 28
0.85875005 -0.0072546052 0.10057639 6 27
0.82846659 -0.11390831 0.076596409 60 26
0.89278966 -0.0077502877 0.059691094 10 25
0.82874465 -0.11395344 0.037383199 9 24
0.89712894 -0.0080831209 0.020019308 47 23
0.83701468 -0.11526167 0 28 22
0.90712309 -0.0084625818 -0.020251418 9 21
0.85590756 -0.11806582 -0.03866424 49 20
0.91774452 -0.0085391179 -0.061118122 42 19
0.87563634 -0.12129977 -0.076226972 4 18
0.89301074 -0.12406254 -0.12041525 46 16
0.78789961 -0.11087344 0.11899421 49 28
0.86120278 -0.010124372 0.10087934 6 27
0.82315743 -0.11594765 0.076120645 56 26
0.88278347 -0.010618563 0.058997013 11 25
0.82094634 -0.11563636 0.037033822 9 24
0.89209867 -0.011010081 0.019903254 45 23
0.84405148 -0.1191038 0 45 22
0.91458768 -0.011545256 -0.020425498 6 21
0.85303956 -0.12054771 -0.038547784 46 20
0.9177112 -0.011582421 -0.061118122 45 19
0.86783612 -0.12313481 -0.07555636 8 18
0.89014375 -0.12666829 -0.1200712 44 16
0.7850641 -0.1132635 0.11860787 77 28
0.8512367 -0.013007468 0.099667571 4 27
0.82520998 -0.11918256 0.076358527 55 26
0.88772857 -0.013763538 0.059344053 12 25
0.82053775 -0.11850128 0.037033822 10 24
0.88955319 -0.014246561 0.019845227 46 23
0.83373737 -0.12059198 0 54 22
0.90454543 -0.014603343 -0.020193391 6 21
0.84518051 -0.12257901 -0.038198408 46 20
0.91517133 -0.014752245 -0.060945474 47 19
0.86493784 -0.12579878 -0.07533282 9 18
0.89704436 -0.13086502 -0.12110333 45 16
0.79197067 -0.11724562 0.11976691 80 28
0.85614574 -0.016207008 0.10027345 4 27
0.81984586 -0.12146372 0.07588277 59 26
0.88517857 -0.016976219 0.059170533 34 25
0.83244455 -0.12337076 0.037616115 10 24
0.88949811 -0.017351594 0.019845227 44 23
0.83081788 -0.12327357 0 59 22
0.90698475 -0.017961316 -0.020251418 4 21
0.83733988 -0.12440819 -0.037849031 45 20
0.91012388 -0.018021103 -0.060600173 49 19
0.85708559 -0.12784718 -0.074662201 10 18
0.92639333 -0.018305497 -0.10206678 9 17
0.90635085 -0.13564165 -0.12247951 41 16
0.78667456 -0.11925536 0.11899421 83 28
0.84615964 -0.019001393 0.09906169 8 27
0.81697911 -0.12380233 0.075644895 60 26
0.88511395 -0.020065963 0.059170533 40 25
0.83447683 -0.12665696 0.037732575 11 24
0.89193094 -0.020507013 0.019903254 43 23
0.83038247 -0.12617293 0 58 22
0.89692497 -0.020764751 -0.020019308 4 21
0.84923995 -0.12924054 -0.038431324 43 20
0.9075619 -0.021146558 -0.060427524 49 19
0.85911745 -0.13107048 -0.074885741 13 18
0.93377352 -0.021692552 -0.10291971 30 17
0.90834284 -0.139027 -0.12282355 41 16
0.793594 -0.12301875 0.12015325 86 28
0.8535347 -0.021977454 0.099970512 8 27
0.8140837 -0.12626533 0.075407013 68 26
0.89002907 -0.023116773 0.059517574 44 25
0.82171851 -0.12747665 0.037150279 14 24
0.88935935 -0.023405766 0.019845227 42 23
0.82749015 -0.12853566 0 58 22
0.89184982 -0.023775967 -0.019903254 4 21
0.84140688 -0.13088532 -0.038081951 32 20
0.90499341 -0.024096396 -0.060254876 50 19
0.86849141 -0.13563007 -0.0757799 13 18
0.92873031 -0.024670169 -0.10235109 36 17
0.92252481 -0.14453129 -0.12488781 40 16
0.79559815 -0.12618178 0.12053959 83 28
0.84601068 -0.024760535 0.09906169 9 27
0.81363803 -0.12910625 0.075407013 55 26
0.88495684 -0.026090235 0.059170533 45 25
0.82866472 -0.13153815 0.037499659 19 24
0.88177705 -0.026307251 0.019671148 40 23
0.82456839 -0.13102448 0 59 22
0.89675814 -0.027025914 -0.020019308 6 21
0.84341007 -0.13422042 -0.038198408 10 20
0.90739691 -0.027323598 -0.060427524 49 19
0.86309707 -0.13786292 -0.07533282 24 18
0.92367291 -0.027775791 -0.10178247 36 17
0.79271585 -0.12855604 0.12015325 78 28
0.85088003 -0.027861616 0.099667571 10 27
0.81318241 -0.1319456 0.075407013 45 26
0.8848604 -0.02917915 0.059170533 45 25
0.8158806 -0.13239701 0.036917362 11 24
0.88667619 -0.029537719 0.019787202 19 23
0.82657266 -0.13430944 0 56 22
0.89665836 -0.030156016 -0.020019308 8 21
0.83800876 -0.13634877 -0.037965491 8 20
0.90231031 -0.030336767 -0.060082223 49 19
0.86015421 -0.1404673 -0.075109281 18 18
0.93101805 -0.031229991 -0.1026354 28 17
0.78739113 -0.13050108 0.11938056 80 28
0.84581721 -0.03066615 0.09906169 9 27
0.81517088 -0.13519709 0.075644895 44 26
0.88475311 -0.032267712 0.059170533 45 25
0.81541348 -0.13524415 0.036917362 11 24
0.87657046 -0.032445427 0.019555094 11 23
0.83102906 -0.13802603 0 53 22
0.89654762 -0.033285756 -0.020019308 9 21
0.84489036 -0.14066872 -0.038314868 8 20
0.90219897 -0.033486236 -0.060082223 48 19
0.84983885 -0.14180453 -0.074215122 24 18
0.92345047 -0.034384686 -0.10178247 11 17
0.78447342 -0.13296658 0.11899421 79 28
0.84817898 -0.033857822 0.099364631 11 27
0.79995489 -0.13564749 0.074217632 48 26
0.88961339 -0.035696536 0.059517574 45 25
0.82229531 -0.13950449 0.037266739 11 24
0.87145686 -0.035316631 0.01943904 8 23
0.82805395 -0.14064586 0 50 22
0.89891714 -0.036666617 -0.020077337 11 21
0.83701158 -0.1423419 -0.037965491 8 20
0.89708567 -0.036602993 -0.059736926 49 19
0.85422015 -0.14576858 -0.074662201 43 18
0.92084289 -0.037513442 -0.10149816 9 17
0.80232751 -0.13919838 0.18036895 90 30
0.78643709 -0.13613215 0.11938056 78 28
0.8480556 -0.036818311 0.099364631 15 27
0.80685401 -0.1395921 0.074931264 50 26
0.88200766 -0.038496163 0.058997013 45 25
0.82426286 -0.14280678 0.037383199 11 24
0.87132829 -0.038358372 0.01943904 4 23
0.82755798 -0.14353547 0 49 22
0.90128779 -0.039750684 -0.020135364 10 21
0.83896905 -0.1456964 -0.038081951 9 20
0.8994444 -0.039837755 -0.059909575 49 19
0.84637612 -0.14730079 -0.073991582 51 18
0.91326135 -0.040418126 -0.10064524 6 17
0.77788949 -0.1375493 0.17473243 90 30
0.78111905 -0.13786706 0.11860787 79 28
0.85040814 -0.039739043 0.099667571 18 27
0.80146265 -0.14152884 0.074455507 67 26
0.87938356 -0.041310705 0.058823492 46 25
0.82378483 -0.14553934 0.037383199 41 24
0.86370569 -0.040913992 0.019264959 4 23
0.82461679 -0.1458371 0 50 22
0.88616264 -0.042224105 -0.019787202 26 21
0.83110756 -0.1471523 -0.037732575 9 20
0.89681572 -0.042708367 -0.059736926 50 19
0.85565865 -0.15202145 -0.074885741 56 18
0.77980024 -0.14070307 0.17529608 90 30
0.77577376 -0.13970363 0.11783518 76 28
0.85026419 -0.042707279 0.099667571 37 27
0.8058598 -0.14522155 0.074931264 70 26
0.87923408 -0.044380073 0.058823492 45 25
0.82572824 -0.14886354 0.037499659 45 24
0.87104696 -0.044288382 0.01943904 6 23
0.82902092 -0.14961554 0 47 22
0.89100266 -0.045558698 -0.019903254 41 21
0.83550149 -0.15095328 -0.037965491 10 20
0.90413457 -0.046200167 -0.060254876 47 19
0.85022503 -0.15410668 -0.074438661 59 18
0.77209717 -0.14221613 0.17360511 90 30
0.7801125 -0.14345306 0.11860787 58 28
0.84514529 -0.045570534 0.09906169 40 27
0.7955367 -0.14634646 0.073979758 74 26
0.87906551 -0.047602333 0.058823492 44 25
0.82272226 -0.15143046 0.037383199 48 24
0.86588675 -0.047222503 0.019322986 6 23
0.82109463 -0.1512747 0 48 22
0.88583785 -0.048564218 -0.019787202 44 21
0.83494264 -0.15401453 -0.037965491 11 20
0.90644985 -0.04964333 -0.060427524 44 19
0.84720719 -0.15676254 -0.074215122 64 18
0.91030765 -0.049850255 -0.10036093 4 17
0.77638096 -0.14582315 0.17473243 90 30
0.77475423 -0.14525133 0.11783518 49 28
0.84250313 -0.048385296 0.09875875 44 27
0.79991049 -0.15005346 0.074455507 70 26
0.87391359 -0.050397333 0.058476452 44 25
0.82709509 -0.15523554 0.037616115 45 24
0.86821222 -0.050382495 0.019381013 8 23
0.82301748 -0.15460797 0 48 22
0.89564478 -0.052210655 -0.020019308 46 21
0.83439994 -0.15692808 -0.037965491 18 20
0.89880043 -0.052392077 -0.059909575 44 19
0.84176362 -0.15878317 -0.073768042 65 18
0.90764809 -0.052889738 -0.10007662 6 17
0.77347636 -0.14806761 0.17416877 90 30
0.76696825 -0.14654352 0.11667615 45 28
0.84232908 -0.051325887 0.09875875 43 27
0.7994085 -0.15270522 0.074455507 69 26
0.87622201 -0.053592857 0.058649972 43 25
0.82654816 -0.15812171 0.037616115 45 24
0.87551618 -0.053852268 0.019555094 9 23
0.82738107 -0.15843308 0 35 22
0.89297169 -0.055033512 -0.019961281 48 21
0.83384705 -0.15983972 -0.037965491 13 20
0.90110183 -0.055676199 -0.060082223 40 19
0.84612054 -0.16252562 -0.074215122 59 18
0.91737586 -0.056643452 -0.10121386 8 17
0.77298105 -0.15063173 0.17416877 90 30
0.8285616 -0.052583665 0.15344493 51 29
0.77859396 -0.15147848 0.11860787 53 28
0.83967733 -0.053966939 0.098455809 41 27
0.80131209 -0.15597685 0.074693382 63 26
0.8735503 -0.056344666 0.058476452 26 25
0.81131935 -0.1579591 0.036917362 40 24
0.86286008 -0.055981502 0.019264959 9 23
0.82439858 -0.16069117 0 24 22
0.89277422 -0.058150228 -0.019961281 49 21
0.82841283 -0.16163471 -0.037732575 14 20
0.8934446 -0.058198154 -0.05956427 18 19
0.85043281 -0.16644712 -0.074662201 56 18
0.90478814 -0.058911964 -0.099792317 9 17
0.77483827 -0.15381002 0.17473243 90 30
0.82837301 -0.055475559 0.15344493 49 29
0.77563894 -0.15370841 0.11822153 80 28
0.84691298 -0.057379354 0.099364631 35 27
0.80564237 -0.15975425 0.075169139 55 26
0.87085962 -0.059231333 0.058302931 21 25
0.81810784 -0.16226715 0.037266739 25 24
0.86763704 -0.059471469 0.019381013 9 23
0.82138181 -0.1630746 0 19 22
0.89007187 -0.061101899 -0.019903254 49 21
0.83271086 -0.16565713 -0.037965491 16 20
0.89821333 -0.061644476 -0.059909575 11 19
0.84252459 -0.16793562 -0.073991582 53 18
0.90952283 -0.062555276 -0.10036093 9 17
0.77426934 -0.15664892 0.17473243 90 30
0.82816416 -0.058511324 0.15344493 51 29
0.77023095 -0.15555862 0.11744884 90 28
0.8367939 -0.059804466 0.098152868 31 27
0.79529941 -0.16070774 0.074217632 50 26
0.86566043 -0.062080067 0.057955891 22 25
0.81261468 -0.16426198 0.037033822 15 24
0.86243737 -0.062154517 0.019264959 10 23
0.81588048 -0.16507946 0 18 22
0.88485533 -0.064016819 -0.019787202 49 21
0.82723504 -0.16755854 -0.037732575 19 20
0.89798135 -0.064936183 -0.059909575 8 19
0.8370257 -0.17001858 -0.073544502 51 18
0.90929896 -0.065729722 -0.10036093 12 17
0.76894951 -0.15835452 0.17360511 90 30
0.82060921 -0.06087913 0.15202415 51 29
0.7648474 -0.15723778 0.11667615 90 28
0.8341049 -0.062546767 0.097849928 27 27
0.80207115 -0.1648671 0.074931264 50 26
0.86792594 -0.065281458 0.058129411 26 25
0.80959165 -0.16658771 0.036917362 13 24
0.86470795 -0.065345913 0.019322986 10 23
0.81285197 -0.1674156 0 19 22
0.8871308 -0.067132495 -0.019845227 50 21
0.83153415 -0.17146647 -0.037965491 40 20
0.88779956 -0.067343168 -0.059218969 6 19
0.83889449 -0.17330338 -0.073768042 50 18
0.90658677 -0.06872233 -0.10007662 12 17
0.76365513 -0.15989161 0.17247781 90 30
0.82285082 -0.063782379 0.15249775 51 29
0.7643218 -0.15977323 0.11667615 90 28
0.83389288 -0.065312415 0.097849928 19 27
0.79418713 -0.16611741 0.074217632 49 26
0.85278362 -0.067029461 0.057088286 33 25
0.80659181 -0.16875356 0.036800902 17 24
0.85701007 -0.067644313 0.019148905 32 23
0.80984682 -0.16959126 0 19 22
0.88689113 -0.070228748 -0.019845227 49 21
0.81630409 -0.17111026 -0.037266739 49 20
0.88757133 -0.07028684 -0.059218969 4 19
0.83341366 -0.17519352 -0.073320962 49 18
0.90883046 -0.071917549 -0.10036093 32 17
0.76309234 -0.16255629 0.17247781 90 30
0.81283385 -0.065890715 0.15060335 51 29
0.76134497 -0.16191953 0.1162898 90 28
0.82623804 -0.067637436 0.096941099 13 27
0.79846787 -0.16993792 0.074693382 44 26
0.85503066 -0.070202805 0.057261806 38 25
0.80843902 -0.17209452 0.036917362 23 24
0.86173922 -0.071182363 0.019264959 38 23
0.81658101 -0.1739995 0 19 22
0.87916642 -0.072726734 -0.019671148 46 21
0.81811237 -0.17462875 -0.037383199 49 20
0.87986231 -0.072788469 -0.05870102 6 19
0.83523059 -0.17862865 -0.073544502 48 18
0.90113324 -0.074653104 -0.099508002 43 17
0.75297618 -0.16326 0.17022321 90 30
0.81992674 -0.069469035 0.15202415 53 29
0.76074636 -0.16470893 0.1162898 90 28
0.82845783 -0.070869505 0.097244047 12 27
0.78811646 -0.1707291 0.073741876 19 26
0.85973841 -0.073748343 0.05760885 42 25
0.80292439 -0.17398563 0.036684446 28 24
0.85899484 -0.073982559 0.019206932 44 23
0.81349605 -0.17645486 0 23 22
0.87889397 -0.075948551 -0.019671148 46 21
0.82481486 -0.1790922 -0.037732575 51 20
0.87958962 -0.076012835 -0.05870102 6 19
0.83457029 -0.18168871 -0.073544502 46 18
0.90581745 -0.078212135 -0.10007662 46 17
0.75240165 -0.16588739 0.17022321 94 30
0.81723332 -0.072122283 0.15155055 53 29
0.76498818 -0.16843934 0.11706249 90 28
0.82573295 -0.073548086 0.096941099 16 27
0.79237354 -0.17456315 0.074217632 11 26
0.86196053 -0.076963708 0.057782371 44 25
0.8023122 -0.1767873 0.036684446 33 24
0.85624141 -0.076764472 0.019148905 46 23
0.8104353 -0.17874847 0 28 22
0.87613368 -0.078799054 -0.019613121 45 21
0.81687331 -0.18033595 -0.037383199 49 20
0.87931889 -0.079082713 -0.05870102 8 19
0.83393103 -0.18460082 -0.073544502 30 18
0.90801334 -0.08158917 -0.10036093 48 17
0.751818 -0.16851275 0.17022321 95 30
0.81453151 -0.074757598 0.15107696 54 29
0.76439553 -0.17110862 0.11706249 90 28
0.8254711 -0.076429985 0.096941099 21 27
0.78933239 -0.1767775 0.073979758 9 26
0.85920262 -0.079748601 0.05760885 46 25
0.79681933 -0.17848198 0.03645153 35 24
0.85347897 -0.079528056 0.019090878 48 23
0.8073684 -0.18102288 0 36 22
0.870875 -0.081405535 -0.019497067 40 21
0.81380355 -0.18263301 -0.037266739 49 20
0.88648903 -0.082827143 -0.059218969 9 19
0.83570933 -0.18806356 -0.073768042 13 18
0.90772295 -0.08475823 -0.10036093 50 17
0.7512551 -0.17100494 0.17022321 90 30
0.80939031 -0.077008188 0.15012977 55 29
0.76141691 -0.17308815 0.11667615 90 28
0.82521319 -0.079166926 0.096941099 38 27
0.79359215 -0.18051115 0.074455507 8 26
0.85893345 -0.08259739 0.05760885 47 25
0.79135591 -0.18000236 0.036218613 41 24
0.85072219 -0.082124829 0.019032851 47 23
0.81163591 -0.18482228 0 41 22
0.87308866 -0.084526919 -0.019555094 21 21
0.80832666 -0.18420799 -0.037033822 51 20
0.87627715 -0.084832758 -0.058528371 9 19
0.83750713 -0.19139482 -0.073991582 9 18
0.90496409 -0.087535433 -0.10007662 51 17
0.75539637 -0.1747378 0.17135051 90 30
0.81400383 -0.08030016 0.15107696 51 29
0.75840312 -0.17518218 0.1162898 86 28
0.82246166 -0.081808701 0.096638158 45 27
0.79295725 -0.1832802 0.074455507 9 26
0.85367525 -0.085114457 0.057261806 47 25
0.79558599 -0.18390158 0.03645153 59 24
0.85290301 -0.085484482 0.019090878 41 23
0.80611759 -0.18651423 0 46 22
0.87278831 -0.08757405 -0.019555094 13 21
0.81250876 -0.18830992 -0.037266739 50 20
0.87845796 -0.088133089 -0.05870102 8 19
0.83440983 -0.19374765 -0.073768042 9 18
0.90463716 -0.090851702 -0.10007662 51 17
0.74764287 -0.17581193 0.16965955 95 30
0.81614667 -0.083525613 0.15155055 49 29
0.7625618 -0.17910384 0.11706249 78 28
0.81968707 -0.084575288 0.096335217 49 27
0.79228014 -0.1861853 0.074455507 10 26
0.85335755 -0.088242754 0.057261806 44 25
0.79247713 -0.18623842 0.03633507 73 24
0.85508615 -0.088711984 0.019148905 33 23
0.81272459 -0.19120437 0 45 22
0.87246144 -0.09077239 -0.019555094 10 21
0.80941713 -0.19056623 -0.037150279 49 20
0.87812901 -0.091352217 -0.05870102 9 19
0.82642847 -0.19506967 -0.073097423 9 18
0.90184331 -0.093758784 -0.099792317 50 17
0.73992264 -0.17670247 0.1679686 96 30
0.8158502 -0.086373992 0.15155055 46 29
0.75953108 -0.18118462 0.11667615 76 28
0.81445026 -0.086924121 0.095729336 60 27
0.78682005 -0.18764374 0.073979758 13 26
0.84064138 -0.089930527 0.056394204 41 25
0.79667711 -0.19017629 0.036567986 75 24
0.85228539 -0.091436736 0.019090878 25 23
0.80719227 -0.1928653 0 45 22
0.87712717 -0.09418498 -0.019671148 9 21
0.81117433 -0.19397767 -0.037266739 49 20
0.87532431 -0.094157062 -0.058528371 10 19
0.82819706 -0.19839549 -0.073320962 9 18
0.89904028 -0.096647471 -0.099508002 49 17
0.74642885 -0.18089686 0.16965955 97 30
0.82044125 -0.089597277 0.15249775 45 29
0.76612294 -0.18546605 0.11783518 69 28
0.82155985 -0.090416849 0.096638158 68 27
0.78616023 -0.1903891 0.073979758 15 26
0.84777766 -0.093516655 0.056914765 38 25
0.79361659 -0.1922227 0.03645153 80 24
0.85197747 -0.094262511 0.019090878 19 23
0.81140435 -0.19673194 0 43 22
0.87182337 -0.096708901 -0.019555094 9 21
0.81295192 -0.19726183 -0.037383199 49 20
0.86756855 -0.096255064 -0.058010422 31 19
0.82024574 -0.19950086 -0.072650343 10 18
0.90118426 -0.099895217 -0.099792317 48 17
0.74579287 -0.18350129 0.16965955 99 30
0.82256371 -0.092728272 0.15297134 45 29
0.7606771 -0.18694663 0.11706249 67 28
0.81877273 -0.093011342 0.096335217 72 27
0.78307581 -0.19253136 0.073741876 24 26
0.84000975 -0.095650464 0.056394204 21 25
0.7953642 -0.19559465 0.036567986 82 24
0.84419131 -0.096406609 0.018916797 13 23
0.796157 -0.19593933 0 18 22
0.86402881 -0.09891966 -0.019381013 9 21
0.81225842 -0.20009837 -0.037383199 47 20
0.87218457 -0.099836282 -0.058355723 41 19
0.81712854 -0.20175961 -0.072426803 10 18
0.89589322 -0.10248919 -0.099223696 49 17
0.74514782 -0.18610348 0.16965955 100 30
0.81491745 -0.094770432 0.15155055 44 29
0.76241469 -0.1902054 0.11744884 65 28
0.81844306 -0.095868818 0.096335217 72 27
0.78481191 -0.19587286 0.073979758 21 26
0.83719301 -0.098298438 0.056220684 12 25
0.79709792 -0.19898112 0.036684446 79 24
0.84631532 -0.099785611 0.018974824 12 23
0.79304439 -0.19810483 0 9 22
0.86864406 -0.10250701 -0.019497067 10 21
0.80667752 -0.20184886 -0.037150279 44 20
0.86439776 -0.10202408 -0.057837773 44 19
0.82848769 -0.20766896 -0.073544502 12 18
0.89551151 -0.10577211 -0.099223696 47 17
0.74681979 -0.18943904 0.17022321 99 30
0.81700283 -0.098041743 0.15202415 40 29
0.75214213 -0.19054483 0.11590346 35 28
0.81562167 -0.098577529 0.096032277 68 27
0.7720353 -0.19565772 0.072790369 30 26
0.83187366 -0.10078084 0.055873644 9 25
0.78910607 -0.20004068 0.03633507 79 24
0.84844375 -0.10303339 0.019032851 13 23
0.79957759 -0.20287406 0 8 22
0.86081696 -0.10480486 -0.019322986 15 21
0.81322461 -0.20652664 -0.037499659 38 20
0.8714478 -0.10607488 -0.058355723 45 19
0.82289821 -0.20946313 -0.073097423 15 18
0.89760327 -0.10919061 -0.099508002 45 17
0.743797 -0.19143081 0.16965955 98 30
0.80690718 -0.099718504 0.15012977 42 29
0.76103413 -0.19565621 0.11744884 22 28
0.81527263 -0.10142398 0.096032277 67 27
0.77619952 -0.1994689 0.073266126 35 26
0.8315168 -0.10368401 0.055873644 6 25
0.79323679 -0.20405126 0.036567986 73 24
0.83815533 -0.10478295 0.018800743 15 23
0.79160649 -0.20377462 0 6 22
0.85798383 -0.10735556 -0.019264959 26 21
0.81249875 -0.20936407 -0.037499659 41 20
0.86364561 -0.10820692 -0.057837773 49 19
0.81978971 -0.21156232 -0.072873883 18 18
0.88735521 -0.11111582 -0.098370776 35 17
0.73373842 -0.19140925 0.16740495 97 30
0.80900812 -0.10269546 0.15060335 49 29
0.74843937 -0.19503036 0.11551712 14 28
0.8124693 -0.10381982 0.095729336 67 27
0.76827919 -0.20027377 0.072552495 40 26
0.8262189 -0.10582172 0.055526599 4 25
0.7828967 -0.20413397 0.036102153 76 24
0.84524292 -0.10849505 0.018974824 42 23
0.79334366 -0.20703633 0 8 22
0.85760379 -0.11034983 -0.019264959 36 21
0.80455631 -0.21014473 -0.037150279 51 20
0.86823106 -0.11169285 -0.05818307 47 19
0.82386053 -0.21569642 -0.073320962 19 18
0.89191055 -0.11467781 -0.098939389 22 17
0.73777121 -0.19522926 0.16853225 96 30
0.80133963 -0.10458817 0.14918257 56 29
0.74536783 -0.19700368 0.11513077 10 28
0.80964059 -0.10633948 0.095426396 60 27
0.76997966 -0.20359717 0.072790369 41 26
0.83573896 -0.1099779 0.056220684 6 25
0.78217942 -0.20686555 0.036102153 68 24
0.83988208 -0.11095195 0.01885877 49 23
0.79261607 -0.20980434 0 9 22
0.85473472 -0.11302216 -0.019206932 41 21
0.80619282 -0.21373853 -0.037266739 59 20
0.86041558 -0.11376309 -0.057665121 49 19
0.82310259 -0.21857092 -0.073320962 23 18
0.8890211 -0.11762701 -0.098655082 13 17
0.74175155 -0.1992092 0.16965955 92 30
0.79851699 -0.1072054 0.14870897 68 29
0.75179219 -0.20167457 0.1162898 13 28
0.80186468 -0.10833193 0.094517574 59 27
0.76202279 -0.20446295 0.072076738 42 26
0.83533031 -0.11304029 0.056220684 8 25
0.77659559 -0.20842314 0.035869237 64 24
0.84196723 -0.11421183 0.018916797 54 23
0.78701657 -0.2113979 0 10 22
0.8543148 -0.11615416 -0.019206932 44 21
0.80062199 -0.21524185 -0.037033822 64 20
0.85999286 -0.1169159 -0.057665121 49 19
0.81989342 -0.22093216 -0.073097423 23 18
0.88121879 -0.11974665 -0.097802147 10 17
0.74339986 -0.20244399 0.17022321 90 30
0.80057067 -0.11031972 0.14918257 82 29
0.74393904 -0.20233232 0.11513077 13 28
0.79656345 -0.11046359 0.093911693 50 27
0.76374018 -0.2076484 0.07231462 64 26
0.82504553 -0.11461191 0.055526599 9 25
0.78067905 -0.21245737 0.036102153 56 24
0.83908707 -0.11681268 0.01885877 58 23
0.78868413 -0.21480729 0 12 22
0.85640126 -0.11932443 -0.019264959 44 21
0.80227339 -0.21869838 -0.037150279 67 20
0.85710841 -0.11957952 -0.057492472 47 19
0.81915629 -0.22364981 -0.073097423 40 18
0.88079536 -0.12282194 -0.097802147 8 17
0.7474165 -0.20621724 0.17135051 90 30
0.79776877 -0.11263821 0.14870897 86 29
0.75278133 -0.20745012 0.11667615 18 28
0.80848259 -0.11481203 0.095426396 47 27
0.7630108 -0.2103131 0.07231462 86 26
0.8345415 -0.11872355 0.056220684 10 25
0.78959286 -0.21772628 0.036567986 51 24
0.84362465 -0.12043315 0.018974824 65 23
0.77833492 -0.21473566 0 18 22
0.8559795 -0.12231309 -0.019264959 32 21
0.80150509 -0.22149751 -0.037150279 67 20
0.85917717 -0.12276693 -0.057665121 46 19
0.81117654 -0.22449653 -0.072426803 51 18
0.88528079 -0.12658539 -0.098370776 8 17
0.73493761 -0.20563941 0.16853225 90 30
0.8022114 -0.11625062 0.14965616 80 29
0.74250841 -0.20752102 0.11513077 23 28
0.80559969 -0.11742398 0.095123455 45 27
0.76702452 -0.21446179 0.072790369 90 26
0.82669419 -0.12072212 0.055700123 9 25
0.78878951 -0.2206188 0.036567986 49 24
0.83577704 -0.12231298 0.018800743 61 23
0.78235394 -0.21894751 0 13 22
0.85552549 -0.1254496 -0.019264959 16 21
0.80072707 -0.22429393 -0.037150279 65 20
0.85131544 -0.12485056 -0.057147171 40 19
0.80316162 -0.22543044 -0.071756192 60 18
0.87745798 -0.1286146 -0.097517841 8 17
0.73889786 -0.20954627 0.16965955 90 30
0.79208392 -0.11763781 0.14776179 83 29
0.74415398 -0.21079159 0.11551712 30 28
0.81255126 -0.12131259 0.096032277 31 27
0.76627123 -0.21713792 0.072790369 90 26
0.83613807 -0.12505405 0.056394204 10 25
0.79041535 -0.22405834 0.036684446 46 24
0.83781785 -0.12559301 0.01885877 64 23
0.7863915 -0.22305445 0 20 22
0.84519184 -0.12697819 -0.019032851 10 21
0.79993927 -0.22708762 -0.037150279 66 20
0.85580927 -0.1285484 -0.057492472 34 19
0.79997659 -0.22754501 -0.071532644 65 18
0.87454641 -0.13131474 -0.097233534 9 17
0.73348409 -0.21076518 0.16853225 88 30
0.79652435 -0.12112511 0.14870897 82 29
0.74578583 -0.21407618 0.11590346 26 28
0.8072145 -0.12341288 0.095426396 22 27
0.76554692 -0.21967776 0.072790369 90 26
0.82336485 -0.12612016 0.055526599 12 25
0.7800349 -0.22403252 0.036218613 27 24
0.83490282 -0.12814477 0.018800743 62 23
0.78800893 -0.22649518 0 27 22
0.84229469 -0.12940782 -0.018974824 8 21
0.7943455 -0.22848509 -0.036917362 65 20
0.8578214 -0.13190703 -0.057665121 28 19
0.80878115 -0.23297866 -0.072426803 65 18
0.88145065 -0.13547835 -0.098086454 9 17
0.73511779 -0.21388361 0.1690959 86 30
0.79611832 -0.12376582 0.14870897 78 29
0.74033213 -0.21515584 0.11513077 31 28
0.80925375 -0.12646481 0.095729336 12 27
0.76477545 -0.22234869 0.072790369 90 26
0.83033735 -0.12998545 0.056047164 18 25
0.77449566 -0.22521032 0.035985693 12 24
0.83200306 -0.13053249 0.018742716 62 23
0.77526087 -0.22558196 0 31 22
0.83442754 -0.13120398 -0.018800743 6 21
0.79358333 -0.23111799 -0.036917362 62 20
0.8524496 -0.13399042 -0.05731982 32 19
0.80079764 -0.23368885 -0.071756192 67 18
0.87117755 -0.13688581 -0.096949227 10 17
0.73670089 -0.21714376 0.16965955 47 30
0.79083061 -0.12578788 0.14776179 68 29
0.74904621 -0.22055638 0.11667615 40 28
0.80390418 -0.12852016 0.095123455 8 27
0.76160938 -0.22430718 0.072552495 90 26
0.83234239 -0.13327022 0.056220684 19 25
0.77609837 -0.22862463 0.036102153 9 24
0.83398789 -0.13397032 0.018800743 55 23
0.77446878 -0.22828677 0 33 22
0.83643329 -0.13450556 -0.01885877 4 21
0.78555143 -0.23188475 -0.036567986 55 20
0.84704965 -0.13618749 -0.056974523 45 19
0.79997712 -0.23648272 -0.071756192 69 18
0.87312335 -0.14046562 -0.097233534 15 17
0.74522686 -0.22265838 0.17191416 32 30
0.79521227 -0.1294595 0.14870897 63 29
0.74350315 -0.22187413 0.11590346 45 28
0.79607701 -0.13028574 0.094214633 6 27
0.76078218 -0.22709711 0.072552495 90 26
0.82692367 -0.1355277 0.055873644 42 25
0.77286422 -0.23074666 0.035985693 9 24
0.83104765 -0.13648279 0.018742716 56 23
0.77123338 -0.23040165 0 40 22
0.83840191 -0.13796906 -0.018916797 6 21
0.78473717 -0.23462541 -0.036567986 51 20
0.85146892 -0.14008695 -0.05731982 50 19
0.80148828 -0.24013413 -0.071979731 67 18
0.86772376 -0.14272 -0.096664913 28 17
0.73745745 -0.223122 0.17022321 26 30
0.7996009 -0.13302538 0.14965616 56 29
0.733275 -0.22158279 0.11435808 47 28
0.80296391 -0.13426945 0.095123455 6 27
0.75764459 -0.22889234 0.07231462 90 26
0.82644558 -0.13841335 0.055873644 50 25
0.77205408 -0.23344307 0.035985693 8 24
0.82563406 -0.13856989 0.018626662 54 23
0.77759707 -0.2352839 0 62 22
0.83300781 -0.13993473 -0.018800743 6 21
0.78868973 -0.23882349 -0.036800902 49 20
0.84851402 -0.1426518 -0.057147171 55 19
0.79592562 -0.24133298 -0.071532644 67 18
0.86722028 -0.14574805 -0.096664913 36 17
0.73904032 -0.2262861 0.17078686 23 30
0.79673404 -0.13527276 0.14918257 50 29
0.73961586 -0.22620068 0.11551712 46 28
0.80006671 -0.13652141 0.094820514 8 27
0.75684094 -0.23153561 0.07231462 81 26
0.82352245 -0.14074028 0.055700123 55 25
0.7712757 -0.23600201 0.035985693 9 24
0.82763469 -0.14172168 0.018684689 48 23
0.76725876 -0.23490745 0 74 22
0.83251429 -0.14284162 -0.018800743 8 21
0.78550768 -0.24069951 -0.036684446 48 20
0.85295498 -0.14629407 -0.057492472 58 19
0.79032165 -0.24263552 -0.071085565 68 18
0.87163061 -0.14944895 -0.097233534 45 17
0.7335974 -0.22740854 0.16965955 18 30
0.79867685 -0.13846496 0.14965616 50 29
0.73174971 -0.22656886 0.11435808 49 28
0.80203134 -0.13973188 0.095123455 8 27
0.75602818 -0.23417605 0.07231462 81 26
0.82548428 -0.14403555 0.055873644 62 25
0.77044719 -0.23869281 0.035985693 10 24
0.81479394 -0.1426357 0.018394552 47 23
0.7735917 -0.23982456 0 83 22
0.82954752 -0.14532264 -0.018742716 9 21
0.78700322 -0.24432373 -0.036800902 47 20
0.85489696 -0.14969377 -0.057665121 62 19
0.79897308 -0.24837454 -0.071979731 67 18
0.871077 -0.15264262 -0.097233534 51 17
0.72347248 -0.22714996 0.16740495 17 30
0.79574567 -0.14097054 0.14918257 49 29
0.73326904 -0.22999536 0.11474442 86 28
0.79906929 -0.14224303 0.094820514 10 27
0.75753725 -0.23769715 0.072552495 69 26
0.82249427 -0.14662965 0.055700123 70 25
0.77432847 -0.24302359 0.036218613 10 24
0.81921434 -0.14634356 0.018510606 29 23
0.77032441 -0.24190281 0 87 22
0.83147079 -0.14879525 -0.018800743 10 21
0.78376514 -0.24631427 -0.036684446 38 20
0.85188627 -0.15239389 -0.057492472 62 19
0.7909382 -0.2490388 -0.071309105 65 18
0.86809272 -0.15525186 -0.096949227 53 17
0.72731316 -0.23116307 0.16853225 21 30
0.78799796 -0.14245974 0.14776179 40 29
0.73246169 -0.23255356 0.11474442 90 28
0.80101091 -0.14546746 0.095123455 10 27
0.7567029 -0.24033999 0.072552495 64 26
0.82688743 -0.15037793 0.056047164 70 25
0.76871943 -0.24419987 0.035985693 13 24
0.81131816 -0.14787965 0.018336527 18 23
0.77423626 -0.2461179 0 84 22
0.83094639 -0.15169673 -0.018800743 9 21
0.78765607 -0.25057545 -0.036917362 13 20
0.84889436 -0.15492579 -0.05731982 55 19
0.79243445 -0.25256062 -0.071532644 65 18
0.87732416 -0.16003707 -0.098086454 53 17
0.72186905 -0.23219518 0.16740495 23 30
0.79474211 -0.14652243 0.14918257 29 29
0.72459739 -0.23282157 0.11358538 90 28
0.80049831 -0.14826263 0.095123455 12 27
0.75590175 -0.24284799 0.072552495 63 26
0.82390404 -0.15281574 0.055873644 73 25
0.77261299 -0.24842347 0.036218613 18 24
0.81817275 -0.15205915 0.018510606 10 23
0.7709946 -0.24804688 0 85 22
0.83043879 -0.1544514 -0.018800743 12 21
0.77490133 -0.24946485 -0.03633507 9 20
0.84589517 -0.15743868 -0.057147171 59 19
0.78685689 -0.25364649 -0.071085565 69 18
0.87676024 -0.16309851 -0.098086454 56 17
0.71878123 -0.23382737 0.16684128 28 30
0.78701001 -0.14782012 0.14776179 15 29
0.72851503 -0.2367636 0.11435808 90 28
0.80000216 -0.15091637 0.095123455 15 27
0.7597785 -0.2470372 0.073028244 55 26
0.82094073 -0.1550913 0.055700123 69 25
0.76466674 -0.24864793 0.035869237 18 24
0.82257825 -0.15568671 0.018626662 8 23
0.76779264 -0.24982218 0 83 22
0.82743764 -0.15689076 -0.018742716 13 21
0.77881479 -0.25359228 -0.036567986 9 20
0.8478201 -0.1607004 -0.05731982 54 19
0.78833187 -0.25717011 -0.071309105 63 18
0.87133127 -0.16509384 -0.097517841 56 17
0.72951674 -0.24017696 0.16965955 31 30
0.79613876 -0.1523827 0.14965616 9 29
0.72534001 -0.23852673 0.11397174 90 28
0.79215544 -0.15232447 0.094214633 19 27
0.76363516 -0.25125644 0.073504001 50 26
0.8203944 -0.15795597 0.055700123 68 25
0.76616406 -0.25210264 0.035985693 21 24
0.81709123 -0.15776731 0.018510606 6 23
0.76217097 -0.2509242 0 81 22
0.82934028 -0.16024515 -0.018800743 32 21
0.77551043 -0.25565681 -0.03645153 6 20
0.84480393 -0.16319282 -0.057147171 55 19
0.78979176 -0.26070711 -0.071532644 67 18
0.86828041 -0.16782176 -0.097233534 58 17
0.72863156 -0.24284916 0.16965955 36 30
0.78352147 -0.1529851 0.14728819 9 29
0.72211963 -0.24039663 0.11358538 90 28
0.79402846 -0.15569693 0.094517574 23 27
0.75327343 -0.25088179 0.072552495 35 26
0.81491262 -0.16001517 0.055353079 61 25
0.75813353 -0.25252196 0.035636321 23 24
0.81653553 -0.16061854 0.018510606 4 23
0.7612462 -0.25371599 0 71 22
0.83120096 -0.1637598 -0.01885877 44 21
0.77224648 -0.25756577 -0.03633507 6 20
0.84420013 -0.16628808 -0.057147171 51 19
0.78647137 -0.26280466 -0.071309105 64 18
0.86768925 -0.1708516 -0.097233534 56 17
0.72547376 -0.24460617 0.1690959 44 30
0.78298265 -0.15571916 0.14728819 8 29
0.72127604 -0.24291582 0.11358538 90 28
0.78374022 -0.15655324 0.093305811 26 27
0.75243735 -0.25337836 0.072552495 28 26
0.81190217 -0.16237694 0.055179559 60 25
0.7667048 -0.25838265 0.036102153 26 24
0.81351793 -0.16298406 0.018452579 8 23
0.75798917 -0.25556645 0 69 22
0.83310533 -0.16699943 -0.018916797 49 21
0.77607077 -0.26186943 -0.036567986 8 20
0.83872116 -0.16826674 -0.05680187 51 19
0.7855956 -0.26541126 -0.071309105 64 18
0.85977769 -0.17243461 -0.096380606 55 17
0.72235554 -0.24621801 0.16853225 48 30
0.77523953 -0.15687683 0.14586741 8 29
0.72046661 -0.24530633 0.11358538 90 28
0.78078341 -0.15866467 0.093002871 44 27
0.75860882 -0.2584303 0.073266126 21 26
0.81135923 -0.1650684 0.055179559 59 25
0.75875884 -0.25848833 0.035752777 28 24
0.81052244 -0.16518901 0.018394552 8 23
0.75950158 -0.2588917 0 65 22
0.82026589 -0.16744286 -0.018626662 59 21
0.77047539 -0.26281628 -0.03633507 9 20
0.8308233 -0.16957206 -0.056283921 49 19
0.77995628 -0.2665289 -0.070862025 64 18
0.86163616 -0.17577446 -0.096664913 60 17
0.72379196 -0.2495386 0.1690959 50 30
0.77949882 -0.16055739 0.1468146 9 29
0.72427195 -0.24944188 0.11435808 90 28
0.77536136 -0.16039881 0.092396989 50 27
0.75065011 -0.25862515 0.072552495 16 26
0.80833441 -0.16740106 0.055006038 53 25
0.7578519 -0.26113531 0.035752777 41 24
0.81725746 -0.16966118 0.018568633 9 23
0.7609545 -0.26236263 0 58 22
0.82457352 -0.17130765 -0.018742716 63 21
0.76714855 -0.26481718 -0.036218613 11 20
0.83511305 -0.17347158 -0.056629222 35 19
0.7860747 -0.27170891 -0.071532644 60 18
0.85855293 -0.17843273 -0.096380606 55 17
0.71368319 -0.24895367 0.16684128 54 30
0.77650106 -0.16291678 0.146341 10 29
0.71869278 -0.25045556 0.11358538 90 28
0.77962798 -0.16424774 0.093002871 59 27
0.75204474 -0.26220047 0.072790369 17 26
0.80771542 -0.17036264 0.055006038 50 25
0.75688976 -0.26391122 0.035752777 63 24
0.81176656 -0.17149411 0.018452579 10 23
0.76942056 -0.26846987 0 51 22
0.8239401 -0.17432871 -0.018742716 64 21
0.77328598 -0.26998189 -0.036567986 12 20
0.82958859 -0.17551292 -0.056283921 19 19
0.78037721 -0.27293161 -0.071085565 59 18
0.85792488 -0.18142857 -0.096380606 55 17
0.7128098 -0.25144339 0.16684128 56 30
0.7831344 -0.16714105 0.14776179 13 29
0.72014135 -0.2537905 0.11397174 90 28
0.7839061 -0.16799325 0.093608752 68 27
0.74648142 -0.2630257 0.07231462 17 26
0.80467582 -0.17266507 0.054832518 49 25
0.75361097 -0.26571473 0.035636321 68 24
0.81116295 -0.17432666 0.018452579 9 23
0.76612341 -0.2703158 0 50 22
0.8184675 -0.17602332 -0.018626662 63 21
0.76763368 -0.27100411 -0.03633507 18 20
0.83141065 -0.17892534 -0.056456573 12 19
0.78650421 -0.27802619 -0.071756192 56 18
0.85728633 -0.18442218 -0.096380606 53 17
0.71197212 -0.25380576 0.16684128 81 30
0.77777469 -0.16871133 0.1468146 18 29
0.71464694 -0.25450626 0.11319904 90 28
0.78091836 -0.17007126 0.093305811 73 27
0.75492656 -0.26899695 0.073266126 18 26
0.81141365 -0.17690471 0.055353079 29 25
0.75507581 -0.26905707 0.035752777 70 24
0.81058043 -0.17701563 0.018452579 10 23
0.76287031 -0.27200887 0 48 22
0.82029122 -0.17940612 -0.018684689 59 21
0.77847981 -0.27777573 -0.036917362 18 20
0.83081269 -0.18168141 -0.056456573 9 19
0.78084391 -0.27908134 -0.071309105 59 18
0.85667008 -0.18726404 -0.096380606 51 17
0.71794844 -0.25878736 0.16853225 90 30
0.77718109 -0.17142524 0.1468146 24 29
0.71375424 -0.25699928 0.11319904 90 28
0.78759348 -0.17438336 0.094214633 69 27
0.74930495 -0.2699306 0.072790369 19 26
0.80104542 -0.17760573 0.054658998 22 25
0.75178486 -0.27083823 0.035636321 73 24
0.80995756 -0.17984399 0.018452579 12 23
0.75486761 -0.27210742 0 31 22
0.81477737 -0.18119752 -0.018568633 60 21
0.7704649 -0.27793032 -0.036567986 26 20
0.82530123 -0.18351182 -0.056111272 6 19
0.77518594 -0.28010044 -0.070862025 59 18
0.85358506 -0.18972114 -0.0960963 55 17
0.71699512 -0.26141703 0.16853225 90 30
0.76935703 -0.17268245 0.1453938 19 29
0.71744418 -0.26131773 0.11397174 90 28
0.77725875 -0.17511703 0.093002871 70 27
0.75064647 -0.27353364 0.073028244 21 26
0.8028236 -0.18108201 0.054832518 13 25
0.74844325 -0.27273035 0.035519861 74 24
0.80197448 -0.18118091 0.0182785 15 23
0.75855798 -0.27659798 0 12 22
0.81898642 -0.18527137 -0.018684689 56 21
0.76240999 -0.27816543 -0.036218613 18 20
0.82949138 -0.18762188 -0.056456573 4 19
0.78116328 -0.28552276 -0.071532644 58 18
0.85045981 -0.19230744 -0.095811993 54 17
0.71151251 -0.26222023 0.16740495 91 30
0.77353954 -0.17644379 0.146341 25 29
0.7142123 -0.26296034 0.11358538 90 28
0.77664274 -0.17782909 0.093002871 68 27
0.75202 -0.27701887 0.073266126 20 26
0.79732144 -0.18278331 0.054485478 10 25
0.7521686 -0.27708057 0.035752777 71 24
0.8086499 -0.18563528 0.018452579 19 23
0.75290114 -0.27750212 0 9 22
0.81345987 -0.18702328 -0.018568633 56 21
0.77079701 -0.28430694 -0.036684446 20 20
0.82396686 -0.1894128 -0.056111272 4 19
0.7848286 -0.28998616 -0.071979731 54 18
0.85220563 -0.19582435 -0.0960963 50 17
0.70831299 -0.26384532 0.16684128 95 30
0.77770507 -0.18023641 0.14728819 28 29
0.72022706 -0.26805648 0.11474442 90 28
0.7711798 -0.17942929 0.092396989 64 27
0.74643719 -0.27776232 0.072790369 18 26
0.80640107 -0.18779927 0.055179559 9 25
0.74885893 -0.27882659 0.035636321 70 24
0.80312562 -0.1873358 0.018336527 45 23
0.75426823 -0.28100777 0 8 22
0.81283522 -0.18971978 -0.018568633 53 21
0.76512474 -0.28523853 -0.03645153 35 20
0.8208704 -0.19172764 -0.055938624 6 19
0.77920169 -0.29083335 -0.071532644 53 18
0.84667617 -0.19768214 -0.095527679 53 17
0.70971113 -0.26705727 0.16740495 94 30
0.76514691 -0.18004088 0.14492022 41 29
0.70778698 -0.2660639 0.1128127 68 28
0.77058053 -0.18198562 0.092396989 64 27
0.7477901 -0.28124872 0.073028244 17 26
0.80091637 -0.1893393 0.054832518 8 25
0.74793011 -0.28130838 0.035636321 68 24
0.80006629 -0.18942943 0.0182785 50 23
0.7509948 -0.28262046 0 9 22
0.8097344 -0.19198649 -0.018510606 51 21
0.76884401 -0.289547 -0.036684446 49 20
0.8153733 -0.19331223 -0.055593323 6 19
0.77818167 -0.2935515 -0.071532644 51 18
0.85327137 -0.20218647 -0.096380606 51 17
0.70195258 -0.26691556 0.16571397 95 30
0.76451379 -0.18271065 0.14492022 46 29
0.70685387 -0.26853293 0.1128127 50 28
0.76511079 -0.18353173 0.091791108 64 27
0.74215609 -0.28207603 0.072552495 24 26
0.80510414 -0.19328389 0.055179559 8 25
0.74694359 -0.2839174 0.035636321 67 24
0.80422992 -0.19351558 0.018394552 59 23
0.75934076 -0.28882065 0 9 22
0.81149089 -0.19538978 -0.018568633 46 21
0.76078337 -0.28967816 -0.03633507 55 20
0.81954634 -0.19731064 -0.055938624 8 19
0.77947664 -0.29715919 -0.071756192 50 18
0.84285915 -0.20301344 -0.095243372 51 17
0.69869882 -0.2686058 0.16515031 93 30
0.76383901 -0.18551151 0.14492022 53 29
0.71507746 -0.27469146 0.11435808 49 28
0.76684576 -0.18691492 0.092094049 60 27
0.7411173 -0.28479427 0.072552495 36 26
0.80439031 -0.19623344 0.055179559 8 25
0.74356943 -0.28575093 0.035519861 68 24
0.80111986 -0.19573569 0.018336527 65 23
0.7559461 -0.29069817 0 10 22
0.81562829 -0.19953643 -0.018684689 44 21
0.76675236 -0.29504126 -0.036684446 60 20
0.82124197 -0.20089872 -0.056111272 8 19
0.77374017 -0.2982108 -0.071309105 51 18
0.84455967 -0.20653751 -0.095527679 50 17
0.70229238 -0.27282047 0.16627763 93 30
0.75603116 -0.18643628 0.14349943 65 29
0.70721418 -0.27448457 0.11319904 50 28
0.76618862 -0.18959057 0.092094049 54 27
0.74016881 -0.28725034 0.072552495 44 26
0.80127776 -0.19844772 0.055006038 8 25
0.74024194 -0.28743434 0.035403404 67 24
0.80285931 -0.19912541 0.018394552 67 23
0.7572546 -0.29424694 0 10 22
0.81253463 -0.20164515 -0.018626662 24 21
0.76571786 -0.29771593 -0.036684446 63 20
0.81569123 -0.20257604 -0.055765972 9 19
0.775065 -0.30168435 -0.071532644 51 18
0.84383363 -0.20948432 -0.095527679 50 17
0.69685423 -0.27335542 0.16515031 94 30
0.75540876 -0.18894234 0.14349943 73 29
0.71089417 -0.27864438 0.11397174 59 28
0.76314688 -0.19153376 0.091791108 49 27
0.74147594 -0.29074714 0.072790369 44 26
0.80061537 -0.20110376 0.055006038 8 25
0.74392956 -0.29172367 0.035636321 64 24
0.80219465 -0.2017867 0.018394552 64 23
0.7562747 -0.29675645 0 12 22
0.81910199 -0.2062903 -0.018800743 13 21
0.76240432 -0.29933462 -0.036567986 67 20
0.81985545 -0.20648403 -0.056111272 10 19
0.78789616 -0.30989262 -0.072873883 47 18
0.84072399 -0.21168181 -0.095243372 50 17
0.69815743 -0.27669036 0.16571397 93 30
0.7523635 -0.19098173 0.14302583 76 29
0.70303571 -0.27837598 0.1128127 77 28
0.76969379 -0.19601136 0.09269993 44 27
0.74276763 -0.29425663 0.073028244 23 26
0.80232698 -0.20450605 0.055179559 9 25
0.74290669 -0.29431871 0.035636321 64 24
0.7941795 -0.20289129 0.018220473 67 23
0.75523418 -0.29939455 0 12 22
0.80626047 -0.20608906 -0.018510606 9 21
0.75898331 -0.30119956 -0.03645153 59 20
0.81671154 -0.20873407 -0.055938624 10 19
0.7798748 -0.30986446 -0.072203271 49 18
0.83994246 -0.21476178 -0.095243372 50 17
0.69939697 -0.28015977 0.16627763 94 30
0.7469005 -0.19252786 0.14207864 76 29
0.70659155 -0.28279981 0.11358538 85 28
0.75935233 -0.19637598 0.091488168 55 27
0.73014534 -0.29231972 0.071838863 15 26
0.79190695 -0.20497456 0.054485478 9 25
0.73719144 -0.29517025 0.035403404 65 24
0.79588771 -0.20628214 0.0182785 65 23
0.75181365 -0.30122447 0 13 22
0.80792069 -0.20966348 -0.018568633 6 21
0.75329643 -0.30197603 -0.036218613 59 20
0.81594104 -0.21172605 -0.055938624 11 19
0.80412388 -0.32299441 -0.074662201 49 18
0.83918768 -0.21769242 -0.095243372 49 17
0.69841474 -0.28259945 0.16627763 92 30
0.75573128 -0.19758734 0.14397302 74 29
0.70331293 -0.28433207 0.11319904 90 28
0.76346684 -0.20026976 0.092094049 62 27
0.72912055 -0.29486662 0.071838863 10 26
0.79601485 -0.20898983 0.054832518 9 25
0.73615664 -0.29774174 0.035403404 68 24
0.80000085 -0.21031567 0.018394552 63 23
0.75538725 -0.30573538 0 17 22
0.80476511 -0.21185321 -0.018510606 4 21
0.75454998 -0.30554727 -0.03633507 64 20
0.80795586 -0.21268946 -0.055420674 38 19
0.83601886 -0.21999516 -0.094959065 50 17
0.69517213 -0.28410745 0.16571397 93 30
0.75978637 -0.20146747 0.14492022 70 29
0.70231611 -0.28678533 0.11319904 90 28
0.75556278 -0.20104189 0.091185227 67 27
0.73729157 -0.30120009 0.072790369 9 26
0.79045671 -0.21049806 0.054485478 12 25
0.7420404 -0.30316207 0.035752777 47 24
0.79442817 -0.2118334 0.0182785 62 23
0.74506932 -0.3045612 0 12 22
0.80160409 -0.2140235 -0.018452579 6 21
0.75347877 -0.30817929 -0.03633507 58 20
0.80238545 -0.21423595 -0.05507537 46 19
0.83524585 -0.22291207 -0.094959065 50 17
0.69872373 -0.28828239 0.16684128 92 30
0.75199622 -0.20209727 0.14349943 70 29
0.70136124 -0.28911275 0.11319904 90 28
0.76448393 -0.20610034 0.092396989 69 27
0.73399073 -0.30268827 0.072552495 10 26
0.79457384 -0.21440326 0.054832518 22 25
0.74103099 -0.30562115 0.035752777 37 24
0.79372132 -0.21446666 0.0182785 62 23
0.75328875 -0.31086999 0 12 22
0.78881741 -0.21345247 -0.018162446 6 21
0.75245267 -0.31067622 -0.03633507 55 20
0.81130826 -0.21947254 -0.055765972 50 19
0.8321026 -0.22503902 -0.094674759 50 17
0.69322217 -0.28883272 0.16571397 92 30
0.75128621 -0.204721 0.14349943 66 29
0.69579285 -0.28964725 0.11242635 90 28
0.76615566 -0.20941453 0.09269993 73 27
0.73063499 -0.30428529 0.07231462 10 26
0.79141313 -0.21652457 0.054658998 20 25
0.7422623 -0.30917245 0.035869237 36 24
0.79292995 -0.21737435 0.0182785 58 23
0.74297905 -0.30962566 0 11 22
0.79289204 -0.21751274 -0.0182785 6 21
0.74670464 -0.31149656 -0.036102153 50 20
0.81053716 -0.22230321 -0.055765972 53 19
0.826478 -0.22678654 -0.094106138 48 17
0.69888496 -0.29422665 0.16740495 90 30
0.75053078 -0.20747325 0.14349943 67 29
0.69472653 -0.29219556 0.11242635 90 28
0.76538301 -0.21222121 0.09269993 76 27
0.72951478 -0.30696121 0.07231462 10 26
0.79061419 -0.2194238 0.054658998 12 25
0.73652589 -0.30994099 0.035636321 42 24
0.78734618 -0.2188168 0.018162446 59 23
0.74644208 -0.31429955 0 27 22
0.78967959 -0.2197545 -0.018220473 6 21
0.75021029 -0.31605268 -0.03633507 50 20
0.81212163 -0.22593395 -0.055938624 56 19
0.82328647 -0.22901139 -0.093821831 47 17
0.75015771 -0.20951027 0.19851168 90 31
0.7045697 -0.2995429 0.1690959 90 30
0.74980199 -0.21009183 0.14349943 61 29
0.69370234 -0.29461882 0.11242635 90 28
0.76224643 -0.2142276 0.092396989 74 27
0.72849286 -0.30937865 0.07231462 11 26
0.78263503 -0.22017772 0.054138437 10 25
0.74232656 -0.31545898 0.035985693 48 24
0.78416985 -0.22089338 0.018104419 50 23
0.73844635 -0.31394988 0 48 22
0.80339223 -0.22639711 -0.018568633 8 21
0.74910247 -0.31866947 -0.03633507 48 20
