# .PCD v0.7 - Point Cloud Data file format
VERSION 0.7
FIELDS x y z intensity ring
SIZE 4 4 4 4 2
TYPE F F F F U
COUNT 1 1 1 1 1
WIDTH 1183
HEIGHT 1
VIEWPOINT 0 0 0 1 0 0 0
POINTS 1183
DATA ascii
0.73154676 -0.077889457 -0.097364321 19 16
0.68362123 -0.074427299 0.151059 92 30
0.71226341 0.014053274 0.13071236 44 29
0.68788218 -0.074680604 0.10276773 90 28
0.70520204 -0.076504901 0.064464673 26 26
0.71247596 -0.077448927 0.031793188 19 24
0.70574528 -0.076821022 0 81 22
0.72485745 -0.07908947 -0.032375481 51 20
0.73023647 -0.079944737 -0.062814608 55 18
0.74112672 -0.08142589 -0.098740496 22 16
0.69304889 -0.077811956 0.15331362 90 30
0.71721458 0.01178892 0.13165954 49 29
0.68763077 -0.076961294 0.10276773 90 28
0.7271688 0.011376596 0.084520526 9 27
0.6975137 -0.078111805 0.063751042 24 26
0.71221519 -0.079811163 0.031793188 18 24
0.70548671 -0.079160936 0 88 22
0.71714884 -0.080632962 -0.032026105 49 20
0.72253287 -0.081632085 -0.062143989 50 18
0.73345917 -0.083153427 -0.097708367 28 16
0.69519156 -0.080518641 0.15387727 90 30
0.71479702 0.0092450334 0.13118595 60 29
0.69471622 -0.080234617 0.10392677 90 28
0.70983517 0.0085684136 0.082399942 12 27
0.69723678 -0.080546111 0.063751042 24 26
0.70201284 -0.081119217 0.031327356 21 24
0.7101711 -0.08221335 0 90 22
0.71932822 -0.083556585 -0.032142565 36 20
0.72966057 -0.085040756 -0.062814608 46 18
0.73070586 -0.085418262 -0.097364321 22 16
0.69247431 -0.082769282 0.15331362 90 30
0.70991701 0.0065625608 0.13023876 68 29
0.6895141 -0.082180016 0.10315407 90 28
0.70986176 0.0059666801 0.082399942 25 27
0.70434761 -0.084008366 0.064464673 30 26
0.70666832 -0.084298626 0.031560272 21 24
0.71234643 -0.085119948 0 90 22
0.71903217 -0.086067006 -0.032142565 22 20
0.71698767 -0.086190797 -0.061696909 46 18
0.74021792 -0.08931154 -0.098740496 29 16
0.68734837 -0.084575437 0.15218632 92 30
0.71239018 0.004107154 0.13071236 71 29
0.68922305 -0.08458636 0.10315407 83 28
0.71484131 0.0035303419 0.083005823 33 27
0.6991117 -0.085844375 0.063988924 34 26
0.71132517 -0.087389097 0.031793188 22 24
0.70956463 -0.087293074 0 90 22
0.70633942 -0.087011412 -0.031560272 16 20
0.72162282 -0.089319758 -0.062143989 51 18
0.73498875 -0.091269836 -0.098052412 32 16
0.68221813 -0.086346798 0.151059 96 30
0.70258141 0.0015638706 0.12881798 74 29
0.68157506 -0.086039893 0.10199504 79 28
0.70244145 0.00097442279 0.08149112 38 27
0.70129132 -0.088481486 0.064226799 38 26
0.73570329 0.00088625122 0.048759297 13 25
0.70853919 -0.089550778 0.031676728 24 24
0.71173477 -0.090090945 0 90 22
0.70850784 -0.089798093 -0.031676728 12 20
0.71391529 -0.09074758 -0.06147337 65 18
0.7420482 -0.094668567 -0.099084541 35 16
0.68192804 -0.088608637 0.151059 98 30
0.70258278 -0.0007659822 0.12881798 75 29
0.6886313 -0.089275762 0.10315407 66 28
0.7098856 -0.0013432682 0.082399942 42 27
0.7034452 -0.091256753 0.064464673 46 26
0.72572631 -0.0015656212 0.048065215 33 25
0.7082383 -0.091899879 0.031676728 24 24
0.70895404 -0.092120871 0 90 22
0.713157 -0.092806794 -0.031909645 9 20
0.71359414 -0.093239047 -0.06147337 76 18
0.73680472 -0.09659981 -0.098396458 38 16
0.68161458 -0.090988472 0.151059 97 30
0.70994002 -0.0032261608 0.13023876 70 29
0.68097365 -0.090677209 0.10199504 45 28
0.70243186 -0.0038069305 0.08149112 44 27
0.69572484 -0.092702299 0.063751042 47 26
0.73070431 -0.0041101864 0.048412256 40 25
0.71781063 -0.095722042 0.032142565 23 24
0.70615107 -0.094256602 0 90 22
0.71281201 -0.095420025 -0.031909645 12 20
0.7157312 -0.096068181 -0.061696909 82 18
0.72665077 -0.097820051 -0.097020283 47 16
0.68368852 -0.093825094 0.15162265 98 30
0.70746869 -0.0058166315 0.12976517 76 29
0.68552876 -0.093858287 0.10276773 30 28
0.70737624 -0.0064091654 0.082097001 43 27
0.69784504 -0.09559714 0.063988924 50 26
0.72819048 -0.0067735249 0.048238736 45 25
0.70508945 -0.096618854 0.031560272 26 24
0.71718097 -0.0069524599 0.015841367 14 23
0.70084947 -0.096149139 0 90 22
0.71494758 -0.098255187 -0.032026105 12 20
0.71537423 -0.09869083 -0.061696909 87 18
0.72628736 -0.10048271 -0.097020283 60 16
0.67853534 -0.09551625 0.15049534 98 30
0.70253479 -0.00824585 0.12881798 77 29
0.67786252 -0.095196351 0.10160869 22 28
0.70238662 -0.0088332873 0.08149112 39 27
0.70491433 -0.098971747 0.064702556 51 26
0.71569306 -0.0091978181 0.047371134 49 25
0.71216351 -0.10014544 0.031909645 25 24
0.72215068 -0.0095047019 0.015957421 26 23
0.70298404 -0.098951116 0 88 22
0.71460032 -0.10075022 -0.032026105 16 20
0.71257865 -0.10070654 -0.06147337 89 18
0.72840077 -0.1032455 -0.097364321 71 16
0.67821485 -0.097765818 0.15049534 97 30
0.70250356 -0.010575494 0.12881798 78 29
0.68243039 -0.098162785 0.10238139 17 28
0.70235348 -0.011162437 0.08149112 35 27
0.69964027 -0.10070723 0.064226799 78 26
0.72563368 -0.011698191 0.048065215 51 25
0.69700336 -0.10032541 0.031210894 23 24
0.72211522 -0.011899387 0.015957421 40 23
0.69770539 -0.10055304 0 85 22
0.74460298 -0.01245374 -0.016479664 17 21
0.71426225 -0.10311937 -0.032026105 17 20
0.71468592 -0.1035579 -0.061696909 85 18
0.72558659 -0.10542402 -0.097020283 78 16
0.68509454 -0.10122404 0.15218632 95 30
0.70246238 -0.013027625 0.12881798 80 29
0.67964125 -0.10017624 0.10199504 16 28
0.70727277 -0.013692864 0.082097001 22 27
0.69436276 -0.10240711 0.063751042 90 26
0.72309482 -0.014190574 0.047891695 60 25
0.70405716 -0.10387421 0.031560272 20 24
0.71706879 -0.014462243 0.015841367 45 23
0.69982219 -0.10336087 0 79 22
0.72706223 -0.014756639 -0.016073475 11 21
0.71141028 -0.10536314 -0.031909645 24 20
0.71185827 -0.10567878 -0.06147337 89 18
0.72521418 -0.10795615 -0.097020283 85 16
0.6871258 -0.10410696 0.15274997 95 30
0.70486426 -0.01564803 0.12929156 76 29
0.67194647 -0.10153553 0.10083601 24 28
0.70225567 -0.016188044 0.08149112 11 27
0.69398278 -0.10495137 0.063751042 90 26
0.7280249 -0.01693999 0.048238736 64 25
0.70367169 -0.10645401 0.031560272 22 24
0.71701396 -0.016965192 0.015841367 47 23
0.7019093 -0.10630719 0 72 22
0.73699838 -0.017627234 -0.016305583 20 21
0.7085703 -0.10746374 -0.031793188 30 20
0.71392655 -0.10866939 -0.061696909 84 18
0.71992016 -0.10985154 -0.096332192 87 16
0.67954123 -0.10536178 0.151059 92 30
0.69989711 -0.017999558 0.12834437 76 29
0.67890698 -0.10503705 0.10199504 25 28
0.70963758 -0.018810775 0.082399942 8 27
0.691154 -0.10698473 0.063513167 90 26
0.73045462 -0.01953949 0.048412256 71 25
0.70082915 -0.10851984 0.031443812 41 24
0.71445173 -0.019408613 0.01578334 50 23
0.70153397 -0.10875666 0 71 22
0.73443377 -0.02013954 -0.016247556 35 21
0.70079124 -0.10876446 -0.031443812 25 20
0.71354294 -0.11116079 -0.061696909 83 18
0.71953231 -0.11236387 -0.096332192 90 16
0.68157363 -0.10812261 0.15162265 90 30
0.70719177 -0.020631462 0.12976517 69 29
0.67609787 -0.10701218 0.10160869 29 28
0.70708692 -0.02122193 0.082097001 9 27
0.69568998 -0.11019073 0.063988924 92 26
0.73038191 -0.022089133 0.048412256 69 25
0.69305015 -0.10977029 0.031094434 45 24
0.72437328 -0.022174563 0.016015448 50 23
0.70115006 -0.1112048 0 65 22
0.73186058 -0.022634156 -0.016189529 38 21
0.7102679 -0.1128071 -0.031909645 33 20
0.73536932 -0.022737032 -0.048514668 18 19
0.71315056 -0.11365085 -0.061696909 78 18
0.7191357 -0.11487481 -0.096332192 90 16
0.6811921 -0.11050108 0.15162265 90 30
0.70220798 -0.02295682 0.12881798 71 29
0.67815709 -0.10977411 0.10199504 35 28
0.70452803 -0.023615509 0.081794061 9 27
0.69775647 -0.11302408 0.064226799 92 26
0.73279321 -0.024714233 0.048585776 71 25
0.69759065 -0.11300285 0.031327356 46 24
0.71679699 -0.024472676 0.015841367 58 23
0.70322406 -0.11405948 0 64 22
0.74176961 -0.025499221 -0.016421637 41 21
0.70494235 -0.11446997 -0.031676728 42 20
0.73279274 -0.025226343 -0.048342019 30 19
0.71274948 -0.11613952 -0.061696909 76 18
0.72850078 -0.11901061 -0.097708367 88 16
0.6759991 -0.11206583 0.15049534 90 30
0.70703042 -0.025568048 0.12976517 65 29
0.67533427 -0.11172959 0.10160869 31 28
0.70940167 -0.026240913 0.082399942 10 27
0.70226556 -0.11628736 0.064702556 90 26
0.73020995 -0.027187582 0.048412256 70 25
0.69472933 -0.11502159 0.031210894 46 24
0.71920508 -0.027060099 0.015899394 55 23
0.7003566 -0.116097 0 47 22
0.7341826 -0.027829265 -0.016247556 41 21
0.70453846 -0.11692998 -0.031676728 41 20
0.72771513 -0.027611772 -0.047996718 44 19
0.71479458 -0.11904331 -0.061920449 69 18
0.72319859 -0.12072265 -0.097020283 90 16
0.67800385 -0.11483938 0.151059 90 30
0.70693684 -0.028035888 0.12976517 64 29
0.67494017 -0.11408627 0.10160869 38 28
0.70434606 -0.028533429 0.081794061 12 27
0.69695044 -0.11789254 0.064226799 90 26
0.72512615 -0.029550072 0.048065215 76 25
0.70170665 -0.11871857 0.031560272 38 24
0.7191062 -0.029570427 0.015899394 56 23
0.69748354 -0.11811591 0 42 22
0.72658843 -0.030106658 -0.016073475 43 21
0.704126 -0.11938856 -0.031676728 43 20
0.72761428 -0.030151803 -0.047996718 47 19
0.71437472 -0.12153768 -0.061920449 64 18
0.73469406 -0.030427402 -0.08017502 11 17
0.71545357 -0.12197555 -0.095988154 88 16
0.67520028 -0.11678243 0.15049534 90 30
0.70438194 -0.03040616 0.12929156 58 29
0.67697042 -0.11686961 0.10199504 42 28
0.71168077 -0.031293251 0.082702883 17 27
0.70145774 -0.1210648 0.064702556 90 26
0.72751045 -0.03218288 0.048238736 70 25
0.69882846 -0.12073447 0.031443812 29 24
0.71650147 -0.031977482 0.015841367 51 23
0.70199114 -0.12141724 0 31 22
0.73147893 -0.032722652 -0.016189529 35 21
0.70370495 -0.12184569 -0.031676728 45 20
0.72750467 -0.032691468 -0.047996718 47 19
0.71641982 -0.12433919 -0.062143989 60 18
0.75195485 -0.03371378 -0.082165174 10 17
0.72236001 -0.12564248 -0.097020283 88 16
0.67480928 -0.11902083 0.15049534 90 30
0.70672971 -0.03284717 0.12976517 51 29
0.6668545 -0.11736939 0.10044966 50 28
0.70165628 -0.033218384 0.08149112 13 27
0.69613177 -0.12263376 0.064226799 90 26
0.72490817 -0.034485124 0.048065215 67 25
0.69596624 -0.12261026 0.031327356 24 24
0.70889497 -0.03414344 0.015667286 51 23
0.70650589 -0.12462817 0 23 22
0.72636664 -0.035051651 -0.016073475 32 21
0.70327532 -0.12430134 -0.031676728 55 20
0.73237526 -0.035327446 -0.048342019 55 19
0.71843189 -0.12728101 -0.062367529 54 18
0.73198253 -0.035443943 -0.079890713 32 17
0.71460676 -0.12684262 -0.095988154 86 16
0.67197293 -0.12105365 0.14993168 86 30
0.70170039 -0.035208542 0.12881798 51 29
0.67127895 -0.12070281 0.10122235 56 28
0.69905096 -0.035672091 0.081188172 19 27
0.69078171 -0.12428759 0.063751042 90 26
0.71979469 -0.036903374 0.047718175 69 25
0.70042497 -0.12606017 0.031560272 21 24
0.71376425 -0.036858432 0.01578334 49 23
0.70604438 -0.1272168 0 22 22
0.7262333 -0.037713684 -0.016073475 26 21
0.69792467 -0.12585385 -0.031443812 79 20
0.73473191 -0.038132459 -0.048514668 62 19
0.71551174 -0.12946256 -0.062143989 55 18
0.74425858 -0.038601153 -0.081312254 36 17
0.71657223 -0.12991007 -0.096332192 85 16
0.66197008 -0.12160639 0.14767708 54 30
0.70647657 -0.037903536 0.12976517 49 29
0.66599756 -0.12213826 0.10044966 69 28
0.703879 -0.038364854 0.081794061 24 27
0.68545097 -0.12578423 0.063275285 90 26
0.72215217 -0.039543618 0.047891695 72 25
0.69261611 -0.12712876 0.031210894 22 24
0.71363127 -0.039349712 0.01578334 46 23
0.70559597 -0.12968057 0 21 22
0.71860945 -0.03985868 -0.015899394 13 21
0.6974811 -0.1282893 -0.031443812 86 20
0.73210377 -0.040567264 -0.048342019 68 19
0.71016091 -0.13104074 -0.061696909 47 18
0.73419762 -0.040682364 -0.08017502 40 17
0.7161144 -0.13241059 -0.096332192 85 16
0.67350394 -0.12619831 0.15049534 40 30
0.69898635 -0.039974976 0.12834437 45 29
0.66556716 -0.12446228 0.10044966 69 28
0.69382912 -0.040281348 0.080582291 31 27
0.68991971 -0.12898669 0.063751042 90 26
0.72200978 -0.042064153 0.047891695 65 25
0.69952792 -0.13094695 0.031560272 24 24
0.71848065 -0.042116057 0.015899394 42 23
0.7002275 -0.13120674 0 22 22
0.72346425 -0.042517874 -0.016015448 10 21
0.69457597 -0.13025524 -0.031327356 90 20
0.72946745 -0.042984184 -0.048169367 77 19
0.71950531 -0.13526472 -0.062591068 33 18
0.73653114 -0.04338273 -0.080459327 41 17
0.7205354 -0.13571595 -0.097020283 88 16
0.66351789 -0.12657374 0.14824073 31 30
0.69394839 -0.042013492 0.12739719 41 29
0.67242527 -0.12807877 0.10160869 72 28
0.69121426 -0.042438667 0.08027935 36 27
0.68702209 -0.13092059 0.063513167 87 26
0.72186631 -0.044458196 0.047891695 64 25
0.69173473 -0.13184027 0.031210894 28 24
0.71584201 -0.044352345 0.015841367 40 23
0.69488007 -0.13257572 0 23 22
0.72081643 -0.044896059 -0.015957421 9 21
0.69904321 -0.13350998 -0.031560272 90 20
0.7268312 -0.045256339 -0.047996718 72 19
0.70925254 -0.13587159 -0.061696909 21 18
0.73390371 -0.04567891 -0.08017502 41 17
0.72248769 -0.13870445 -0.097364321 86 16
0.66785073 -0.12983441 0.14936803 23 30
0.70604879 -0.045176301 0.12976517 33 29
0.67197412 -0.1304252 0.10160869 90 28
0.69849271 -0.045306984 0.081188172 38 27
0.69144398 -0.13428216 0.063988924 78 26
0.72170675 -0.04697771 0.047891695 62 25
0.68882042 -0.1337703 0.031094434 33 24
0.71318007 -0.046820547 0.01578334 35 23
0.69931817 -0.13596995 0 23 22
0.72065532 -0.047411904 -0.015957421 8 21
0.69854921 -0.13607121 -0.031560272 90 20
0.73413628 -0.048259068 -0.048514668 73 19
0.71121633 -0.138831 -0.061920449 12 18
0.73868918 -0.048678678 -0.080743633 35 17
0.71471298 -0.13977757 -0.096332192 86 16
0.65782005 -0.13035566 0.14711343 21 30
0.70097905 -0.047449544 0.12881798 19 29
0.66422731 -0.13142513 0.10044966 90 28
0.69089293 -0.047383759 0.08027935 41 27
0.69826639 -0.13828868 0.064702556 74 26
0.71655238 -0.049297221 0.047544654 55 25
0.69322193 -0.13727959 0.031327356 38 24
0.70802444 -0.048981931 0.015667286 31 23
0.70126587 -0.13902588 0 26 22
0.72795844 -0.050547227 -0.016131502 9 21
0.70296597 -0.13949598 -0.031793188 90 20
0.72897732 -0.050620653 -0.048169367 77 19
0.71070266 -0.14143682 -0.061920449 9 18
0.74099314 -0.051420629 -0.081027947 29 17
0.71662277 -0.14288776 -0.096676238 90 16
0.65736103 -0.13265109 0.14711343 21 30
0.69591093 -0.049564771 0.12787078 13 29
0.66376448 -0.13374291 0.10044966 96 28
0.70310223 -0.050643396 0.081794061 47 27
0.69048971 -0.13910605 0.063988924 77 26
0.71388781 -0.05162679 0.047371134 51 25
0.685399 -0.13819464 0.030977976 45 24
0.71532923 -0.051970907 0.015841367 26 23
0.70322531 -0.14197518 0 24 22
0.72778678 -0.052960951 -0.016131502 9 21
0.69758224 -0.14094464 -0.031560272 90 20
0.72879624 -0.053164952 -0.048169367 70 19
0.71266872 -0.14429432 -0.062143989 10 18
0.74080914 -0.054006863 -0.081027947 19 17
0.71857023 -0.14576297 -0.097020283 87 16
0.66645443 -0.13682087 0.14936803 22 30
0.70553702 -0.052567411 0.12976517 13 29
0.67057151 -0.13745481 0.10160869 99 28
0.69797993 -0.052618962 0.081188172 51 27
0.69243628 -0.14202309 0.064226799 63 26
0.72366273 -0.054712303 0.048065215 49 25
0.68249226 -0.13995734 0.030861517 47 24
0.71266013 -0.054161865 0.01578334 23 23
0.69785595 -0.1432856 0 24 22
0.7201193 -0.054955851 -0.015957421 10 21
0.69222176 -0.14223661 -0.031327356 90 20
0.72364104 -0.055218723 -0.04782407 72 19
0.7072863 -0.14576104 -0.061696909 10 18
0.74310315 -0.056643799 -0.081312254 12 17
0.71078646 -0.14674614 -0.095988154 86 16
0.6612078 -0.13813445 0.14824073 26 30
0.70045334 -0.054665189 0.12881798 13 29
0.67492014 -0.14081924 0.10238139 100 28
0.69531751 -0.054868553 0.080885231 63 27
0.68219805 -0.14237469 0.063275285 47 26
0.71103305 -0.056296539 0.047197614 47 25
0.68932849 -0.14389263 0.031210894 51 24
0.70996481 -0.056583531 0.015725313 24 23
0.69735152 -0.14572071 0 24 22
0.72989136 -0.058230963 -0.016189529 10 21
0.69658124 -0.1458112 -0.031560272 87 20
0.73090422 -0.058314476 -0.048342019 68 19
0.71407938 -0.14978468 -0.062367529 10 18
0.73298454 -0.058608267 -0.08017502 8 17
0.70784819 -0.14870986 -0.095644109 83 16
0.6702196 -0.1426158 0.15049534 31 30
0.69535369 -0.056849483 0.12787078 15 29
0.66715634 -0.14172864 0.10122235 100 28
0.69511169 -0.057416644 0.080885231 72 27
0.68896961 -0.14644931 0.063988924 40 26
0.71828038 -0.059494462 0.047718175 38 25
0.68391424 -0.1453644 0.030977976 53 24
0.69979721 -0.058266602 0.015493204 29 23
0.69925642 -0.14880353 0 26 22
0.72469038 -0.060506616 -0.016073475 12 21
0.69118631 -0.14718635 -0.031327356 90 20
0.73068559 -0.060992986 -0.048342019 70 19
0.70865864 -0.15134598 -0.061920449 12 18
0.73772711 -0.061563168 -0.080743633 8 17
0.71213806 -0.15235405 -0.096332192 81 16
0.67447537 -0.14600049 0.15162265 35 30
0.70738393 -0.060275655 0.13023876 19 29
0.66907007 -0.14458613 0.10160869 100 28
0.69738024 -0.060046889 0.081188172 86 27
0.68116176 -0.14725271 0.063275285 32 26
0.71309739 -0.061589185 0.047371134 35 25
0.68584198 -0.14828624 0.031094434 63 24
0.70706177 -0.061331198 0.015667286 32 23
0.68896556 -0.14909783 0 26 22
0.71949339 -0.062619343 -0.015957421 13 21
0.69798535 -0.15120691 -0.031676728 82 20
0.72798288 -0.063335352 -0.048169367 69 19
0.71785247 -0.15596257 -0.062814608 15 18
0.73750776 -0.064137936 -0.080743633 6 17
0.70918393 -0.1543051 -0.095988154 86 16
0.66445363 -0.14622867 0.14936803 40 30
0.6998316 -0.062119331 0.12881798 23 29
0.66856134 -0.14692074 0.10160869 100 28
0.69222152 -0.062055171 0.080582291 90 27
0.68066972 -0.1495107 0.063275285 26 26
0.71039349 -0.063863233 0.047197614 31 25
0.68288285 -0.15013546 0.030977976 90 24
0.70933336 -0.064015023 0.015725313 33 23
0.69576067 -0.15313667 0 22 22
0.72177178 -0.065221459 -0.016015448 13 21
0.68770462 -0.15146334 -0.031210894 79 20
0.73024201 -0.066092603 -0.048342019 67 19
0.7076121 -0.15616612 -0.061920449 23 18
0.73975378 -0.066927545 -0.081027947 6 17
0.71350074 -0.1577397 -0.096676238 79 16
0.67346591 -0.15058807 0.15162265 45 30
0.6996218 -0.064439714 0.12881798 28 29
0.66566157 -0.14859101 0.10122235 99 28
0.70189887 -0.065234445 0.081794061 90 27
0.67528945 -0.15078561 0.062799536 21 26
0.72011364 -0.067110628 0.047891695 22 25
0.68238115 -0.15239914 0.030977976 90 24
0.70413864 -0.065918207 0.015609259 46 23
0.68793476 -0.15378398 0 17 22
0.72402889 -0.067965731 -0.016073475 13 21
0.69693995 -0.15595441 -0.031676728 69 20
0.73001879 -0.068513811 -0.048342019 62 19
0.70949054 -0.15918769 -0.062143989 17 18
0.73952782 -0.069380283 -0.081027947 8 17
0.7129457 -0.16022931 -0.096676238 83 16
0.66344291 -0.15074804 0.14936803 50 30
0.70672578 -0.067556575 0.13023876 32 29
0.66032487 -0.14980496 0.10044966 97 28
0.70166683 -0.067684129 0.081794061 90 27
0.67233384 -0.15258333 0.062561654 21 26
0.71987498 -0.069623873 0.047891695 12 25
0.68427861 -0.15534067 0.031094434 90 24
0.70389235 -0.068498567 0.015609259 50 23
0.68739372 -0.15618439 0 31 22
0.73125231 -0.071194366 -0.016247556 19 21
0.68906385 -0.15682249 -0.031327356 68 20
0.71984285 -0.070127994 -0.047651418 65 19
0.71378249 -0.16278525 -0.062591068 23 18
0.72937715 -0.071158804 -0.079890713 9 17
0.70514506 -0.16104087 -0.095644109 86 16
0.65814346 -0.15206631 0.14824073 60 30
0.69669926 -0.069210425 0.12834437 37 29
0.66458124 -0.15335053 0.10122235 95 28
0.69153374 -0.069300562 0.080582291 87 27
0.67419326 -0.15561397 0.062799536 23 26
0.71961498 -0.072261892 0.047891695 9 25
0.67884171 -0.15670881 0.030861517 91 24
0.70862412 -0.071439497 0.015725313 58 23
0.68438268 -0.1581323 0 46 22
0.72352403 -0.073144995 -0.016073475 22 21
0.69337487 -0.16036731 -0.031560272 64 20
0.72702765 -0.073493406 -0.048169367 58 19
0.71075714 -0.16483043 -0.062367529 32 18
0.73901236 -0.074670419 -0.081027947 10 17
0.70696032 -0.1641918 -0.095988154 85 16
0.65997791 -0.15492719 0.14880438 73 30
0.69645339 -0.071641937 0.12834437 40 29
0.66163898 -0.15509786 0.10083601 93 28
0.69128758 -0.071714044 0.080582291 87 27
0.67851585 -0.15899977 0.063275285 26 26
0.7143954 -0.07427451 0.047544654 9 25
0.68072003 -0.15965535 0.030977976 91 24
0.7133438 -0.07441429 0.015841367 69 23
0.6886906 -0.16167818 0 47 22
0.72079074 -0.07529261 -0.016015448 40 21
0.69766945 -0.16394417 -0.031793188 58 20
0.71932256 -0.075277247 -0.047651418 55 19
0.70536262 -0.16603069 -0.061920449 36 18
0.73627603 -0.076999456 -0.080743633 12 17
0.70641202 -0.16653526 -0.095988154 82 16
0.65709311 -0.1565426 0.14824073 74 30
0.69377005 -0.073700435 0.12787078 42 29
0.66352201 -0.15787061 0.10122235 90 28
0.70091963 -0.075028121 0.081794061 82 27
0.68521434 -0.16311903 0.063988924 28 26
0.71414518 -0.076643117 0.047544654 9 25
0.68261445 -0.16249776 0.031094434 92 24
0.70563555 -0.076002173 0.015667286 83 23
0.68086028 -0.16220005 0 47 22
0.7205236 -0.077808179 -0.016015448 42 21
0.69954932 -0.16684361 -0.031909645 49 20
0.72154951 -0.077921592 -0.04782407 47 19
0.70961875 -0.16966456 -0.062367529 38 18
0.73107612 -0.078923956 -0.08017502 17 17
0.70823276 -0.16958404 -0.096332192 85 16
0.65654266 -0.15883532 0.14824073 77 30
0.6983906 -0.076639988 0.12881798 46 29
0.660568 -0.15959786 0.10083601 90 28
0.69571835 -0.076946057 0.081188172 76 27
0.68705785 -0.16610225 0.064226799 33 26
0.71883273 -0.079668127 0.047891695 10 25
0.68689412 -0.16606839 0.031327356 90 24
0.7078371 -0.07885614 0.015725313 88 23
0.69243026 -0.16755314 0 45 22
0.71279305 -0.079516932 -0.015841367 46 21
0.69165748 -0.16761941 -0.031560272 41 20
0.71631396 -0.079903677 -0.047478769 47 19
0.70418638 -0.17095099 -0.061920449 40 18
0.72337389 -0.080800794 -0.079322092 15 17
0.70282793 -0.17087053 -0.095644109 86 16
0.66068268 -0.16241908 0.14936803 90 30
0.68834472 -0.078126833 0.12692358 47 29
0.66477215 -0.16321129 0.10160869 90 28
0.69049871 -0.078949131 0.080582291 74 27
0.67678463 -0.16621445 0.063275285 40 26
0.7135784 -0.081751429 0.047544654 12 25
0.68143415 -0.16737826 0.031094434 90 24
0.70507365 -0.081049606 0.015667286 90 23
0.68453395 -0.16827674 0 38 22
0.71001297 -0.081851177 -0.01578334 49 21
0.69591439 -0.17124102 -0.031793188 35 20
0.72345203 -0.083359994 -0.047996718 37 19
0.69389224 -0.17111622 -0.06102629 46 18
0.72555578 -0.083601356 -0.079606406 22 17
0.70940328 -0.1752488 -0.096676238 78 16
0.66955656 -0.16711423 0.15162265 90 30
0.68562877 -0.080252528 0.12644999 51 29
0.66898781 -0.16674089 0.10238139 90 28
0.69021893 -0.081358932 0.080582291 72 27
0.68102604 -0.16979514 0.063751042 41 26
0.70585561 -0.083389625 0.047024094 13 25
0.68326694 -0.17036763 0.031210894 90 24
0.70478642 -0.08351028 0.015667286 90 23
0.69363725 -0.17311658 0 31 22
0.71717149 -0.085188277 -0.015957421 50 21
0.70015436 -0.17489436 -0.032026105 26 20
0.7182014 -0.085313216 -0.047651418 33 19
0.70535862 -0.17659768 -0.062143989 63 18
0.72525954 -0.086133502 -0.079606406 27 17
0.71118724 -0.17833354 -0.097020283 83 16
0.66661 -0.16884466 0.151059 95 30
0.68534452 -0.082645327 0.12644999 60 29
0.66122395 -0.16723484 0.10122235 90 28
0.6948598 -0.084348522 0.081188172 65 27
0.67081606 -0.16958201 0.062799536 45 26
0.71299034 -0.086731106 0.047544654 17 25
0.68024904 -0.17213143 0.031094434 90 24
0.7044906 -0.085969932 0.015667286 90 23
0.68576407 -0.17367287 0 24 22
0.71440321 -0.087271415 -0.015899394 51 21
0.69228309 -0.17547414 -0.031676728 24 20
0.72780561 -0.088997439 -0.048342019 29 19
0.69753456 -0.17707555 -0.06147337 76 18
0.72742093 -0.088957831 -0.079890713 31 17
0.71538794 -0.18192591 -0.097708367 86 16
0.66840351 -0.17166784 0.15162265 96 30
0.68750376 -0.085210763 0.12692358 72 29
0.67500895 -0.17315471 0.10354042 90 28
0.68964916 -0.086055182 0.080582291 62 27
0.68226314 -0.17505282 0.063988924 49 26
0.7027958 -0.087891348 0.046850573 23 25
0.67967451 -0.17438628 0.031094434 90 24
0.70666718 -0.088731408 0.015725313 87 23
0.68760383 -0.1765753 0 19 22
0.71409422 -0.089764617 -0.015899394 50 21
0.70133293 -0.18040755 -0.032142565 21 20
0.7250309 -0.091107801 -0.048169367 21 19
0.69932157 -0.1801378 -0.061696909 85 18
0.73203671 -0.092100136 -0.080459327 42 17
0.70516521 -0.18191856 -0.096332192 77 16
0.66306013 -0.17287214 0.15049534 99 30
0.69449514 -0.088636428 0.12834437 82 29
0.67436975 -0.17562759 0.10354042 64 28
0.68932903 -0.088582292 0.080582291 56 27
0.68402332 -0.17818716 0.064226799 50 26
0.70741826 -0.091086596 0.047197614 28 25
0.67661613 -0.17623916 0.030977976 90 24
0.70635313 -0.091197595 0.015725313 83 23
0.67970049 -0.17717972 0 21 22
0.71376044 -0.092381299 -0.015899394 46 21
0.69104117 -0.18030287 -0.031676728 21 20
0.71231973 -0.092205942 -0.04730612 12 19
0.69624954 -0.18206242 -0.06147337 88 18
0.72678214 -0.094033986 -0.079890713 46 17
0.70688725 -0.18513653 -0.096676238 74 16
0.66010004 -0.17455523 0.14993168 99 30
0.69174647 -0.090749487 0.12787078 90 29
0.66659451 -0.17606518 0.10238139 50 28
0.68901569 -0.090987973 0.080582291 50 27
0.68580127 -0.18121704 0.064464673 53 26
0.71204305 -0.094192639 0.047544654 32 25
0.67840922 -0.17924543 0.031094434 90 24
0.70355171 -0.093342498 0.015667286 77 23
0.68632269 -0.18149114 0 18 22
0.71839082 -0.09551429 -0.016015448 40 21
0.69281983 -0.18336032 -0.031793188 23 20
0.71941364 -0.095652916 -0.04782407 9 19
0.69560981 -0.18449166 -0.06147337 90 18
0.72152311 -0.095932268 -0.079322092 50 17
0.71101922 -0.18888888 -0.097364321 72 16
0.666538 -0.17877413 0.15162265 99 30
0.6914255 -0.093163572 0.12787078 90 29
0.67074347 -0.17968448 0.10315407 41 28
0.68869388 -0.093392521 0.080582291 49 27
0.68516451 -0.18360981 0.064464673 53 26
0.70676512 -0.096023053 0.047197614 34 25
0.68018955 -0.18226632 0.031210894 83 24
0.70322162 -0.095797785 0.015667286 74 23
0.69051039 -0.18519585 0 25 22
0.71557552 -0.097691678 -0.015957421 38 21
0.68976563 -0.18512283 -0.031676728 22 20
0.7116586 -0.097176589 -0.04730612 9 19
0.70216918 -0.18888098 -0.062143989 90 18
0.72364587 -0.098777913 -0.079606406 62 17
0.71035552 -0.19136964 -0.097364321 72 16
0.65886533 -0.1791593 0.14993168 99 30
0.69109607 -0.095576532 0.12787078 90 29
0.66296756 -0.18005948 0.10199504 33 28
0.68836367 -0.095795944 0.080582291 44 27
0.67252165 -0.18270016 0.063275285 68 26
0.70889682 -0.098825417 0.047371134 37 25
0.68677282 -0.18662655 0.031560272 76 24
0.70783579 -0.098926827 0.01578334 65 23
0.68503898 -0.18627812 0 28 22
0.72265917 -0.10120392 -0.016131502 33 21
0.6915229 -0.18819261 -0.031793188 22 20
0.72119939 -0.10101062 -0.047996718 10 19
0.69910532 -0.19066839 -0.061920449 90 18
0.72329664 -0.10130331 -0.079606406 69 17
0.70729649 -0.19318841 -0.097020283 70 16
0.65588999 -0.18080309 0.14936803 98 30
0.69318986 -0.09832444 0.12834437 90 29
0.66233504 -0.18237257 0.10199504 29 28
0.68065143 -0.097172394 0.079673469 38 27
0.67667425 -0.18638341 0.063751042 90 26
0.70607752 -0.10095482 0.047197614 45 25
0.68130606 -0.18768123 0.031327356 70 24
0.70996135 -0.10174315 0.015841367 56 23
0.69160861 -0.19068384 0 33 22
0.72230148 -0.10372585 -0.016131502 27 21
0.69326699 -0.19127688 -0.031909645 21 20
0.71343279 -0.10248873 -0.047478769 10 19
0.69124174 -0.19109496 -0.06124983 87 18
0.7229386 -0.10382747 -0.079606406 74 17
0.71615553 -0.19832809 -0.098396458 68 16
0.6575985 -0.18375465 0.14993168 97 30
0.68798161 -0.10005433 0.12739719 90 29
0.65456384 -0.18266836 0.10083601 28 28
0.68522143 -0.10024874 0.08027935 33 27
0.67126244 -0.18727361 0.063275285 90 26
0.70818961 -0.103772 0.047371134 51 25
0.68304998 -0.1907374 0.031443812 70 24
0.70960194 -0.10422077 0.015841367 55 23
0.68131614 -0.19037573 0 41 22
0.71700555 -0.10541016 -0.016015448 26 21
0.69259512 -0.19369568 -0.031909645 22 20
0.71800798 -0.10568817 -0.04782407 11 19
0.69299996 -0.19406497 -0.06147337 87 18
0.72257185 -0.10635035 -0.079606406 76 17
0.71549392 -0.20070186 -0.098396458 67 16
0.65932697 -0.18660526 0.15049534 96 30
0.69007528 -0.10268787 0.12787078 90 29
0.66107833 -0.18687668 0.10199504 28 28
0.68979627 -0.10323779 0.080885231 23 27
0.68256783 -0.19303918 0.064464673 90 26
0.70784163 -0.10611987 0.047371134 60 25
0.68481469 -0.19368853 0.031560272 53 24
0.70430678 -0.10584741 0.015725313 50 23
0.6878913 -0.19469877 0 44 22
0.72157878 -0.10863996 -0.016131502 22 21
0.69915098 -0.1980551 -0.032259021 21 20
0.71518612 -0.10770555 -0.047651418 12 19
0.69710493 -0.19785714 -0.061920449 81 18
0.72221518 -0.10874592 -0.079606406 73 17
0.72430825 -0.20593499 -0.099772625 63 16
0.6586715 -0.1889056 0.15049534 95 30
0.69214064 -0.10545719 0.12834437 90 29
0.66279417 -0.18987098 0.10238139 32 28
0.68697745 -0.10527777 0.080582291 21 27
0.67471915 -0.19334142 0.063751042 90 26
0.70746684 -0.10859005 0.047371134 68 25
0.68653286 -0.19677325 0.031676728 41 24
0.70885706 -0.10917214 0.015841367 41 23
0.67520249 -0.19361557 0 44 22
0.71378082 -0.11004074 -0.015957421 24 21
0.69362414 -0.19922286 -0.032026105 22 20
0.72220439 -0.11131633 -0.048169367 12 19
0.69401908 -0.19959377 -0.061696909 78 18
0.72426772 -0.11176278 -0.079890713 73 17
0.71407533 -0.20569202 -0.098396458 65 16
0.70042956 -0.10871582 0.17982064 90 31
0.66264784 -0.19269384 0.15162265 92 30
0.68932277 -0.10762327 0.12787078 90 29
0.66209388 -0.19229898 0.10238139 33 28
0.68413407 -0.10741873 0.08027935 22 27
0.67878133 -0.19721673 0.064226799 92 26
0.71692419 -0.11269817 0.048065215 77 25
0.67622322 -0.19647117 0.031210894 28 24
0.70353132 -0.11088458 0.015725313 36 23
0.67688674 -0.19679444 0 45 22
0.72078288 -0.11380064 -0.016131502 28 21
0.6929245 -0.20164284 -0.032026105 21 20
0.7168619 -0.1132012 -0.04782407 13 19
0.6932829 -0.20213613 -0.061696909 77 18
0.72632784 -0.11466939 -0.08017502 69 17
0.71569151 -0.20900907 -0.098740496 62 16
0.6809504 -0.10819717 0.1746645 90 31
0.65496886 -0.19291826 0.14993168 90 30
0.6865176 -0.1096503 0.12739719 90 29
0.66615313 -0.19601858 0.10315407 36 28
0.68620652 -0.11019094 0.080582291 22 27
0.68050891 -0.20017631 0.064464673 91 26
0.71159905 -0.11442488 0.047718175 86 25
0.67313993 -0.19811785 0.031094434 23 24
0.70314002 -0.11333968 0.015725313 31 23
0.68338352 -0.20129743 0 63 22
0.7080577 -0.11424177 -0.015841367 32 21
0.69221646 -0.20406038 -0.032026105 18 20
0.72138935 -0.11648142 -0.048169367 12 19
0.69499481 -0.20514622 -0.061920449 70 18
0.72101653 -0.11642867 -0.079606406 72 17
0.70075935 -0.20712675 -0.096676238 63 16
0.68297356 -0.11083297 0.17530902 90 31
0.66132092 -0.19719985 0.15162265 90 30
0.68372601 -0.11153971 0.12692358 86 29
0.65603983 -0.1953759 0.10160869 36 28
0.69073784 -0.11325169 0.081188172 24 27
0.67265755 -0.20039633 0.063751042 91 26
0.71367806 -0.11717974 0.047891695 87 25
0.67726147 -0.20179006 0.031327356 15 24
0.69782519 -0.11487587 0.015609259 24 23
0.67553151 -0.20139727 0 79 22
0.71258932 -0.11750925 -0.015957421 44 21
0.68914503 -0.20563334 -0.031909645 15 20
0.72592336 -0.1196679 -0.048514668 13 19
0.69427437 -0.20757096 -0.061920449 65 18
0.7181744 -0.11842318 -0.079322092 65 17
0.70714211 -0.21172367 -0.097708367 53 16
0.67781383 -0.11244311 0.17401998 90 31
0.64898181 -0.19594857 0.14880438 90 30
0.678487 -0.11313567 0.1259764 81 29
0.65535384 -0.19766474 0.10160869 38 28
0.69033831 -0.11566212 0.081188172 26 27
0.67195398 -0.20274313 0.063751042 90 26
0.71080375 -0.11926591 0.047718175 90 25
0.66938722 -0.20196624 0.030977976 14 24
0.70479757 -0.11865219 0.01578334 13 23
0.68199754 -0.20594439 0 87 22
0.69984496 -0.11796138 -0.015667286 47 21
0.67883408 -0.20523725 -0.031443812 29 20
0.71319747 -0.12017086 -0.047651418 15 19
0.69116467 -0.20926434 -0.061696909 63 18
0.71283436 -0.120245 -0.078753479 64 17
0.70166373 -0.21273951 -0.097020283 49 16
0.6750142 -0.11453131 0.17337546 90 31
0.64825928 -0.1983259 0.14880438 90 30
0.67806774 -0.1156217 0.1259764 81 29
0.66406393 -0.20298363 0.10315407 42 28
0.68746239 -0.11778113 0.080885231 28 27
0.67358392 -0.2059397 0.063988924 90 26
0.71282125 -0.12228367 0.047891695 90 25
0.68057185 -0.2081065 0.031560272 13 24
0.69944996 -0.12028151 0.015667286 9 23
0.6740731 -0.20622607 0 90 22
0.7068013 -0.1217735 -0.015841367 54 21
0.69242716 -0.21203639 -0.032142565 46 20
0.71521145 -0.12319912 -0.04782407 18 19
0.69990605 -0.2147464 -0.062591068 59 18
0.72220689 -0.12438598 -0.079890713 59 17
0.70087934 -0.2153098 -0.097020283 47 16
0.68175489 -0.11809784 0.17530902 90 31
0.64291471 -0.19913083 0.14767708 90 30
0.68007994 -0.11840023 0.12644999 79 29
0.65156537 -0.20161144 0.10122235 42 28
0.68949306 -0.12059908 0.081188172 27 27
0.66814697 -0.20668629 0.063513167 90 26
0.70993209 -0.12434921 0.047718175 87 25
0.67030811 -0.20749705 0.031094434 14 24
0.70148897 -0.123146 0.015725313 9 23
0.68289208 -0.21156652 0 90 22
0.7063936 -0.12411667 -0.015841367 60 21
0.68929976 -0.21370535 -0.032026105 46 20
0.71231931 -0.12527128 -0.047651418 40 19
0.6968143 -0.21632075 -0.062367529 53 18
0.71687293 -0.12606238 -0.079322092 53 17
0.7143358 -0.22208567 -0.099084541 36 16
0.6765992 -0.11953487 0.17401998 90 31
0.65385956 -0.20494199 0.15049534 90 30
0.6845206 -0.12149552 0.12739719 74 29
0.66031218 -0.20675343 0.10276773 45 28
0.68664473 -0.12245779 0.080885231 29 27
0.66979396 -0.20976856 0.063751042 90 26
0.70705914 -0.12627268 0.047544654 87 25
0.68152034 -0.21348801 0.031676728 19 24
0.69861501 -0.1250397 0.015667286 9 23
0.67503709 -0.21156465 0 90 22
0.70349449 -0.12614897 -0.01578334 72 21
0.68858737 -0.21598998 -0.032026105 44 20
0.7143563 -0.12806453 -0.04782407 42 19
0.68893546 -0.2164906 -0.061696909 42 18
0.71889728 -0.12886894 -0.079606406 50 17
0.70883662 -0.22307703 -0.098396458 24 16
0.67855656 -0.12231577 0.1746645 90 31
0.64618272 -0.20499067 0.14880438 63 30
0.68650925 -0.12431298 0.12787078 65 29
0.65958643 -0.20905708 0.10276773 44 28
0.68377006 -0.12441826 0.080582291 29 27
0.66905767 -0.2121053 0.063751042 90 26
0.70906925 -0.12917864 0.047718175 82 25
0.68077099 -0.21586566 0.031676728 19 24
0.69815201 -0.12759939 0.015667286 9 23
0.67905563 -0.2154465 0 90 22
0.71289009 -0.13036907 -0.016015448 77 21
0.6854133 -0.21774888 -0.031909645 36 20
0.7114501 -0.13011694 -0.047651418 45 19
0.69291663 -0.22041811 -0.062143989 28 18
0.72819871 -0.13325889 -0.080743633 47 17
0.70805359 -0.22554998 -0.098396458 33 16
0.67097205 -0.12351623 0.17273092 90 31
0.65469271 -0.21036828 0.151059 46 30
0.68121815 -0.12595302 0.12692358 55 29
0.66116506 -0.21223563 0.10315407 41 28
0.67842668 -0.12603445 0.07997641 29 27
0.66827577 -0.2145561 0.063751042 90 26
0.70613754 -0.131329 0.047544654 82 25
0.67284924 -0.21604675 0.031327356 23 24
0.70507807 -0.131384 0.015841367 9 23
0.67826134 -0.21793391 0 90 22
0.71732432 -0.1338817 -0.016131502 79 21
0.69177419 -0.22245522 -0.032259021 26 20
0.70851517 -0.1322743 -0.047478769 47 19
0.69447178 -0.22372697 -0.062367529 19 18
0.72528607 -0.13535246 -0.080459327 40 17
0.67766392 -0.12716824 0.1746645 90 31
0.64469928 -0.20960937 0.14880438 38 30
0.688016 -0.1296684 0.12834437 49 29
0.65807354 -0.2137716 0.10276773 44 28
0.68042237 -0.12885492 0.08027935 31 27
0.67225164 -0.21844046 0.064226799 87 26
0.70077103 -0.13288069 0.047197614 79 25
0.67920882 -0.22073157 0.031676728 27 24
0.6947872 -0.13201223 0.015609259 10 23
0.67749655 -0.22030014 0 90 22
0.70948201 -0.13500813 -0.015957421 79 21
0.68624878 -0.22330864 -0.032026105 22 20
0.70069432 -0.1333729 -0.04696082 50 19
0.6960516 -0.22692871 -0.062591068 13 18
0.72480917 -0.13788337 -0.080459327 36 17
0.67484176 -0.12908781 0.17401998 90 31
0.64627481 -0.21262732 0.14936803 32 30
0.68755913 -0.13206923 0.12834437 45 29
0.6526354 -0.21450977 0.10199504 70 28
0.67021543 -0.12938285 0.079067588 35 27
0.66679984 -0.21909991 0.063751042 88 26
0.70275313 -0.13579077 0.047371134 69 25
0.67369437 -0.22152625 0.031443812 32 24
0.70168829 -0.13583651 0.01578334 12 23
0.6743511 -0.22187501 0 87 22
0.70903045 -0.1373601 -0.015957421 78 21
0.69020432 -0.22727925 -0.032259021 17 20
0.70757449 -0.1372174 -0.047478769 51 19
0.68348318 -0.22530174 -0.06147337 12 18
0.71944356 -0.13948347 -0.079890713 29 17
0.66966462 -0.13041885 0.17273092 92 31
0.65249181 -0.21709867 0.151059 31 30
0.67747432 -0.13249855 0.12644999 41 29
0.661286 -0.21981919 0.10354042 90 28
0.67952955 -0.13348338 0.08027935 32 27
0.6683901 -0.22221868 0.063988924 86 26
0.702299 -0.13812043 0.047371134 69 25
0.68242514 -0.22694024 0.031909645 36 24
0.68894112 -0.13590914 0.015493204 15 23
0.66887212 -0.22251685 0 86 22
0.70854664 -0.13983425 -0.015957421 78 21
0.67993939 -0.226501 -0.031793188 14 20
0.70711553 -0.13956305 -0.047478769 50 19
0.68741184 -0.22927622 -0.061920449 10 18
0.7189523 -0.14199392 -0.079890713 19 17
0.67392415 -0.1337959 0.17401998 90 31
0.64477468 -0.21713394 0.14936803 31 30
0.68180227 -0.13592339 0.12739719 38 29
0.65112197 -0.21906075 0.10199504 90 28
0.67660081 -0.13549449 0.07997641 32 27
0.66521496 -0.22386578 0.063751042 87 26
0.69934118 -0.14021173 0.047197614 65 25
0.67922449 -0.22863598 0.031793188 40 24
0.69091463 -0.1387969 0.015551231 22 23
0.66805214 -0.22496688 0 82 22
0.70802939 -0.14243026 -0.015957421 76 21
0.68387276 -0.23048262 -0.032026105 13 20
0.70170581 -0.14118668 -0.047133468 50 19
0.68185347 -0.23018683 -0.06147337 12 18
0.72819877 -0.14642902 -0.081027947 10 17
0.67345297 -0.13614751 0.17401998 90 31
0.64861864 -0.22096924 0.15049534 29 30
0.68373108 -0.1387822 0.12787078 40 29
0.65035337 -0.22133225 0.10199504 90 28
0.67855698 -0.13834253 0.08027935 33 27
0.6667828 -0.22699584 0.063988924 69 26
0.70129263 -0.1431424 0.047371134 59 25
0.67133766 -0.22856887 0.031443812 42 24
0.69532663 -0.14219241 0.015667286 23 23
0.66962671 -0.22811098 0 77 22
0.70017737 -0.14342141 -0.01578334 73 21
0.68070281 -0.23205535 -0.031909645 15 20
0.70609879 -0.14461946 -0.047478769 47 19
0.69046146 -0.23581311 -0.062367529 12 18
0.72281343 -0.14798984 -0.080459327 8 17
0.67534131 -0.13897574 0.1746645 90 31
0.65474391 -0.22563502 0.15218632 33 30
0.6808368 -0.14067991 0.12739719 42 29
0.64724392 -0.2227896 0.10160869 90 28
0.68293309 -0.14170147 0.080885231 35 27
0.67072779 -0.23084015 0.064464673 49 26
0.68857092 -0.14309488 0.046503525 46 25
0.66581833 -0.22926998 0.031210894 44 24
0.68992883 -0.14361699 0.015551231 28 23
0.67118746 -0.23126878 0 70 22
0.70459497 -0.14674506 -0.015899394 67 21
0.68224704 -0.23525132 -0.032026105 15 20
0.71291941 -0.14858525 -0.047996718 42 19
0.68967563 -0.23810147 -0.062367529 13 18
0.71985918 -0.15001345 -0.08017502 8 17
0.67724282 -0.1417006 0.17530902 90 31
0.64939708 -0.22618771 0.151059 33 30
0.68277055 -0.14343297 0.12787078 46 29
0.64417148 -0.22411549 0.10122235 90 28
0.6873194 -0.14497271 0.08149112 35 27
0.66522229 -0.23152921 0.063988924 44 26
0.69786024 -0.14740559 0.047197614 42 25
0.66741043 -0.23230495 0.031327356 45 24
0.68700176 -0.1453951 0.015493204 33 23
0.67041695 -0.23349325 0 67 22
0.70652521 -0.14971347 -0.015957421 65 21
0.67910749 -0.23668334 -0.031909645 18 20
0.70509803 -0.14942232 -0.047478769 36 19
0.68884033 -0.24050744 -0.062367529 13 18
0.71206307 -0.1508798 -0.079322092 8 17
0.66965091 -0.14258063 0.17337546 90 31
0.65548754 -0.23090309 0.15274997 35 30
0.68707037 -0.14682442 0.12881798 49 29
0.64571249 -0.22719005 0.10160869 90 28
0.68438095 -0.14685887 0.081188172 31 27
0.67613459 -0.23801783 0.065178305 36 26
0.69246125 -0.14880958 0.046850573 40 25
0.67130154 -0.23630619 0.031560272 62 24
0.68157411 -0.14687625 0.01537715 35 23
0.67666405 -0.23834543 0 60 22
0.7059983 -0.15217879 -0.015957421 59 21
0.67823541 -0.2391708 -0.031909645 22 20
0.70213234 -0.1513654 -0.04730612 31 19
0.69503284 -0.24541873 -0.063038148 13 18
0.71636468 -0.15451975 -0.079890713 8 17
0.67621142 -0.14654317 0.17530902 90 31
0.6500535 -0.23165393 0.15162265 37 30
0.68172669 -0.14831507 0.12787078 53 29
0.64719969 -0.23039104 0.10199504 90 28
0.68626434 -0.14988731 0.08149112 28 27
0.67291582 -0.23965222 0.06494043 35 26
0.68947297 -0.1508221 0.046677049 35 25
0.66573101 -0.23707485 0.031327356 83 24
0.68838704 -0.15083389 0.015551231 46 23
0.68284303 -0.24336323 0 58 22
0.69810659 -0.15318343 -0.01578334 58 21
0.67974609 -0.24238276 -0.032026105 28 20
0.70157284 -0.15393783 -0.04730612 28 19
0.68475932 -0.24458578 -0.062143989 16 18
0.71096516 -0.15597132 -0.079322092 9 17
0.67097431 -0.14788017 0.17401998 93 31
0.65152973 -0.23475468 0.15218632 34 30
0.67400885 -0.14912879 0.12644999 54 29
0.65567678 -0.23602466 0.10354042 90 28
0.6736148 -0.14963442 0.07997641 22 27
0.66505855 -0.23944861 0.064226799 31 26
0.68894225 -0.15322788 0.046677049 29 25
0.66020536 -0.23769061 0.031094434 90 24
0.68541491 -0.15270089 0.015493204 50 23
0.67494118 -0.24318139 0 50 22
0.7024501 -0.15669104 -0.015899394 50 21
0.6765492 -0.24389991 -0.031909645 31 20
0.70590329 -0.15745524 -0.047651418 21 19
0.68858016 -0.24868028 -0.062591068 18 18
0.71526843 -0.15951712 -0.079890713 9 17
0.6681211 -0.14958526 0.17337546 94 31
0.64617562 -0.23523267 0.151059 33 30
0.67590749 -0.15189269 0.12692358 62 29
0.64793491 -0.23564266 0.10238139 90 28
0.67553753 -0.1524049 0.08027935 21 27
0.65958875 -0.23993649 0.063751042 30 26
0.69816864 -0.15767594 0.047371134 24 25
0.66644603 -0.24246188 0.031443812 90 24
0.68978405 -0.15605915 0.015609259 62 23
0.6741311 -0.24541825 0 33 22
0.69948715 -0.15847565 -0.015841367 50 21
0.6780805 -0.247004 -0.032026105 30 20
0.70294303 -0.15925246 -0.047478769 22 19
0.68541515 -0.25010172 -0.062367529 24 18
0.71473551 -0.16188815 -0.079890713 11 17
0.6723094 -0.15297121 0.1746645 90 31
0.64991677 -0.23918402 0.15218632 37 30
0.67776829 -0.15478913 0.12739719 68 29
0.64942396 -0.23876269 0.10276773 77 28
0.68226379 -0.15640001 0.081188172 21 27
0.66341329 -0.24396992 0.064226799 28 26
0.70491201 -0.16176072 0.047891695 22 25
0.66091335 -0.24304819 0.031210894 90 24
0.68920738 -0.15858628 0.015609259 69 23
0.67327029 -0.24776991 0 18 22
0.70136726 -0.16146879 -0.015899394 38 21
0.67248935 -0.24774666 -0.031793188 35 20
0.70481521 -0.16225649 -0.047651418 22 19
0.68453795 -0.25249273 -0.062367529 24 18
0.72140414 -0.166155 -0.080743633 10 17
0.6740995 -0.15597028 0.17530902 90 31
0.64675575 -0.24070752 0.15162265 35 30
0.67001712 -0.15563191 0.1259764 77 29
0.64391983 -0.23940489 0.10199504 67 28
0.67442966 -0.15723501 0.08027935 23 27
0.66717428 -0.24814941 0.064702556 28 26
0.69702244 -0.16266784 0.047371134 19 25
0.66001809 -0.24546893 0.031210894 90 24
0.69352102 -0.16211216 0.015725313 79 23
0.66533679 -0.24759834 0 13 22
0.69833529 -0.16347697 -0.015841367 33 21
0.67863327 -0.25272852 -0.032142565 49 20
0.69692481 -0.16315812 -0.047133468 28 19
0.68593824 -0.25587732 -0.062591068 23 18
0.71839941 -0.16811427 -0.080459327 12 17
0.66884422 -0.15723401 0.17401998 90 31
0.64591157 -0.24296363 0.15162265 33 30
0.66946983 -0.15796977 0.1259764 77 29
0.65231746 -0.24515632 0.10354042 50 28
0.67871034 -0.16071485 0.080885231 24 27
0.6640209 -0.24947798 0.064464673 29 26
0.70130771 -0.16623382 0.047718175 21 25
0.65682238 -0.24688534 0.031094434 90 24
0.68321604 -0.1622559 0.015493204 86 23
0.66446841 -0.24991928 0 9 22
0.69778931 -0.16579184 -0.015841367 27 21
0.67307788 -0.25332221 -0.031909645 65 20
0.69392276 -0.1650212 -0.04696082 40 19
0.68508595 -0.25815055 -0.062591068 23 18
0.71780825 -0.17062095 -0.080459327 13 17
0.66831911 -0.1594511 0.17401998 90 31
0.64282835 -0.24423173 0.151059 31 30
0.67133158 -0.160752 0.12644999 74 29
0.64688808 -0.24555022 0.10276773 45 28
0.68058854 -0.16353595 0.081188172 26 27
0.66082209 -0.25090367 0.064226799 31 26
0.69832587 -0.16798353 0.047544654 22 25
0.66532767 -0.252637 0.031560272 90 24
0.68753791 -0.16567482 0.015609259 86 23
0.66597027 -0.25301647 0 10 22
0.69234318 -0.1670707 -0.015725313 15 21
0.66523945 -0.25286922 -0.031560272 74 20
0.69579816 -0.16789812 -0.047133468 45 19
0.68650496 -0.26143348 -0.062814608 42 18
0.70998907 -0.1712773 -0.079606406 15 17
0.67010802 -0.1623432 0.1746645 90 31
0.64424282 -0.24735457 0.15162265 41 30
0.67315364 -0.16366576 0.12692358 75 29
0.65524018 -0.25137478 0.10431311 42 28
0.66794902 -0.163012 0.079673469 33 27
0.66458362 -0.25500631 0.064702556 33 26
0.69773525 -0.17042011 0.047544654 24 25
0.66211295 -0.25405604 0.031443812 90 24
0.68695539 -0.16807377 0.015609259 85 23
0.6720764 -0.25804931 0 9 22
0.69661486 -0.17065926 -0.015841367 11 21
0.67133796 -0.25789782 -0.031909645 84 20
0.69763219 -0.17091107 -0.04730612 50 19
0.68094587 -0.26202574 -0.062367529 54 18
0.71904463 -0.17608568 -0.080743633 22 17
0.66484189 -0.16354452 0.17337546 90 31
0.63883972 -0.24782522 0.15049534 74 30
0.67734885 -0.16717395 0.12787078 58 29
0.6474582 -0.25096035 0.10315407 41 28
0.66737598 -0.16534258 0.079673469 33 27
0.66600704 -0.25823146 0.06494043 36 26
0.68502265 -0.16989495 0.046677049 27 25
0.6612221 -0.25636569 0.031443812 90 24
0.68879217 -0.17106472 0.015667286 83 23
0.67117149 -0.26039374 0 9 22
0.69844246 -0.17368476 -0.015899394 8 21
0.66345787 -0.25750726 -0.031560272 83 20
0.69460905 -0.17275158 -0.047133468 51 19
0.68234509 -0.26531047 -0.062591068 64 18
0.71360081 -0.17741214 -0.08017502 38 17
0.67130399 -0.16759403 0.17530902 90 31
0.64023548 -0.25094992 0.151059 90 30
0.67437804 -0.16894929 0.12739719 49 29
0.6488753 -0.25412694 0.10354042 41 28
0.66438591 -0.16707459 0.079370528 38 27
0.6627872 -0.25963974 0.064702556 42 26
0.68684608 -0.17288548 0.046850573 31 25
0.66729045 -0.26142651 0.031793188 85 24
0.68330961 -0.17238221 0.015551231 79 23
0.66095948 -0.25905699 0 12 22
0.69298106 -0.17491496 -0.01578334 8 21
0.66483146 -0.26085654 -0.031676728 86 20
0.70610309 -0.17818564 -0.047996718 62 19
0.67678523 -0.26585582 -0.062143989 68 18
0.70571518 -0.17822631 -0.079322092 42 17
0.66365463 -0.1682978 0.17337546 90 31
0.63252711 -0.25058129 0.14936803 90 30
0.68089747 -0.17321016 0.12881798 41 29
0.6456458 -0.25558701 0.10315407 47 28
0.66376913 -0.16950856 0.079370528 40 27
0.65489811 -0.25929704 0.063988924 47 26
0.68620777 -0.17540173 0.046850573 36 25
0.65473258 -0.25923747 0.031210894 85 24
0.68270367 -0.17476636 0.015551231 76 23
0.66232687 -0.26240578 0 12 22
0.69475853 -0.17806596 -0.015841367 8 21
0.66623557 -0.26410311 -0.031793188 85 20
0.69819117 -0.17893955 -0.047478769 70 19
0.67580628 -0.26833457 -0.062143989 69 18
0.70990497 -0.18190552 -0.079890713 46 17
0.66540462 -0.17120674 0.17401998 90 31
0.63842338 -0.25552487 0.151059 90 30
0.68504667 -0.17679602 0.12976517 33 29
0.64016891 -0.25599027 0.10238139 83 28
0.66317338 -0.17182451 0.079370528 40 27
0.65634257 -0.26239839 0.064226799 50 26
0.68075871 -0.17656057 0.046503525 41 25
0.66077107 -0.26432544 0.031560272 81 24
0.68451071 -0.17776826 0.015609259 73 23
0.66372502 -0.26565224 0 14 22
0.69174308 -0.17974858 -0.01578334 8 21
0.66530967 -0.26642707 -0.031793188 82 20
0.70239407 -0.1826144 -0.04782407 70 19
0.67260438 -0.26964056 -0.061920449 73 18
0.70685971 -0.18376561 -0.079606406 51 17
0.67185169 -0.17521571 0.17595354 90 31
0.63982779 -0.25856048 0.15162265 90 30
0.67732573 -0.17722788 0.12834437 21 29
0.64389116 -0.25997585 0.10315407 90 28
0.67461205 -0.1771315 0.080885231 46 27
0.6577273 -0.26562697 0.064464673 58 26
0.68258369 -0.17944279 0.046677049 41 25
0.66914159 -0.27028465 0.032026105 70 24
0.68149829 -0.1794093 0.015551231 68 23
0.66978544 -0.27068317 0 14 22
0.69353038 -0.18279086 -0.015841367 9 21
0.66442245 -0.26863185 -0.031793188 79 20
0.69937086 -0.1843152 -0.047651418 69 19
0.67857426 -0.27481163 -0.062591068 73 18
0.70143861 -0.18485896 -0.079037786 63 17
0.66656125 -0.17634128 0.1746645 90 31
0.63666928 -0.25986451 0.151059 90 30
0.6838274 -0.18145485 0.12976517 14 29
0.63612753 -0.25940174 0.10199504 90 28
0.67158937 -0.17885511 0.080582291 51 27
0.66600162 -0.27170983 0.065416187 55 26
0.68677723 -0.18309264 0.047024094 44 25
0.66126591 -0.2697674 0.031676728 69 24
0.68811882 -0.18369609 0.015725313 64 23
0.65958971 -0.26921201 0 19 22
0.69530487 -0.1858478 -0.015899394 9 21
0.65886271 -0.26904699 -0.031560272 81 20
0.69148827 -0.18484786 -0.047133468 76 19
0.67300731 -0.27527928 -0.062143989 72 18
0.70559245 -0.18857273 -0.079606406 68 17
0.65890497 -0.17692962 0.17273092 90 31
0.64020985 -0.26406834 0.15218632 87 30
0.68553025 -0.18458994 0.13023876 12 29
0.63973367 -0.2636283 0.10276773 90 28
0.67092931 -0.18131542 0.080582291 63 27
0.6558097 -0.27032673 0.064464673 44 26
0.69333053 -0.18753743 0.047544654 47 25
0.67180198 -0.27698371 0.032259021 65 24
0.68019706 -0.18428138 0.015551231 60 23
0.66552311 -0.27450874 0 27 22
0.694619 -0.18839496 -0.015899394 9 21
0.66478872 -0.27433914 -0.031909645 70 20
0.70044327 -0.1899597 -0.04782407 70 19
0.67429209 -0.2787022 -0.062367529 74 18
