# .PCD v0.7 - Point Cloud Data file format
VERSION 0.7
FIELDS x y z intensity ring
SIZE 4 4 4 4 2
TYPE F F F F U
COUNT 1 1 1 1 1
WIDTH 1235
HEIGHT 1
VIEWPOINT 0 0 0 1 0 0 0
POINTS 1235
DATA ascii
-0.22162017 0.11152971 -0.2518667 28 2
-0.2954475 0.095727921 -0.36194041 8 1
-0.2762011 0.14081986 -0.38718569 4 0
-1.632314 0.55261433 0.45051837 59 31
-1.5681257 0.77592462 0.39681172 68 30
-1.6322453 0.55415279 0.32583368 68 29
-1.5723431 0.77735502 0.26889601 72 28
-1.6234102 0.55272144 0.20509103 74 27
-1.5818992 0.78176433 0.16532454 76 26
-1.6358886 0.55758047 0.11782051 75 25
-1.5848956 0.78360105 0.080822244 75 24
-1.6296732 0.55610019 0.039168216 76 23
-1.581967 0.7824924 0 77 22
-1.6272098 0.55558038 -0.039110187 77 21
-1.5712008 0.77749193 -0.080123484 72 20
-1.6284541 0.55632687 -0.11671145 76 19
-1.5820433 0.78355533 -0.15535997 75 18
-1.6336491 0.55809987 -0.19361414 71 17
-1.5820702 0.78425026 -0.24048644 72 16
-1.6343309 0.55771428 -0.29499292 70 15
-1.5805464 0.78654188 -0.49524119 59 13
-1.6314851 0.5561316 -0.38678083 66 14
-1.572443 0.78451914 -0.59575343 59 12
-1.6334492 0.55275631 -0.68331033 58 11
-1.5738193 0.79128087 -0.91691291 67 9
-1.6324944 0.55089331 -0.79290009 67 10
-1.5781523 0.79686147 -1.0474926 67 8
-0.78701013 0.26336044 -0.53807467 32 7
-0.63626975 0.32203251 -0.5164867 72 6
-0.592713 0.19657856 -0.49913079 41 5
-0.24580383 0.12383511 -0.22976033 46 4
-0.24115811 0.080767334 -0.23288728 74 3
-0.21695308 0.11002192 -0.24614246 28 2
-0.29223937 0.095794 -0.35796306 8 1
-0.27829587 0.1430836 -0.39126134 4 0
-1.632759 0.55880308 0.4511629 59 31
-1.5720781 0.78439099 0.39850265 67 30
-1.6303988 0.55956244 0.32583368 70 29
-1.5697567 0.78256482 0.26889601 72 28
-1.6262637 0.5597102 0.20569691 74 27
-1.5791606 0.78728139 0.16532454 76 26
-1.6340306 0.56300223 0.11782051 75 25
-1.5822884 0.78885245 0.080822244 72 24
-1.6278203 0.56150132 0.039168216 76 23
-1.5793636 0.78773409 0 77 22
-1.6299877 0.56288195 -0.039226241 77 21
-1.5730802 0.78493351 -0.080356404 75 20
-1.6242417 0.56091326 -0.11653879 76 19
-1.5770725 0.78795725 -0.15513644 76 18
-1.638836 0.56593633 -0.19446707 71 17
-1.5903898 0.79531932 -0.24220666 70 16
-1.6348017 0.56393063 -0.29542232 70 15
-1.5757827 0.79069823 -0.49455336 58 13
-1.6249239 0.56024122 -0.38566458 66 14
-1.571942 0.79079372 -0.59657061 58 12
-1.6293159 0.55770743 -0.68237299 56 11
-1.5710477 0.79676968 -0.91691291 67 9
-1.6306587 0.55630386 -0.79290009 66 10
-1.5772665 0.80333906 -1.0487858 64 8
-0.79594946 0.26925355 -0.54508084 33 7
-0.63514179 0.32425153 -0.5164867 76 6
-0.593835 0.19924484 -0.50074607 41 5
-0.24216421 0.1230235 -0.22630529 45 4
-0.24087471 0.081608638 -0.23288728 75 3
-0.22085589 0.11303563 -0.2518667 26 2
-0.29046029 0.096351914 -0.35597438 8 1
-0.27651542 0.14337538 -0.38922352 4 0
-1.626231 0.56292546 0.44987386 59 31
-1.5715046 0.79097158 0.39906633 67 30
-1.6284356 0.56525016 0.32583368 68 29
-1.5736312 0.79137701 0.27005506 74 28
-1.6243001 0.56538361 0.20569691 74 27
-1.578625 0.79390991 0.16556242 75 26
-1.639124 0.57115453 0.11834107 75 25
-1.5795252 0.79437089 0.080822244 74 24
-1.6233903 0.56664348 0.039110187 77 23
-1.581068 0.79549515 0 76 22
-1.6327343 0.57020962 -0.039342295 77 21
-1.5724218 0.79181987 -0.080472864 74 20
-1.6269852 0.5682174 -0.1168841 76 19
-1.5809788 0.79682779 -0.15580705 74 18
-1.6390966 0.57275528 -0.19475138 74 17
-1.5809755 0.79751199 -0.24117453 70 16
-1.6327238 0.56991869 -0.29542232 68 15
-1.5728741 0.7964685 -0.49455336 56 13
-1.627563 0.56750786 -0.38678083 64 14
-1.5711384 0.7976222 -0.59738785 58 12
-1.6272609 0.5636754 -0.68237299 56 11
-1.5682567 0.80224878 -0.91691291 67 9
-1.6307489 0.56301194 -0.79396296 67 10
-1.576213 0.81009525 -1.0500791 66 8
-0.78711331 0.26951247 -0.53947592 33 7
-0.62688965 0.32290861 -0.51042825 76 6
-0.587672 0.19960463 -0.49590015 41 5
-0.2449114 0.12559086 -0.22976033 46 4
-0.237317 0.081418209 -0.22924842 76 3
-0.2161797 0.11153384 -0.24614246 25 2
-0.29298764 0.098349638 -0.35995173 8 1
-0.27981845 0.14643829 -0.39533696 4 0
-1.6241568 0.56888211 0.44987386 59 31
-1.5707651 0.79783183 0.39962995 66 30
-1.6286701 0.57202506 0.3263073 68 29
-1.568519 0.79601878 0.26966873 72 28
-1.6245588 0.57215416 0.20599985 74 27
-1.5757045 0.79969049 0.16556242 75 26
-1.6299599 0.57468063 0.11782051 75 25
-1.5766031 0.80015475 0.080822244 72 24
-1.6237606 0.57313526 0.039168216 76 23
-1.5759139 0.8001501 0 74 22
-1.6306335 0.57619011 -0.039342295 77 21
-1.5740985 0.79957128 -0.080705784 74 20
-1.6248918 0.57417679 -0.1168841 75 19
-1.5802658 0.80374867 -0.1560306 75 18
-1.6370875 0.57847327 -0.19475138 70 17
-1.5824525 0.80555338 -0.24186261 70 16
-1.6307244 0.57561445 -0.29542232 70 15
-1.5743624 0.80414599 -0.49592903 60 13
-1.6254719 0.5734694 -0.38678083 66 14
-1.5662431 0.80202198 -0.59657061 60 12
-1.6230949 0.56858927 -0.6814357 58 11
-1.5711879 0.81103766 -0.92043054 64 9
-1.6309111 0.56944352 -0.79502583 64 10
-1.5752739 0.81657964 -1.0513723 66 8
-0.78420913 0.27158737 -0.53807467 33 7
-0.63104361 0.32786486 -0.51497209 76 6
-0.58877909 0.2022662 -0.49751547 41 5
-0.24127766 0.12475324 -0.22630529 47 4
-0.23865797 0.082788154 -0.23106785 75 3
-0.21576945 0.11232544 -0.24614246 24 2
-0.28688419 0.097484075 -0.35199699 8 1
-0.27548239 0.1453504 -0.38922352 4 0
-1.6244392 0.57535106 0.45051837 58 31
-1.5658045 0.80219668 0.39906633 67 30
-1.6266633 0.57770669 0.3263073 68 29
-1.5635335 0.8003608 0.26928237 72 28
-1.6178738 0.57616305 0.20539397 74 27
-1.5751171 0.80632257 0.16580029 75 26
-1.6302942 0.58120084 0.11799403 75 25
-1.5760218 0.80679393 0.080938697 71 24
-1.6217501 0.57879972 0.039168216 76 23
-1.575335 0.80678856 0 72 22
-1.6262575 0.58104098 -0.039284267 76 21
-1.5757401 0.80734402 -0.080938697 71 20
-1.6228776 0.57984525 -0.1168841 75 19
-1.5752363 0.80812061 -0.15580705 74 18
-1.6397386 0.58584893 -0.19532 74 17
-1.5796311 0.81107223 -0.24186261 68 16
-1.631026 0.58212781 -0.29585171 68 15
-1.5694104 0.80853307 -0.49524119 56 13
-1.6303495 0.58158618 -0.38845521 64 14
-1.5676293 0.80965817 -0.59820509 58 12
-1.6276577 0.57656324 -0.68424767 56 11
-1.56639 0.81549495 -0.919258 66 9
-1.6310482 0.57588315 -0.7960887 63 10
-1.5705191 0.82107949 -1.0500791 63 8
-0.78325635 0.27432314 -0.53807467 32 7
-0.62286162 0.32634777 -0.50891364 80 6
-0.5880695 0.20432019 -0.49751547 41 5
-0.24402866 0.1272976 -0.22976033 49 4
-0.23674282 0.083072998 -0.22924842 75 3
-0.22106127 0.11614806 -0.25377479 22 2
-0.29085597 0.099915721 -0.35796306 8 1
-0.27751732 0.14769584 -0.39329916 4 0
-1.6224209 0.58101791 0.45051837 59 31
-1.5673194 0.80989921 0.40019363 64 30
-1.6292601 0.58503383 0.32725447 67 29
-1.5673101 0.80922145 0.27044141 72 28
-1.6205248 0.58348167 0.20599985 74 27
-1.5767126 0.81410491 0.16627604 74 26
-1.6306032 0.58773053 0.11816755 75 25
-1.5731961 0.81229037 0.080938697 72 24
-1.6197199 0.58445716 0.039168216 76 23
-1.574729 0.81343269 0 74 22
-1.6265712 0.58755994 -0.039342295 76 21
-1.568478 0.81054103 -0.080705784 74 20
-1.6208436 0.58550656 -0.1168841 74 19
-1.574616 0.81476128 -0.1560306 74 18
-1.6306717 0.58904755 -0.19446707 70 17
-1.5767902 0.81658125 -0.24186261 68 16
-1.6243485 0.58615237 -0.29499292 70 15
-1.5665786 0.81400645 -0.49524119 58 13
-1.6214287 0.58480322 -0.38678083 64 14
-1.5710756 0.81840801 -0.60065675 58 12
-1.6234521 0.58146304 -0.68331033 56 11
-1.567441 0.82301587 -0.92160302 66 9
-1.6311606 0.5823307 -0.79715157 63 10
-1.5676434 0.82655662 -1.0500791 64 8
-0.77838612 0.27568626 -0.53527224 33 7
-0.6287393 0.33226234 -0.51497209 85 6
-0.59276217 0.20824383 -0.50236142 41 5
-0.23880988 0.1255776 -0.22457777 49 4
-0.23158306 0.082238719 -0.22379012 75 3
-0.21498002 0.11382904 -0.24614246 20 2
-0.28619662 0.099484511 -0.35199699 8 1
-0.27826965 0.14936045 -0.39533696 4 0
-1.6249276 0.58831573 0.45180741 58 31
-1.5644828 0.81536525 0.40019363 66 30
-1.6225907 0.5890488 0.3263073 67 29
-1.5644758 0.81468749 0.27044141 72 28
-1.6184782 0.58913475 0.20599985 74 27
-1.5760672 0.82075596 0.16651392 72 26
-1.6285416 0.59341872 0.11816755 75 25
-1.5769914 0.82124561 0.081288077 72 24
-1.6176697 0.5901075 0.039168216 75 23
-1.5696642 0.81776673 0 74 22
-1.6221615 0.59238017 -0.039284267 76 21
-1.5678524 0.81716806 -0.080822244 70 20
-1.6187899 0.59116083 -0.1168841 75 19
-1.5717623 0.82025284 -0.1560306 74 18
-1.6356086 0.59728217 -0.19532 70 17
-1.5739301 0.82208031 -0.24186261 68 16
-1.6269222 0.5935002 -0.29585171 66 15
-1.5679826 0.82170659 -0.49661684 59 13
-1.6216682 0.59129101 -0.38733897 63 14
-1.5640289 0.821684 -0.59902233 59 12
-1.6235929 0.58791226 -0.68424767 56 11
-1.5645586 0.82848227 -0.92160302 64 9
-1.6269882 0.5872559 -0.7960887 62 10
-1.568524 0.83403778 -1.0526655 62 8
-0.78132212 0.27978456 -0.53807467 33 7
-0.62232006 0.33162987 -0.51042825 80 6
-0.5920316 0.21031168 -0.50236142 41 5
-0.23995805 0.12727301 -0.22630529 49 4
-0.23453626 0.084164687 -0.22742899 76 3
-0.2174132 0.11613365 -0.24995862 18 2
-0.28584763 0.10048292 -0.35199699 8 1
-0.2802808 0.15173332 -0.3994126 4 0
-1.6205946 0.59315723 0.4511629 58 31
-1.5637815 0.82195729 0.40075725 64 30
-1.6228302 0.59555143 0.32678086 67 29
-1.5659932 0.82244599 0.2712141 72 28
-1.6164118 0.59478068 0.20599985 74 27
-1.5755388 0.82713729 0.1667518 72 26
-1.6264603 0.59909981 0.11816755 75 25
-1.5696964 0.82441747 0.081055157 72 24
-1.6179464 0.59661204 0.039226241 75 23
-1.5734352 0.82673758 0 72 22
-1.6225342 0.59861791 -0.039342295 76 21
-1.5694085 0.82496536 -0.081055157 71 20
-1.6190574 0.59766817 -0.11705674 74 19
-1.573438 0.82778454 -0.15647767 72 18
-1.6288511 0.60127419 -0.19475138 70 17
-1.5733851 0.82845157 -0.24220666 67 16
-1.6225288 0.59832686 -0.29542232 68 15
-1.5672283 0.82830071 -0.49730471 59 13
-1.6174107 0.59582639 -0.38678083 64 14
-1.5632374 0.82824731 -0.59983951 60 12
-1.6194566 0.59250003 -0.68331033 56 11
-1.5656954 0.83575064 -0.92394805 63 9
-1.6249282 0.59293157 -0.7960887 64 10
-1.5714028 0.84227473 -1.0565451 60 8
-0.77254432 0.27971712 -0.53246975 33 7
-0.62296563 0.33463925 -0.51194286 77 6
-0.59133095 0.21227378 -0.50236142 43 5
-0.2427049 0.12980367 -0.22976033 47 4
-0.2326369 0.084377557 -0.22560956 72 3
-0.22126688 0.11920036 -0.25568286 21 2
-0.29124463 0.10339718 -0.35995173 8 1
-0.2797761 0.15266192 -0.3994126 4 0
-1.6186188 0.59852809 0.4511629 58 31
-1.5653489 0.82942468 0.40188456 66 30
-1.6254523 0.60262972 0.32772809 67 29
-1.5632572 0.82763445 0.2712141 71 28
-1.6167579 0.60099906 0.20630279 74 27
-1.5726421 0.83263195 0.1667518 72 26
-1.6244646 0.60449004 0.11816755 75 25
-1.5735706 0.83313191 0.08140453 71 24
-1.6135106 0.60138649 0.039168216 75 23
-1.5706849 0.83195078 0 71 22
-1.6204346 0.60427797 -0.039342295 76 21
-1.568724 0.83161098 -0.081171617 71 20
-1.6170665 0.6030339 -0.11705674 75 19
-1.5771332 0.83678102 -0.15714829 71 18
-1.6290706 0.60782123 -0.19503568 70 17
-1.5704837 0.83393866 -0.24220666 68 16
-1.6204302 0.60398686 -0.29542232 70 15
-1.5643275 0.83376628 -0.49730471 58 13
-1.6221759 0.60400963 -0.38845521 64 14
-1.5624192 0.83481508 -0.60065675 59 12
-1.6216238 0.60003376 -0.68518502 55 11
-1.5647115 0.84226006 -0.92512059 63 9
-1.6249731 0.5993799 -0.79715157 62 10
-1.5683051 0.84802854 -1.0565451 62 8
-0.77740318 0.2845273 -0.53667343 32 7
-0.62522548 0.33882815 -0.51497209 76 6
-0.59234548 0.21508257 -0.5039767 43 5
-0.23748177 0.12807149 -0.22457777 49 4
-0.23717676 0.086940698 -0.23106785 68 3
-0.21943885 0.11918494 -0.25377479 18 2
-0.29229486 0.10496092 -0.36194041 8 1
-0.27921468 0.15368633 -0.3994126 4 0
-1.6164142 0.60445654 0.4511629 59 31
-1.5601517 0.83400542 0.40132093 66 30
-1.6232326 0.60858333 0.32772809 66 29
-1.5602132 0.83335853 0.2712141 72 28
-1.6145443 0.60692072 0.20630279 74 27
-1.5673862 0.83721513 0.16651392 72 26
-1.626909 0.61219001 0.11851459 75 25
-1.5661038 0.8365351 0.081171617 71 24
-1.6114016 0.60701501 0.039168216 75 23
-1.5654217 0.83652109 0 72 22
-1.6228888 0.61197019 -0.039458349 76 21
-1.5680126 0.83826184 -0.081288077 71 20
-1.6148455 0.60895663 -0.11705674 74 19
-1.5740557 0.84255594 -0.15714829 71 18
-1.6292644 0.61437714 -0.19532 70 17
-1.5674165 0.8396892 -0.24220666 70 16
-1.6229241 0.61136943 -0.2962811 66 15
-1.5635232 0.84036237 -0.49799252 58 13
-1.6153873 0.60824037 -0.38733897 63 14
-1.5615742 0.84138721 -0.60147393 58 12
-1.6195194 0.60569054 -0.68518502 56 11
-1.5596749 0.84693301 -0.92394805 64 9
-1.6207492 0.6042611 -0.7960887 64 10
-1.5653354 0.85349774 -1.0565451 62 8
-0.77640527 0.28723919 -0.53667343 32 7
-0.61881316 0.33812851 -0.51042825 75 6
-0.59159106 0.21714894 -0.5039767 43 5
-0.23861213 0.1297788 -0.22630529 49 4
-0.23687184 0.087768063 -0.23106785 72 3
-0.22322363 0.12236511 -0.25949904 18 2
-0.29049727 0.10547861 -0.35995173 8 1
-0.27993622 0.15537448 -0.40145043 4 0
-1.6210768 0.61264729 0.45309645 58 31
-1.5593736 0.84060478 0.40188456 64 30
-1.623395 0.61511219 0.32820165 68 29
-1.5594679 0.83997363 0.27160043 71 28
-1.614737 0.6134308 0.20660573 72 27
-1.5666436 0.84386414 0.1667518 72 26
-1.6247621 0.61786526 0.11851459 72 25
-1.5697658 0.84555781 0.081520997 71 24
-1.6116101 0.61352211 0.039226241 75 23
-1.5646914 0.84316897 0 72 22
-1.6207427 0.61763144 -0.039458349 76 21
-1.5694705 0.84610569 -0.081520997 70 20
-1.6173736 0.61635953 -0.11740204 72 19
-1.5732948 0.84923077 -0.15737183 72 18
-1.6247876 0.61917937 -0.19503568 70 17
-1.5644759 0.84515536 -0.24220666 68 16
-1.6207801 0.6170308 -0.2962811 67 15
-1.5626919 0.84696287 -0.49868038 58 13
-1.6155331 0.6147387 -0.38789707 63 14
-1.5586276 0.84683299 -0.60147393 55 12
-1.6152261 0.61052388 -0.68424767 56 11
-1.5605795 0.85449821 -0.92629313 62 9
-1.6207489 0.61070961 -0.79715157 63 10
-1.56422 0.85998994 -1.0578382 63 8
-0.77928126 0.29138491 -0.53947592 30 7
-0.6193676 0.34125257 -0.51194286 76 6
-0.58545351 0.21724638 -0.49913079 45 5
-0.23815766 0.13061093 -0.22630529 49 4
-0.23656403 0.08859437 -0.23106785 71 3
-0.21998528 0.12154928 -0.25568286 17 2
-0.29583785 0.1085198 -0.36790645 8 1
-0.27310616 0.15275648 -0.39126134 4 0
-1.612155 0.61572647 0.4511629 58 31
-1.5607066 0.84837466 0.40301186 63 30
-1.6166507 0.61902618 0.32725447 67 29
-1.5543574 0.84423053 0.2712141 71 28
-1.6125858 0.6190635 0.20660573 74 27
-1.5703934 0.85262507 0.16746543 72 26
-1.6295832 0.62620687 0.11903515 71 25
-1.5668048 0.85103214 0.081520997 71 24
-1.6117924 0.62003797 0.039284267 74 23
-1.5661288 0.85101831 0 71 22
-1.6140178 0.62121367 -0.039342295 76 21
-1.5621223 0.84918815 -0.081288077 68 20
-1.6128836 0.62110853 -0.11722939 74 19
-1.5682842 0.85325056 -0.15714829 71 18
-1.6272545 0.62662584 -0.19560429 70 17
-1.563838 0.8515256 -0.2425507 68 16
-1.6186165 0.62268454 -0.2962811 67 15
-1.5597259 0.85241252 -0.49868038 58 13
-1.6180377 0.62183452 -0.38901332 63 14
-1.5598034 0.85454422 -0.60310835 59 12
-1.6175253 0.61752355 -0.6861223 55 11
-1.5577374 0.85966861 -0.92629313 63 9
-1.6228391 0.61796755 -0.79927731 62 10
-1.5632296 0.86621195 -1.0591314 63 8
-0.77050275 0.29120168 -0.533871 29 7
-0.61129123 0.33941725 -0.50588435 72 6
-0.58472985 0.21918663 -0.49913079 45 5
-0.23929606 0.13228983 -0.22803281 53 4
-0.23626894 0.089378357 -0.23106785 72 3
-0.2209833 0.12307991 -0.25759095 16 2
-0.2897726 0.10745351 -0.35995173 8 1
-0.27510771 0.15510732 -0.39533696 4 0
-1.6123592 0.62193519 0.45180741 59 31
-1.5578848 0.85354549 0.40301186 64 30
-1.614589 0.62438381 0.32725447 67 29
-1.5558794 0.85175782 0.27198678 71 28
-1.6105241 0.62440771 0.20660573 74 27
-1.5630448 0.8557061 0.16698968 72 26
-1.6205187 0.62891024 0.11851459 72 25
-1.5639739 0.85622323 0.081520997 70 24
-1.6097275 0.62537944 0.039284267 74 23
-1.5654895 0.85741079 0 70 22
-1.6141704 0.62774646 -0.039400321 76 21
-1.5636749 0.85676908 -0.081520997 68 20
-1.6108149 0.62645358 -0.11722939 74 19
-1.5652963 0.85871971 -0.15714829 71 18
-1.6251676 0.63201851 -0.19560429 70 17
-1.5608561 0.85697913 -0.2425507 68 16
-1.6188395 0.62893724 -0.29671049 67 15
-1.5589944 0.85874236 -0.49936819 56 13
-1.6135844 0.62659991 -0.38845521 64 14
-1.5569611 0.859712 -0.60310835 59 12
-1.61536 0.62316597 -0.6861223 56 11
-1.556655 0.86617708 -0.92746568 63 9
-1.6165544 0.62172753 -0.79715157 64 10
-1.5657957 0.87480164 -1.0630112 62 8
-0.77534306 0.29595065 -0.53807467 32 7
-0.61529851 0.34448266 -0.51042825 76 6
-0.58217376 0.22055879 -0.49751547 46 5
-0.23412368 0.13043827 -0.22285026 50 4
-0.23595551 0.090202548 -0.23106785 67 3
-0.21775338 0.12223718 -0.25377479 13 2
-0.29366818 0.11001433 -0.36591777 8 1
-0.28959197 0.16479525 -0.4197908 4 0
-1.6124303 0.62843353 0.45245194 58 31
-1.5570264 0.8601588 0.40357554 64 30
-1.6146873 0.63090599 0.32772809 66 29
-1.5550575 0.85837996 0.27237311 71 28
-1.6152704 0.6327312 0.20751455 72 27
-1.5644029 0.86356765 0.16746543 72 26
-1.6183137 0.63456303 0.11851459 72 25
-1.5653453 0.8640964 0.08175391 71 24
-1.6097522 0.63218546 0.039342295 74 23
-1.564674 0.86408132 0 71 22
-1.6119695 0.63337725 -0.039400321 76 21
-1.5627084 0.8637051 -0.08163745 68 20
-1.6109411 0.63298136 -0.11740204 74 19
-1.5644667 0.86538637 -0.15737183 71 18
-1.6228402 0.63797075 -0.19560429 68 17
-1.562185 0.86482632 -0.24323879 68 16
-1.6165235 0.63486642 -0.29671049 66 15
-1.5621351 0.86796069 -0.5014317 58 13
-1.6136572 0.63311529 -0.38901332 63 14
-1.5579249 0.86771733 -0.60474283 59 12
-1.6173861 0.63076007 -0.68799692 55 11
-1.5574704 0.87377131 -0.9298107 60 9
-1.6163751 0.62846506 -0.79821444 63 10
-1.5625787 0.88053465 -1.0630112 64 8
-0.76458293 0.29509583 -0.5310685 34 7
-0.61057514 0.34476706 -0.50739902 72 6
-0.58314645 0.22336522 -0.49913079 45 5
-0.23677686 0.13309771 -0.22630529 51 4
-0.23562331 0.091066763 -0.23106785 66 3
-0.22011866 0.12461965 -0.25759095 13 2
-0.28899628 0.10952431 -0.35995173 8 1
-0.28898603 0.16585556 -0.4197908 4 0
-1.6101164 0.63433921 0.45245194 59 31
-1.5538633 0.86585981 0.40357554 64 30
-1.6123641 0.6368199 0.32772809 66 29
-1.5562139 0.8664822 0.27314579 70 28
-1.6083232 0.63682657 0.20690867 72 27
-1.5633999 0.87050897 0.1677033 71 26
-1.6206166 0.64232153 0.11886163 71 25
-1.5643479 0.87104535 0.08187037 70 24
-1.6098602 0.63871926 0.039400321 74 23
-1.5658616 0.87224889 0 71 22
-1.6142853 0.64111954 -0.039516374 76 21
-1.555324 0.86671805 -0.08140453 71 20
-1.6086103 0.6388815 -0.11740204 72 19
-1.5656302 0.87354636 -0.1578189 71 18
-1.6229132 0.6445452 -0.19588861 68 17
-1.5568442 0.86933631 -0.24289475 68 16
-1.6165882 0.64141035 -0.29713988 63 15
-1.5570003 0.87223089 -0.50074387 55 13
-1.6113259 0.63902539 -0.38901332 63 14
-1.552828 0.87199074 -0.60392559 59 12
-1.6151745 0.63640207 -0.68799692 58 11
-1.5523372 0.87838393 -0.92863816 60 9
-1.6141714 0.63410348 -0.79821444 64 10
-1.5632132 0.88810247 -1.0655974 62 8
-0.76547962 0.29850858 -0.53246975 33 7
-0.6128177 0.34887677 -0.51042825 74 6
-0.578798 0.22403871 -0.49590015 47 5
-0.23474756 0.13301684 -0.22457777 51 4
-0.235304 0.091888689 -0.23106785 70 3
-0.21547945 0.12297557 -0.2518667 12 2
-0.2900326 0.11105926 -0.36194041 8 1
-0.29089943 0.16833596 -0.42386642 4 0
-1.6101377 0.64084566 0.45309645 58 31
-1.5529535 0.87247425 0.40413919 63 30
-1.6124125 0.64335066 0.32820165 67 29
-1.5510277 0.87069738 0.27275947 71 28
-1.6083961 0.64335519 0.20721161 70 27
-1.5625204 0.87718195 0.16794118 72 26
-1.616048 0.64705092 0.11868811 72 25
-1.5612979 0.87650061 0.08187037 71 24
-1.6076208 0.64433479 0.039400321 72 23
-1.5628072 0.87770945 0 71 22
-1.6166794 0.64860535 -0.039632428 75 21
-1.5588162 0.87581974 -0.08175391 68 20
-1.6086863 0.64541817 -0.1175747 71 19
-1.5625713 0.87900615 -0.1578189 70 18
-1.6206534 0.65020633 -0.19588861 70 17
-1.5602689 0.87841779 -0.24392687 68 16
-1.6143394 0.64704937 -0.29713988 63 15
-1.5560377 0.87884516 -0.5014317 56 13
-1.6090853 0.64464611 -0.38901332 63 14
-1.5538836 0.87973917 -0.60556006 58 12
-1.6172523 0.64374405 -0.68987161 56 11
-1.5569272 0.88818383 -0.93332827 58 9
-1.6140527 0.64056563 -0.79927731 63 10
-1.5619587 0.89461958 -1.0668907 60 8
-0.76443297 0.30117878 -0.53246975 30 7
-0.61331767 0.3520101 -0.51194286 71 6
-0.57979262 0.22674431 -0.49751547 49 5
-0.23584192 0.13474746 -0.22630529 56 4
-0.23658429 0.093319178 -0.23288728 64 3
-0.21922126 0.12619159 -0.25759095 11 2
-0.29248029 0.11313458 -0.36591777 8 1
nan nan nan 0 0
-1.6101333 0.64735997 0.45374098 58 31
-1.5541339 0.88029587 0.40526652 64 30
-1.6124351 0.64988947 0.32867527 66 29
-1.5501269 0.87732548 0.27314579 71 28
-1.6061404 0.6489656 0.20721161 70 27
-1.5616132 0.88385934 0.16817905 72 26
-1.6160929 0.65361983 0.11886163 74 25
-1.5582289 0.88194525 0.08187037 71 24
-1.6053619 0.64994252 0.039400321 72 23
-1.5597339 0.88315928 0 71 22
-1.6097702 0.65237367 -0.039516374 72 21
-1.5600923 0.88372266 -0.08198683 68 20
-1.6064236 0.65102959 -0.1175747 71 19
-1.5616579 0.88568622 -0.15804245 70 18
-1.6229805 0.65771878 -0.19645722 67 17
-1.5571932 0.88385886 -0.24392687 68 16
-1.6166393 0.65452254 -0.29799867 67 15
-1.5571346 0.88665533 -0.50280738 55 13
-1.6136061 0.65299165 -0.3906877 62 14
-1.5549041 0.88750553 -0.60719448 58 12
-1.6149955 0.64938539 -0.68987161 56 11
-1.5499923 0.89140648 -0.93098325 60 9
-1.6118068 0.64619583 -0.79927731 63 10
-1.5588264 0.90006644 -1.0668907 62 8
-0.76722938 0.3053636 -0.53527224 32 7
-0.60864925 0.35214424 -0.50891364 74 6
-0.57721978 0.22807397 -0.49590015 50 5
-0.23848392 0.1374048 -0.22976033 58 4
-0.23145607 0.092298612 -0.22742899 66 3
-0.2160036 0.12530327 -0.25377479 11 2
-0.29066688 0.11361809 -0.36392909 9 1
nan nan nan 0 0
-1.6102172 0.65360105 0.45438549 58 31
-1.5512062 0.8854447 0.40526652 63 30
-1.6079961 0.654311 0.32820165 66 29
-1.5472091 0.88246107 0.27314579 70 28
-1.6039796 0.65428817 0.20721161 70 27
-1.5565135 0.88779736 0.16794118 71 26
-1.6139165 0.65897542 0.11886163 70 25
-1.559631 0.88958764 0.082103282 71 24
-1.6077127 0.65742773 0.039516374 74 23
-1.5589665 0.88956839 0 71 22
-1.6099125 0.65865147 -0.039574403 76 21
-1.556998 0.88916302 -0.08198683 68 20
-1.6042559 0.65635306 -0.1175747 71 19
-1.5587122 0.89085996 -0.15804245 70 18
-1.6183746 0.66244233 -0.19617291 70 17
-1.5542536 0.88901782 -0.24392687 67 16
-1.6120638 0.65923268 -0.29756927 66 15
-1.5540302 0.89208531 -0.50280738 55 13
-1.6091746 0.65742058 -0.39012957 62 14
-1.5497503 0.8917467 -0.60637724 58 12
-1.6062732 0.652412 -0.68705964 59 11
-1.5489366 0.8976512 -0.93215573 59 9
-1.6116401 0.6526643 -0.80034018 62 10
-1.5556751 0.9055022 -1.0668907 59 8
-0.76423526 0.30727404 -0.533871 32 7
-0.60741633 0.35426667 -0.50891364 72 6
-0.58352184 0.23288345 -0.50236142 51 5
-0.23800285 0.1382364 -0.22976033 55 4
-0.23113249 0.093105987 -0.22742899 70 3
-0.22112757 0.12934279 -0.26140711 11 2
-0.29168335 0.1151737 -0.36591777 8 1
-0.25442126 0.15039134 -0.36680749 3 0
-1.6078107 0.65949839 0.45438549 58 31
-1.5458411 0.88990635 0.40470284 63 30
-1.6078588 0.66113049 0.32867527 67 29
-1.5439643 0.8881259 0.27314579 70 28
-1.6015707 0.66016269 0.20721161 70 27
-1.5554048 0.89473981 0.16817905 71 26
-1.6137972 0.66583425 0.11903515 70 25
-1.5563601 0.89529788 0.082103282 70 24
-1.6007853 0.66113406 0.039400321 72 23
-1.551365 0.89277709 0 71 22
-1.6074877 0.66454762 -0.039574403 76 21
-1.5495594 0.89209527 -0.08175391 68 20
-1.6041455 0.66317815 -0.11774734 71 19
-1.5575924 0.89781302 -0.15826598 70 18
-1.6160524 0.66808742 -0.19617291 68 17
-1.5552715 0.89718837 -0.24461496 68 16
-1.614308 0.66672963 -0.29842806 66 15
-1.5550642 0.89991742 -0.50418305 55 13
-1.6067543 0.6633141 -0.39012957 62 14
-1.5527548 0.90071523 -0.6088289 56 12
-1.6104226 0.66064423 -0.68987161 54 11
-1.5532554 0.90778887 -0.93684584 58 9
-1.6072563 0.6574325 -0.79927731 63 10
-1.5543487 0.91201228 -1.0681839 60 8
-0.7727623 0.31380263 -0.54087716 33 7
-0.60446513 0.35537058 -0.50739902 71 6
-0.57738638 0.23280331 -0.49751547 53 5
-0.22976655 0.13442485 -0.22112274 62 4
-0.23399809 0.095165081 -0.23106785 66 3
-0.21650566 0.12764424 -0.25568286 9 2
-0.2884537 0.11509793 -0.36194041 8 1
-0.26007795 0.15504685 -0.37699658 3 0
-1.6054989 0.66510671 0.45438549 58 31
-1.5448304 0.8965221 0.40526652 62 30
-1.6100779 0.66861534 0.32962245 67 29
-1.54299 0.89475161 0.27353215 70 28
-1.6038411 0.66765004 0.20781749 70 27
-1.5565747 0.90266591 0.16865481 71 26
-1.6114631 0.67146337 0.11903515 70 25
-1.5510668 0.89946979 0.08198683 71 24
-1.605392 0.66959447 0.039574403 72 23
-1.5590439 0.90447277 0 68 22
-1.6097735 0.67207408 -0.039690454 75 21
-1.5550693 0.90252346 -0.082219742 67 20
-1.6041238 0.66973126 -0.11792 70 19
-1.5566002 0.90449822 -0.15848951 70 18
-1.616004 0.67467821 -0.19645722 68 17
-1.5521303 0.90261185 -0.24461496 68 16
-1.6096966 0.67141575 -0.29799867 66 15
-1.5477644 0.90291262 -0.50280738 55 13
-1.6066797 0.66985315 -0.3906877 62 14
-1.5475632 0.9049347 -0.60801172 56 12
-1.6081067 0.66626167 -0.68987161 56 11
-1.5462754 0.91095859 -0.93450081 58 9
-1.6049516 0.66303885 -0.79927731 63 10
-1.5529958 0.91852409 -1.0694771 60 8
-0.77166218 0.31649819 -0.54087716 38 7
-0.60834301 0.36053899 -0.51194286 67 6
-0.57834077 0.23552874 -0.49913079 54 5
-0.22929592 0.13522607 -0.22112274 58 4
-0.2352583 0.09661331 -0.23288728 68 3
-0.21881717 0.13008097 -0.25949904 11 2
-0.28946117 0.11665566 -0.36392909 8 1
-0.25830117 0.15519579 -0.37495875 3 0
-1.6053972 0.67163593 0.45503002 56 31
-1.5437924 0.90314162 0.40583014 63 30
-1.6077343 0.67423147 0.32962245 66 29
-1.5419881 0.90138137 0.27391851 70 28
-1.6015009 0.67324442 0.20781749 72 27
-1.55572 0.90908104 0.1688927 71 26
-1.6091095 0.67708433 0.11903515 70 25
-1.5500718 0.90614152 0.082103282 70 24
-1.6030449 0.6751942 0.039574403 72 23
-1.5537207 0.90864468 0 71 22
-1.607536 0.67740858 -0.039690454 71 21
-1.5519094 0.90794629 -0.082219742 68 20
-1.6017762 0.67532659 -0.11792 71 19
-1.5535923 0.90965509 -0.15848951 67 18
-1.6136391 0.68031502 -0.19645722 67 17
-1.5491285 0.90775394 -0.24461496 67 16
-1.607343 0.6770305 -0.29799867 64 15
-1.550814 0.9119727 -0.50487089 55 13
-1.6022019 0.6742354 -0.39012957 62 14
-1.5484626 0.91273588 -0.60964614 56 12
-1.6101674 0.67337275 -0.69174623 55 11
-1.543246 0.91608125 -0.93450081 59 9
-1.6068069 0.6703735 -0.80140305 64 10
-1.5499414 0.92366904 -1.0694771 62 8
-0.76672184 0.31761795 -0.53807467 39 7
-0.60203218 0.35947675 -0.50739902 68 6
-0.58462906 0.24031429 -0.50559199 66 5
-0.23347856 0.1388022 -0.22630529 59 4
-0.2317532 0.096118361 -0.22924842 68 3
-0.21563181 0.12911499 -0.25568286 9 2
-0.28907275 0.11761491 -0.36392909 8 1
nan nan nan 0 0
-1.6009345 0.67601949 0.45438549 56 31
-1.5407889 0.90825605 0.40583014 67 30
-1.6077514 0.68051279 0.33009604 66 29
-1.5389906 0.90648979 0.27391851 68 28
-1.6015455 0.67951757 0.20812044 68 27
-1.5525372 0.91450596 0.1688927 71 26
-1.6068553 0.68241668 0.11903515 70 25
-1.5449084 0.91000664 0.08198683 70 24
-1.6030985 0.68148094 0.039632428 72 23
-1.5550035 0.91633564 0 68 22
-1.6051617 0.68301582 -0.039690454 72 21
-1.5510397 0.91435838 -0.082336202 68 20
-1.6018242 0.6816079 -0.11809264 70 19
-1.5589787 0.92014563 -0.15938367 67 18
-1.6113741 0.68566227 -0.19645722 68 17
-1.548081 0.9144178 -0.24495901 67 16
-1.607357 0.68331724 -0.29842806 66 15
-1.5477813 0.91711044 -0.50487089 55 13
-1.6020828 0.68077391 -0.3906877 62 14
-1.5474572 0.91907483 -0.61046338 56 12
-1.607807 0.67898911 -0.69174623 55 11
-1.5438253 0.92373502 -0.93684584 58 9
-1.6045749 0.6756981 -0.80140305 66 10
-1.5485404 0.93017781 -1.0707703 60 8
-0.76949 0.32174334 -0.54087716 43 7
-0.60417444 0.36363965 -0.51042825 66 6
-0.58025551 0.24090673 -0.50236142 66 5
-0.22991098 0.13772792 -0.22285026 59 4
-0.23300575 0.097569585 -0.23106785 66 3
-0.21380638 0.12901667 -0.25377479 9 2
-0.29147485 0.11974552 -0.36790645 8 1
-0.29533207 0.18070747 -0.43813115 7 0
-1.6007884 0.68254793 0.45503002 59 31
-1.5376092 0.91362888 0.40583014 63 30
-1.6076248 0.68708229 0.33056965 66 29
-1.5358169 0.91185641 0.27391851 70 28
-1.601446 0.68607783 0.20842338 68 27
-1.5536122 0.92246604 0.16936845 70 26
-1.6090505 0.6899808 0.11938219 70 25
-1.5460138 0.91794902 0.082219742 68 24
-1.60059 0.68735206 0.039632428 72 23
-1.5539433 0.92303741 0 68 22
-1.6027676 0.68861473 -0.039690454 74 21
-1.5455331 0.91875845 -0.082219742 67 20
-1.604021 0.68915778 -0.11843794 70 19
-1.5557573 0.92558193 -0.15938367 68 18
-1.6134167 0.69351906 -0.19702585 66 17
-1.5470058 0.92108548 -0.24530305 66 16
-1.6025773 0.68823534 -0.29799867 66 15
-1.5485328 0.92524785 -0.50624651 55 13
-1.6041784 0.68827736 -0.39180395 62 14
-1.5481291 0.92717338 -0.6120978 55 12
-1.6074408 0.6857838 -0.69268358 54 11
-1.5424807 0.93026119 -0.93801838 56 9
-1.6020876 0.68157464 -0.80140305 66 10
-1.5469491 0.93695819 -1.0720634 58 8
-0.7683056 0.32456151 -0.54087716 39 7
-0.59774786 0.36273748 -0.50588435 64 6
-0.57936859 0.24303184 -0.50236142 72 5
-0.22786728 0.13761979 -0.22112274 70 4
-0.23423368 0.099071585 -0.23288728 67 3
-0.21883655 0.13318232 -0.26140711 9 2
-0.29103401 0.12081303 -0.36790645 8 1
-0.30692774 0.18949729 -0.45850939 7 0
-1.6027156 0.69031513 0.45631903 59 31
-1.5363381 0.9205128 0.40639383 67 30
-1.6005857 0.69103038 0.32962245 66 29
-1.5303469 0.91620797 0.27353215 70 28
-1.596642 0.69096047 0.20812044 72 27
-1.5502207 0.92815417 0.16936845 71 26
-1.6065108 0.69587362 0.11938219 68 25
-1.5447799 0.92489475 0.082336202 70 24
-1.6004753 0.69392592 0.039690454 72 23
-1.5505497 0.92872667 0 68 22
-1.6048211 0.69646817 -0.039806508 74 21
-1.5423164 0.92414773 -0.082219742 67 20
-1.5969057 0.69305271 -0.11809264 70 19
-1.5523545 0.93127787 -0.15938367 67 18
-1.610986 0.69914669 -0.19702585 67 17
-1.5436195 0.92674935 -0.24530305 66 16
-1.6024262 0.69480169 -0.29842806 64 15
-1.5452938 0.93064761 -0.50624651 55 13
-1.5994076 0.69318646 -0.39124581 62 14
-1.5448833 0.93257165 -0.6120978 55 12
-1.6050372 0.69139069 -0.69268358 55 11
-1.5428307 0.93820786 -0.94036335 56 9
-1.601779 0.68805277 -0.80246586 64 10
-1.5473185 0.94458675 -1.0746498 60 8
-0.76144677 0.32482353 -0.53667343 38 7
-0.598171 0.3658658 -0.50739902 66 6
-0.58203757 0.24652481 -0.50559199 83 5
-0.23045357 0.1403248 -0.22457777 64 4
-0.23388642 0.099888615 -0.23288728 71 3
-0.21971427 0.13484354 -0.2633152 8 2
-0.29341686 0.12297057 -0.37188384 7 1
-0.30259454 0.18824212 -0.45239592 7 0
-1.5980797 0.69494534 0.4556745 56 31
-1.5331155 0.92587006 0.40639383 67 30
-1.6026671 0.69856852 0.33056965 67 29
-1.5313658 0.92410177 0.27430484 70 28
-1.5942203 0.69652957 0.20812044 72 27
-1.5491006 0.93484819 0.16960631 68 26
-1.604072 0.70147717 0.11938219 68 25
-1.5436786 0.93157429 0.082452662 68 24
-1.5957525 0.69850945 0.039632428 71 23
-1.549437 0.9354282 0 68 22
-1.6000898 0.70106596 -0.039748482 71 21
-1.5412173 0.93081939 -0.082336202 66 20
-1.5944768 0.6986227 -0.11809264 70 19
-1.5512234 0.9379819 -0.15960722 68 18
-1.6085358 0.70476574 -0.19702585 66 17
-1.5424919 0.9334166 -0.2456471 66 16
-1.6022487 0.70137542 -0.29885745 64 15
-1.5420359 0.93603599 -0.50624651 55 13
-1.5992123 0.69973892 -0.39180395 60 14
-1.5436355 0.93918931 -0.61291504 58 12
-1.6004872 0.69606781 -0.69174623 56 11
-1.5414274 0.94474387 -0.94153589 56 9
-1.5993675 0.69363981 -0.80246586 66 10
-1.5421911 0.94885862 -1.0733567 60 8
-0.76982951 0.33154261 -0.54367965 35 7
-0.59351158 0.36585185 -0.50436974 66 6
-0.58117342 0.24855499 -0.50559199 80 5
-0.22996233 0.14112838 -0.22457777 70 4
-0.23511885 0.10136414 -0.23470671 64 3
-0.22197084 0.13733929 -0.26713136 8 2
-0.29018348 0.12284186 -0.36790645 7 1
-0.30437675 0.19085601 -0.45647156 7 0
-1.5978572 0.7014873 0.45631903 59 31
-1.5319531 0.93248487 0.40695745 63 30
-1.5979706 0.7031731 0.33009604 66 29
-1.5302392 0.93072778 0.27469119 70 28
-1.5917792 0.7020902 0.20812044 68 27
-1.5481169 0.9412756 0.1698442 68 26
-1.6061792 0.70908016 0.11972923 68 25
-1.5382853 0.93565667 0.082336202 68 24
-1.5955918 0.70508236 0.039690454 71 23
-1.5461622 0.94083112 0 67 22
-1.604618 0.7093904 -0.039922561 71 21
-1.5379587 0.93619353 -0.082336202 67 20
-1.596593 0.70619559 -0.11843794 70 19
-1.5459795 0.94182265 -0.15938367 68 18
-1.6106117 0.7123794 -0.19759446 67 17
-1.5393882 0.93852651 -0.2456471 67 16
-1.6020447 0.70795631 -0.29928684 64 15
-1.5428563 0.94392681 -0.50762218 56 13
-1.5968831 0.70503825 -0.39180395 60 14
-1.5423601 0.94580948 -0.61373222 58 12
-1.6002939 0.70229965 -0.69268358 56 11
-1.538286 0.94985026 -0.94153589 56 9
-1.5990107 0.70012289 -0.80352879 66 10
-1.540853 0.95509708 -1.0746498 60 8
-0.76106197 0.33095071 -0.53807467 39 7
-0.59398097 0.36887348 -0.50588435 60 6
-0.58034605 0.25048089 -0.50559199 83 5
-0.22796559 0.14092454 -0.22285026 66 4
-0.2300404 0.10014837 -0.22924842 67 3
-0.22015277 0.13720527 -0.26522329 7 2
-0.29397228 0.12554567 -0.37387252 7 1
-0.30130619 0.19029744 -0.45239592 7 0
-1.5977321 0.70775723 0.45696354 56 31
-1.5309272 0.93883592 0.40752113 62 30
-1.6046098 0.71244007 0.33199042 66 29
-1.5313534 0.9383834 0.27546388 67 28
-1.5962481 0.71038222 0.20902926 68 27
-1.5469421 0.94797677 0.17008208 70 26
-1.6038191 0.71440262 0.11972923 68 25
-1.5415574 0.94467509 0.082685582 68 24
-1.5954051 0.71166277 0.039748482 71 23
-1.5472937 0.94857156 0 68 22
-1.602132 0.71498722 -0.039922561 70 21
-1.5389354 0.94417351 -0.082569115 67 20
-1.5965214 0.71249944 -0.1186106 70 19
-1.546923 0.94982433 -0.15983075 67 18
-1.6103847 0.7190066 -0.19787878 66 17
-1.5445353 0.94909024 -0.24702327 66 16
-1.5995637 0.71354413 -0.29928684 64 15
-1.5436406 0.9518348 -0.50899786 59 13
-1.5944122 0.71060812 -0.39180395 60 14
-1.5410575 0.95243216 -0.61454946 60 12
-1.5998293 0.70909631 -0.69362092 56 11
-1.5368342 0.95638317 -0.94270849 56 9
-1.5944861 0.70478851 -0.80246586 66 10
-1.5427808 0.96414715 -1.0785295 56 8
-0.75800353 0.33277938 -0.53667343 47 7
-0.59430695 0.37210962 -0.50739902 58 6
-0.57416624 0.25034299 -0.50074607 72 5
-0.23049542 0.1437016 -0.22630529 70 4
-0.23282759 0.10233234 -0.23288728 62 3
-0.22646442 0.1423433 -0.27476367 7 2
-0.29071596 0.12545058 -0.36989516 7 1
-0.28237993 0.17958198 -0.42182863 7 0
-1.5973337 0.71459168 0.45760807 58 31
-1.5274758 0.9444406 0.40752113 63 30
-1.6019877 0.7183165 0.33199042 64 29
-1.5300033 0.94529057 0.27585024 67 28
-1.5913688 0.71521395 0.20872632 67 27
-1.5413417 0.95232946 0.1698442 70 26
-1.60119 0.72027606 0.11972923 68 25
-1.5338387 0.94768828 0.082452662 67 24
-1.5883503 0.71518153 0.039632428 71 23
-1.5459312 0.95555323 0 66 22
-1.5995007 0.72085452 -0.039922561 71 21
-1.5335078 0.94822359 -0.082452662 67 20
-1.5961745 0.71936768 -0.11878324 68 19
-1.5497781 0.95942742 -0.16050138 68 18
-1.6055993 0.72360611 -0.19759446 66 17
-1.5368397 0.95213145 -0.24633518 66 16
-1.5948163 0.71811533 -0.29885745 64 15
-1.5423485 0.95848852 -0.5096857 62 13
-1.5962442 0.71844113 -0.3929202 60 14
-1.5377235 0.95780575 -0.61454946 63 12
-1.5994613 0.71561992 -0.69455826 55 11
-1.5389249 0.96553731 -0.946226 53 9
-1.5982198 0.71310681 -0.80565453 64 10
-1.5339791 0.96609867 -1.0746498 56 8
-0.75494164 0.33459076 -0.53527224 54 7
-0.58461332 0.36884445 -0.49982589 51 6
-0.57328892 0.25234571 -0.50074607 75 5
-0.2299924 0.14450531 -0.22630529 72 4
-0.23562005 0.10449696 -0.23652615 62 3
-0.22187565 0.14053524 -0.26903945 8 2
-0.29027629 0.12646459 -0.36989516 7 1
-0.27326486 0.17502163 -0.40756389 4 0
-1.5948296 0.72016311 0.45760807 59 31
-1.5262353 0.95105743 0.40808475 62 30
-1.5994705 0.72390407 0.33199042 66 29
-1.5287894 0.95193362 0.27623656 67 28
-1.5911238 0.7217865 0.20902926 67 27
-1.544341 0.96165818 0.17055784 70 26
-1.6009383 0.72688884 0.11990275 67 25
-1.534758 0.95568186 0.082685582 67 24
-1.5903977 0.72278333 0.039748482 68 23
-1.5447068 0.96226829 0 67 22
-1.5946983 0.72540176 -0.039864536 72 21
-1.5323064 0.95489419 -0.082569115 67 20
-1.5936536 0.724935 -0.11878324 70 19
-1.5443088 0.96351069 -0.16027784 67 18
-1.598539 0.72715575 -0.19702585 66 17
-1.5398031 0.96143228 -0.24736732 64 16
-1.5990305 0.7267254 -0.30014563 63 15
-1.5410287 0.96514469 -0.51037353 63 13
-1.5937268 0.72400868 -0.3929202 59 14
-1.5343708 0.96316743 -0.61454946 62 12
-1.5990671 0.72214949 -0.69549555 54 11
-1.5374099 0.97208577 -0.94739854 53 9
-1.5936562 0.71775514 -0.8045916 64 10
-1.5378169 0.97604322 -1.0798227 55 8
-0.75755453 0.33890224 -0.53807467 59 7
-0.58667117 0.37302956 -0.50285512 50 6
-0.57065725 0.25357863 -0.49913079 68 5
-0.2310037 0.14628908 -0.22803281 72 4
-0.23053434 0.10327353 -0.23106785 62 3
-0.22408792 0.14307642 -0.27285561 7 2
-0.28983307 0.12747708 -0.36989516 8 1
-0.26902351 0.17358536 -0.40145043 7 0
-1.5967047 0.72772294 0.45889711 58 31
-1.5290893 0.96027285 0.40977573 64 30
-1.596934 0.72948289 0.33199042 64 29
-1.5275478 0.95857978 0.27662292 67 28
-1.5885946 0.72733611 0.20902926 67 27
-1.5411434 0.96677411 0.17055784 70 26
-1.5983913 0.73247272 0.11990275 68 25
-1.5356399 0.96369332 0.082918495 67 24
-1.5901382 0.72936928 0.039806508 71 23
-1.5455699 0.97031802 0 68 22
-1.594557 0.73172522 -0.039922561 70 21
-1.5353035 0.96422923 -0.082918495 66 20
-1.5933816 0.7315309 -0.1189559 68 19
-1.5432117 0.96995401 -0.16050138 68 18
-1.6027672 0.73583072 -0.19787878 66 17
-1.5387009 0.96785408 -0.24771136 64 16
-1.5964841 0.73230267 -0.30014563 63 15
-1.5417123 0.97308886 -0.51174927 60 13
-1.5935338 0.7303018 -0.39347833 59 14
-1.5349896 0.97104883 -0.61618394 58 12
-1.5966637 0.72744823 -0.69549555 56 11
-1.5323172 0.97599 -0.946226 12 9
-1.5911409 0.72331369 -0.8045916 64 10
-1.5363728 0.98229235 -1.0811158 41 8
-0.7601465 0.34323597 -0.54087716 66 7
-0.58710194 0.3760519 -0.50436974 50 6
-0.57679212 0.25855935 -0.50559199 64 5
-0.22900347 0.14606747 -0.22630529 76 4
-0.2333324 0.10541137 -0.23470671 66 3
-0.23035805 0.14826001 -0.28239602 7 2
-0.29358172 0.13023813 -0.3758612 8 1
-0.25517008 0.16567244 -0.37903443 7 0
-1.598675 0.73502564 0.46018615 56 31
-1.5238398 0.96403348 0.40921205 64 30
-1.5945061 0.73477453 0.33199042 64 29
-1.5264468 0.96496254 0.27700928 68 28
-1.5884284 0.73363751 0.2093322 67 27
-1.5356575 0.97081542 0.17031996 70 26
-1.600484 0.73985577 0.12024979 67 25
-1.5345449 0.97011745 0.083034955 67 24
-1.5877107 0.73463833 0.039806508 68 23
-1.5381211 0.97276038 0 68 22
-1.591993 0.73728687 -0.039922561 70 21
-1.5320975 0.96931523 -0.082918495 67 20
-1.5932113 0.73785573 -0.11912854 68 19
-1.5419185 0.97666997 -0.16072492 68 18
-1.6025734 0.74218231 -0.19816308 64 17
-1.5332233 0.97189099 -0.24736732 66 16
-1.5985199 0.73965496 -0.30100441 63 15
-1.5364504 0.97690392 -0.51106137 55 13
-1.5887617 0.73483998 -0.3929202 60 14
-1.5337518 0.97740602 -0.61700112 55 12
-1.5920075 0.73205203 -0.69455826 55 11
nan nan nan 0 9
-1.5887337 0.72858608 -0.8045916 67 10
-1.5383257 0.99113286 -1.0849954 12 8
-0.76466501 0.34831083 -0.54508084 68 7
-0.5924542 0.3824378 -0.51042825 49 6
-0.57066005 0.2582356 -0.50074607 72 5
-0.2284922 0.14686593 -0.22630529 75 4
-0.22668906 0.10345544 -0.22742899 66 3
-0.22849305 0.14817025 -0.28048792 7 2
-0.2986809 0.13368239 -0.38381594 8 1
-0.26061088 0.17058504 -0.38922352 7 0
-1.5939069 0.73958802 0.45954162 58 31
-1.5266218 0.97328258 0.41090304 64 30
-1.5919315 0.74033582 0.33199042 63 29
-1.5230691 0.97028488 0.27700928 67 28
-1.5858579 0.73917764 0.2093322 67 27
-1.5364538 0.97884935 0.17079571 70 26
-1.5978918 0.7454381 0.12024979 67 25
-1.5332539 0.97681242 0.083151415 68 24
-1.5895394 0.742562 0.039922561 71 23
-1.5389293 0.98081589 0 67 22
-1.5894097 0.74283946 -0.039922561 71 21
-1.5285345 0.97492421 -0.082918495 66 20
-1.5906262 0.74341255 -0.11912854 68 19
-1.5385 0.98204637 -0.16072492 67 18
-1.6020939 0.74909997 -0.19844739 64 17
-1.5339917 0.97990817 -0.24805541 64 16
-1.5913327 0.74343032 -0.30014563 63 15
-1.540947 0.98772681 -0.51381272 12 13
-1.5928159 0.74346399 -0.39459458 59 14
-1.5242004 0.9791823 -0.61454946 11 12
-1.5935208 0.73982787 -0.69643289 54 11
nan nan nan 0 9
-1.5881075 0.73535192 -0.80565453 63 10
nan nan nan 0 8
-0.75208026 0.3459577 -0.53667343 67 7
-0.59104848 0.38460669 -0.51042825 46 6
-0.56970972 0.26032546 -0.50074607 67 5
-0.22644562 0.14670473 -0.22457777 79 4
-0.22944023 0.10568197 -0.23106785 60 3
-0.23468907 0.1534552 -0.29002833 7 2
-0.29957563 0.13538635 -0.38580462 8 1
-0.25638038 0.16911213 -0.38311005 4 0
-1.5911856 0.74542499 0.45954162 58 31
-1.5230442 0.97887141 0.41090304 63 30
-1.5936544 0.74824589 0.33293763 63 29
-1.523656 0.97853523 0.27778196 67 28
-1.5876317 0.74709207 0.20993808 67 27
-1.5307635 0.9831267 0.17055784 70 26
-1.5974065 0.75234914 0.12042332 67 25
-1.5296633 0.98242545 0.083151415 67 24
-1.5869377 0.748106 0.039922561 68 23
-1.5332224 0.9850958 0 67 22
-1.593462 0.75185001 -0.040096644 70 21
-1.525122 0.98025382 -0.082918495 66 20
-1.5901477 0.75029856 -0.11930119 68 19
-1.5348902 0.98767859 -0.16072492 67 18
-1.6017169 0.75574446 -0.19873169 66 17
-1.5324701 0.98686719 -0.24839944 64 16
-1.5954156 0.75212181 -0.30143383 60 15
-1.5072296 0.97350091 -0.50349522 2 13
-1.5900804 0.74929696 -0.39459458 59 14
nan nan nan 0 12
-1.5909288 0.74538577 -0.69643289 55 11
nan nan nan 0 9
-1.5875823 0.74184585 -0.80671734 62 10
nan nan nan 0 8
-0.7565105 0.35117728 -0.54087716 72 7
-0.59799898 0.39215058 -0.51800138 46 6
-0.56358832 0.25993964 -0.49590015 62 5
-0.23044193 0.15050307 -0.22976033 80 4
-0.22437944 0.10437128 -0.22560956 64 3
-0.23814392 0.15702204 -0.29575258 7 2
-0.311562 0.14196612 -0.40370277 8 1
-0.25698686 0.17081921 -0.38514787 7 0
-1.5885737 0.75097471 0.45954162 58 31
-1.5216607 0.98550832 0.41146669 64 30
-1.586593 0.75170851 0.33199042 63 29
-1.518159 0.98250341 0.27739561 67 28
-1.5850142 0.7526294 0.20993808 67 27
-1.5314977 0.99117357 0.17103359 70 26
-1.5947707 0.7579205 0.12042332 64 25
-1.5304145 0.99047786 0.083384328 67 24
-1.5820582 0.75257039 0.039864536 68 23
-1.5339684 0.9931643 0 67 22
-1.5930859 0.75847894 -0.040154673 70 21
-1.5237854 0.98693168 -0.083034955 66 20
-1.5852656 0.75477564 -0.11912854 68 19
-1.5335207 0.99438757 -0.16094846 66 18
-1.594581 0.75920171 -0.19816308 64 17
-1.5310916 0.99356091 -0.24874349 64 16
-1.5905548 0.75663137 -0.30100441 63 15
-1.48772 0.96824729 -0.49799252 2 13
-1.5896574 0.7558862 -0.39515272 59 14
nan nan nan 0 12
-1.5862203 0.74994701 -0.69549555 55 11
-1.2270535 0.80561459 -0.76096737 18 9
-1.5870312 0.74834502 -0.80778027 63 10
nan nan nan 0 8
-0.75340229 0.35294381 -0.53947592 76 7
-0.59662646 0.39423558 -0.51800138 41 6
-0.5644111 0.26270235 -0.49751547 62 5
-0.23141493 0.15231471 -0.23148786 83 4
-0.23337995 0.10940848 -0.23652615 62 3
-0.23759435 0.15785235 -0.29575258 7 2
-0.31106454 0.14305282 -0.40370277 8 1
-0.2551935 0.17089786 -0.38311005 7 0
-1.5859427 0.75651532 0.45954162 59 31
-1.5243257 0.99481487 0.41315764 63 30
-1.5861757 0.75829774 0.33246404 63 29
-1.5167875 0.98914856 0.27778196 67 28
-1.5846168 0.75922668 0.21024103 67 27
-1.5280285 0.99651349 0.17103359 68 26
-1.5921153 0.76348269 0.12042332 67 25
-1.529038 0.99718076 0.083500788 66 24
-1.583931 0.76024497 0.03998059 71 23
-1.5325844 0.99988127 0 66 22
-1.58592 0.76187694 -0.040038615 70 21
-1.5245104 0.99497938 -0.083267868 64 20
-1.5848709 0.76138151 -0.11930119 68 19
-1.5300404 0.99973452 -0.16094846 67 18
-1.5941616 0.76583564 -0.19844739 64 17
-1.5276139 0.9988994 -0.24874349 64 16
-1.5879039 0.76217884 -0.30100441 58 15
-1.4742903 0.96683133 -0.49455336 9 13
-1.5848105 0.76037949 -0.39459458 59 14
-1.4369285 0.94437987 -0.5826779 9 12
-1.5856861 0.75647426 -0.69643289 55 11
nan nan nan 0 9
-1.5864542 0.75484937 -0.80884308 63 10
nan nan nan 0 8
-0.75029093 0.35469294 -0.53807467 80 7
-0.59689832 0.39742398 -0.51951599 49 6
-0.55656731 0.26145864 -0.49105424 63 5
-0.22938561 0.15210819 -0.22976033 81 4
-0.22832099 0.10807883 -0.23106785 63 3
-0.2383752 0.15959266 -0.29766065 7 2
-0.31194353 0.1447624 -0.40569144 8 1
-0.24863219 0.16768 -0.37292096 7 0
-1.5854703 0.76309115 0.46018615 59 31
-1.5188103 0.99878889 0.41259399 58 30
-1.5857315 0.76489323 0.33293763 64 29
-1.5174506 0.99715501 0.27855465 66 28
-1.5841928 0.76583034 0.21054396 66 27
-1.5245408 1.0018412 0.17103359 68 26
-1.5939335 0.77120179 0.12077036 67 25
-1.5276331 1.003886 0.083617248 66 24
-1.5812677 0.76576924 0.03998059 71 23
-1.5290848 1.0052249 0 67 22
-1.5900025 0.77066922 -0.040212698 70 21
-1.5231128 1.0016696 -0.083384328 64 20
-1.5844493 0.76799387 -0.11947385 68 19
-1.5306972 1.0078129 -0.16139553 67 18
-1.5914786 0.77139568 -0.19844739 66 17
-1.5282501 1.0069555 -0.24943158 64 16
-1.5918883 0.77092808 -0.30229262 62 15
-1.4468635 0.95603997 -0.48629931 7 13
-1.5843415 0.76696557 -0.39515272 59 14
-1.4257506 0.9441613 -0.579409 7 12
-1.5851257 0.76300693 -0.69737023 55 11
-1.1076154 0.73804706 -0.68827099 42 9
-1.5797268 0.75843 -0.80671734 62 10
nan nan nan 0 8
-0.74904829 0.35730979 -0.53807467 85 7
-0.60209835 0.40396082 -0.52557451 60 6
-0.56083536 0.26582715 -0.49590015 60 5
-0.22288254 0.1488335 -0.22285026 87 4
-0.22638626 0.10815517 -0.22924842 63 3
-0.24446717 0.1650065 -0.30720106 7 2
-0.31832635 0.14899763 -0.41563487 9 1
-0.25042489 0.17019822 -0.37699658 7 0
-1.5849713 0.76967287 0.46083066 58 31
-1.5173435 1.0054324 0.41315764 60 30
-1.5830518 0.77042389 0.33293763 64 29
-1.5201337 1.0065441 0.27971366 66 28
-1.5859736 0.77352494 0.21114984 64 27
-1.5272545 1.0112861 0.17174721 68 26
-1.5867463 0.77457911 0.12042332 66 25
-1.5282806 1.0119747 0.08385016 64 24
-1.5830793 0.77347243 0.040096644 67 23
-1.5255666 1.0105562 0 67 22
-1.5850558 0.77511984 -0.040154673 70 21
-1.5237672 1.0097442 -0.083617248 66 20
-1.5840009 0.77461243 -0.1196465 68 19
-1.5271699 1.0131499 -0.16139553 66 18
-1.5954745 0.78021038 -0.19930032 64 17
-1.5288484 1.0150282 -0.25011966 64 16
-1.5869731 0.77540201 -0.30186319 62 15
-1.4395198 0.95841545 -0.48492366 7 13
-1.5816545 0.77249128 -0.39515272 59 14
-1.4087013 0.93993449 -0.57368851 2 12
-1.5845391 0.76954484 -0.69830751 55 11
-1.1013703 0.73944068 -0.6859259 47 9
-1.5811456 0.76590645 -0.80884308 62 10
nan nan nan 0 8
-0.74966502 0.36081392 -0.53947592 87 7
-0.60068464 0.4060601 -0.52557451 63 6
-0.56335443 0.26941347 -0.49913079 62 5
-0.22385077 0.15063441 -0.22457777 84 4
-0.23066793 0.11112098 -0.23470671 59 3
-0.23725525 0.16125293 -0.29766065 7 2
-0.3123011 0.14757089 -0.40768012 9 1
-0.24982928 0.17107132 -0.37699658 4 0
-1.582275 0.77520072 0.46083066 58 31
-1.5178725 1.0134326 0.41428494 60 30
-1.5869678 0.77918136 0.33435842 63 29
-1.5186641 1.0132177 0.28010002 66 28
-1.5765795 0.77577877 0.21024103 67 27
-1.5257837 1.0179949 0.17198509 68 26
-1.5929885 0.78450817 0.1211174 64 25
-1.5247388 1.0173032 0.08385016 66 24
-1.5781263 0.77789176 0.040038615 67 23
-1.5241077 1.0172657 0 66 22
-1.5845835 0.78175062 -0.040212698 68 21
-1.5223085 1.0164462 -0.083733708 64 20
-1.5790492 0.77903664 -0.11947385 68 19
-1.5236241 1.0184743 -0.16139553 67 18
-1.5927414 0.78577483 -0.19930032 64 17
-1.5232395 1.0189793 -0.24977562 64 16
-1.5842568 0.7809369 -0.30186319 60 15
-1.4341712 0.96209282 -0.48423582 3 13
-1.581136 0.77908158 -0.39571083 58 14
-1.3975759 0.93956268 -0.57041961 3 12
-1.5839258 0.77608788 -0.69924492 54 11
-1.091476 0.73831892 -0.68123585 87 9
-1.5825315 0.77340215 -0.81096882 64 10
nan nan nan 0 8
-0.74467015 0.36163223 -0.53667343 90 7
-0.60090351 0.40927982 -0.52708912 54 6
-0.55379885 0.26727256 -0.49105424 56 5
-0.2233236 0.15141489 -0.22457777 87 4
-0.22562569 0.109733 -0.22924842 66 3
-0.23933826 0.16393176 -0.30147681 7 2
-0.31727839 0.15121633 -0.41563487 9 1
-0.24212679 0.16693857 -0.36476967 4 0
-1.5795594 0.78071922 0.46083066 59 31
-1.5163449 1.0200868 0.4148486 60 30
-1.5820372 0.78362966 0.33388481 64 29
-1.515118 1.0185125 0.28010002 64 28
-1.5783106 0.78347802 0.21084692 66 27
-1.5242844 1.0247054 0.17222297 66 26
-1.5857702 0.7878508 0.12077036 64 25
-1.5211784 1.0226194 0.08385016 66 24
-1.5821198 0.78672487 0.040212698 70 23
-1.5205474 1.0225797 0 66 22
-1.581845 0.7872771 -0.040212698 68 21
-1.5208213 1.0231502 -0.08385016 66 20
-1.5763202 0.78454381 -0.11947385 68 19
-1.5241868 1.0265735 -0.16184261 66 18
-1.5877637 0.79022622 -0.199016 64 17
-1.5237767 1.0270633 -0.25046369 62 16
