# .PCD v0.7 - Point Cloud Data file format
VERSION 0.7
FIELDS x y z intensity ring
SIZE 4 4 4 4 2
TYPE F F F F U
COUNT 1 1 1 1 1
WIDTH 1113
HEIGHT 1
VIEWPOINT 0 0 0 1 0 0 0
POINTS 1113
DATA ascii
1.1176865 -0.071435481 0.10371439 72 26
1.128916 -0.072181553 0.051125307 72 24
1.1149344 -0.075358793 0.10347651 64 26
1.1211702 -0.075798757 0.050775934 77 24
1.1323131 -0.0767726 0 4 22
1.1221106 -0.079794377 0.10419014 49 26
1.1208987 -0.079711914 0.050775934 79 24
1.1220649 -0.079994008 0 22 22
1.1143956 -0.082946107 0.10347651 38 26
1.1231036 -0.083814807 0.05089239 80 24
1.1292567 -0.084484331 0 74 22
1.1116185 -0.086637273 0.10323863 21 26
1.1228194 -0.087538689 0.05089239 79 24
1.1289704 -0.088228621 0 71 22
1.1302568 -0.08853016 -0.05124177 8 20
1.1113093 -0.090517022 0.10323863 13 26
1.1200185 -0.091249876 0.050775934 81 24
1.1286556 -0.092168927 0 74 22
1.1324131 -0.092881128 -0.051358223 50 20
1.1159288 -0.09502165 0.10371439 12 26
1.1171887 -0.095137551 0.050659474 79 24
1.1158575 -0.095217749 0 12 22
1.1271065 -0.096398123 -0.051125307 80 20
1.1131117 -0.098691687 0.10347651 12 26
1.1193368 -0.099262148 0.050775934 79 24
1.1254774 -0.10001684 0 11 22
1.1292503 -0.10055821 -0.05124177 83 20
1.1433561 -0.10243937 -0.099922165 4 18
1.1202116 -0.10308108 0.10419014 12 26
1.1140108 -0.10270044 0.050543014 81 24
1.1176546 -0.10324036 0 9 22
1.1264061 -0.10426439 -0.051125307 81 20
1.1355736 -0.10552473 -0.099251553 49 18
1.1074604 -0.10578294 0.10300075 13 26
1.1161498 -0.10663648 0.050659474 77 24
1.1123298 -0.1064599 0 9 22
1.1285396 -0.10824238 -0.05124177 84 20
1.1376764 -0.10973183 -0.099475086 66 18
1.1137584 -0.11050655 0.16960539 80 28
1.1120172 -0.11034255 0.10347651 13 26
1.1157514 -0.11072666 0.050659474 76 24
1.1169065 -0.1110405 0 9 22
1.1206816 -0.11162086 -0.05089239 81 20
1.1372665 -0.11390088 -0.099475086 66 18
1.0986269 -0.11284968 0.16728732 80 28
1.106675 -0.11370499 0.10300075 77 26
1.1103907 -0.11410034 0.050426558 80 24
1.1115394 -0.11441678 0 11 22
1.1227689 -0.11579312 -0.05100885 83 20
1.1368619 -0.11786999 -0.099475086 37 18
1.1006817 -0.1169498 0.16767366 77 28
1.1038176 -0.11710674 0.10276287 84 26
1.117434 -0.11878216 0.050775934 72 24
1.1161041 -0.1188352 0 11 22
1.1223578 -0.11971162 -0.05100885 80 20
1.1315142 -0.12109975 -0.099028006 12 18
1.0953784 -0.12005108 0.16690096 80 28
1.1083487 -0.12151131 0.10323863 81 26
1.1120701 -0.12193289 0.050543014 71 24
1.1231576 -0.1233691 0 11 22
1.1194729 -0.12315489 -0.05089239 83 20
1.1385077 -0.125884 -0.099698633 11 18
1.0875914 -0.12302611 0.16574195 88 28
1.1054455 -0.12509468 0.10300075 81 26
1.1215613 -0.12695694 0.05100885 12 24
1.1152694 -0.12642947 0 11 22
1.1214947 -0.12754416 -0.05100885 79 20
1.1355879 -0.12957031 -0.099475086 12 18
1.0895858 -0.12730309 0.16612828 88 28
1.1049795 -0.1291455 0.10300075 81 26
1.1161289 -0.13047718 0.050775934 11 24
1.1172811 -0.13081187 0 11 22
1.1185629 -0.13116245 -0.05089239 79 20
1.1326331 -0.13343546 -0.099251553 12 18
1.0891348 -0.13110569 0.16612828 89 28
1.0995816 -0.13239695 0.102525 81 26
1.1131878 -0.13406892 0.050659474 11 24
1.1068919 -0.13349414 0 12 22
1.1180983 -0.13506615 -0.05089239 77 20
1.1321604 -0.13738827 -0.099251553 12 18
1.0886706 -0.13490666 0.16612828 89 28
1.0991364 -0.13604257 0.102525 80 26
1.1003245 -0.1363932 0.050077178 11 24
1.1138602 -0.1382958 0 72 22
1.1225753 -0.13959423 -0.051125307 77 20
1.1242878 -0.14020307 -0.098580927 22 18
1.0857676 -0.13819927 0.16574195 89 28
1.1035911 -0.14051694 0.10300075 76 26
1.0949128 -0.13940059 0.049844261 11 24
1.1109163 -0.14166759 0 79 22
1.1146765 -0.14235243 -0.050775934 80 20
1.131199 -0.1450914 -0.099251553 35 18
1.0901756 -0.14263923 0.16651464 89 28
1.0981599 -0.1437126 0.102525 75 26
1.0944196 -0.14322166 0.049844261 11 24
1.1029805 -0.14455524 0 80 22
1.1141473 -0.14643696 -0.050775934 54 20
1.1257498 -0.14837877 -0.098804474 46 18
1.0920928 -0.14696833 0.16690096 87 28
1.1000915 -0.14807349 0.10276287 71 26
1.0963616 -0.14757003 0.049960721 11 24
1.1073971 -0.1492746 0 76 22
1.1111552 -0.14998625 -0.050659474 13 20
1.1227316 -0.15216464 -0.098580927 53 18
1.0866808 -0.15009373 0.16612828 89 28
1.0995679 -0.15191261 0.10276287 67 26
1.0983129 -0.15174285 0.050077178 12 24
1.1019179 -0.15244423 0 79 22
1.1205168 -0.15525422 -0.051125307 12 20
1.1221936 -0.15608278 -0.098580927 62 18
1.0837322 -0.1533455 0.16574195 88 28
1.0941315 -0.15485077 0.10228712 13 26
1.1076914 -0.1568037 0.050543014 12 24
1.1063554 -0.1568089 0 76 22
1.1199958 -0.15896913 -0.051125307 12 20
1.1167409 -0.15909123 -0.098133847 75 18
1.085634 -0.157487 0.16612828 84 28
1.0960464 -0.15903132 0.102525 11 26
1.0997252 -0.15957877 0.050193641 12 24
1.1082745 -0.16103418 0 74 22
1.1119941 -0.16197862 -0.050775934 12 20
1.1112524 -0.16225922 -0.097686768 71 18
1.0899343 -0.16220199 0.16690096 76 28
1.097917 -0.16341873 0.10276287 9 26
1.1114798 -0.16547124 0.050775934 12 24
1.1052049 -0.16472174 0 74 22
1.1089526 -0.16548577 -0.050659474 17 20
1.1229594 -0.16819923 -0.098804474 71 18
1.0795974 -0.16449749 0.16535559 76 28
1.0973397 -0.16725017 0.10276287 9 26
1.1010232 -0.16782525 0.050310094 67 24
1.1021526 -0.16819659 0 75 22
1.1108363 -0.1697378 -0.050775934 32 20
1.1125236 -0.17058918 -0.097910315 75 18
1.0790164 -0.16826501 0.16535559 74 28
1.0967791 -0.17088817 0.10276287 11 26
1.0979642 -0.17127775 0.050193641 79 24
1.0990895 -0.17165214 0 71 22
1.1176366 -0.17478627 -0.051125307 43 20
1.1144108 -0.17466787 -0.098133847 75 18
1.0784526 -0.17184222 0.16535559 70 28
1.0863485 -0.1731292 0.10181136 11 26
1.0973901 -0.17491777 0.050193641 75 24
1.1009822 -0.17569473 0 71 22
1.1071589 -0.17708942 -0.050659474 51 20
1.1137943 -0.17855683 -0.098133847 75 18
1.0778154 -0.1757938 0.16535559 64 28
1.093104 -0.17813574 0.102525 12 26
1.0918138 -0.1781247 0.049960721 76 24
1.1027974 -0.18013676 0 13 22
1.1040702 -0.18054515 -0.050543014 66 20
1.1107079 -0.18203607 -0.097910315 75 18
1.0723554 -0.17854573 0.16458291 46 28
1.0949295 -0.18236405 0.10276287 12 26
1.0961422 -0.18257467 0.050193641 74 24
1.0997287 -0.1833767 0 12 22
1.1009709 -0.18398152 -0.050426558 71 20
1.1100657 -0.18591206 -0.097910315 75 18
1.0692598 -0.18205535 0.16419657 12 28
1.1234455 -0.044047602 0.13299108 8 27
1.0893488 -0.18553047 0.10228712 12 26
1.0880826 -0.1853184 0.049844261 77 24
1.1015128 -0.18783127 0 12 22
1.1027828 -0.18824854 -0.050543014 66 20
1.1118304 -0.1904045 -0.098133847 75 18
1.0759155 -0.18707082 0.16535559 9 28
1.1232848 -0.047968887 0.13299108 32 27
1.0935965 -0.19019446 0.10276287 12 26
1.087429 -0.18911538 0.049844261 76 24
1.0959263 -0.19080774 0 12 22
1.1045785 -0.19253051 -0.050659474 12 20
1.1111588 -0.19428436 -0.098133847 72 18
1.0679628 -0.18951569 0.16419657 11 28
1.1231105 -0.051889595 0.13299108 47 27
1.0905102 -0.19338048 0.102525 12 26
1.0867622 -0.19291006 0.049844261 76 24
1.0927931 -0.19418979 0 12 22
1.1038997 -0.19638504 -0.050659474 11 20
1.1105084 -0.19796801 -0.098133847 76 18
1.0697581 -0.19350073 0.16458291 12 28
1.1179749 -0.055379018 0.13238519 50 27
1.0824846 -0.19584198 0.10181136 60 26
1.143295 -0.056971446 0.077216677 4 25
1.0910298 -0.19741188 0.050077178 74 24
1.087225 -0.19691168 0 13 22
1.1007859 -0.19959421 -0.050543014 11 20
1.1098106 -0.20184323 -0.098133847 74 18
1.0715041 -0.19768681 0.16496925 13 28
1.1152964 -0.059155159 0.13208227 50 27
1.0793478 -0.19916287 0.10157349 76 26
1.1381077 -0.060706981 0.076869637 29 25
1.0878789 -0.20076099 0.049960721 72 24
1.0988184 -0.20300071 0 28 22
1.0975925 -0.20316809 -0.050426558 11 20
1.1090993 -0.20571594 -0.098133847 74 18
1.0659196 -0.20068878 0.16419657 14 28
1.1150721 -0.063242525 0.13208227 50 27
1.0810554 -0.20358302 0.10181136 81 26
1.1279166 -0.064331502 0.076175556 46 25
1.0895891 -0.20521401 0.050077178 72 24
1.0931555 -0.20609069 0 38 22
1.0944234 -0.20653021 -0.050310094 11 20
1.1034466 -0.2088439 -0.097686768 71 18
1.0652126 -0.20440832 0.16419657 21 28
1.1098895 -0.066847034 0.13147637 51 27
1.075488 -0.20621964 0.10133561 79 26
1.1276852 -0.068268284 0.076175556 46 25
1.0864145 -0.20854048 0.049960721 25 24
1.1349992 -0.069086619 0.0255899 8 23
1.0924294 -0.20990524 0 49 22
1.0985986 -0.21130221 -0.050543014 11 20
1.102748 -0.21250191 -0.097686768 70 18
1.0645289 -0.20793957 0.16419657 24 28
1.1146157 -0.07083106 0.13208227 50 27
1.0747616 -0.20997253 0.10133561 80 26
1.1374097 -0.072621673 0.076869637 33 25
1.0955169 -0.21407712 0.050426558 13 24
1.1372585 -0.073004797 0.025647927 32 23
1.081917 -0.2115878 0 55 22
1.0929922 -0.21397488 -0.050310094 11 20
1.104442 -0.21683444 -0.097910315 64 18
1.061375 -0.21116725 0.16381021 26 28
1.1118853 -0.074560791 0.13177931 50 27
1.0740221 -0.21372287 0.10133561 79 26
1.1271944 -0.075942546 0.076175556 12 25
1.0898664 -0.21691525 0.050193641 12 24
1.1220196 -0.076189175 0.025299765 47 23
1.0811719 -0.21536312 0 63 22
1.0970967 -0.21896666 -0.050543014 12 20
1.1012377 -0.22019531 -0.097686768 67 18
1.0581743 -0.21456017 0.16342388 29 28
1.1091286 -0.078465894 0.13147637 49 27
1.0732316 -0.21765792 0.10133561 79 26
1.1269084 -0.080073409 0.076175556 9 25
1.0817246 -0.21940444 0.049844261 13 24
1.1217469 -0.08010529 0.025299765 50 23
1.0877223 -0.22083114 0 13 22
1.1441585 -0.082058102 -0.025822006 8 21
1.0963256 -0.22279492 -0.050543014 12 20
1.1004232 -0.22423005 -0.097686768 67 18
1.052583 -0.21724407 0.1626512 30 28
1.1088481 -0.082336992 0.13147637 50 27
1.0749403 -0.22172335 0.10157349 77 26
1.1266222 -0.084006563 0.076175556 8 25
1.0858417 -0.22419871 0.050077178 13 24
1.123953 -0.084201723 0.025357792 50 23
1.0796031 -0.22309422 0 11 22
1.1413872 -0.085670084 -0.025763981 34 21
1.097986 -0.22713116 -0.050659474 12 20
1.0996735 -0.22787796 -0.097686768 68 18
1.0615219 -0.22278243 0.16419657 79 28
1.1135181 -0.086386621 0.13208227 47 27
1.0692906 -0.22444195 0.10109774 77 26
1.1313111 -0.08811871 0.076522596 8 25
1.0728772 -0.22520857 0.049494889 20 24
1.1186833 -0.087549284 0.025241738 50 23
1.0764117 -0.22615415 0 9 22
1.1286211 -0.088701539 -0.025473846 49 21
1.0947838 -0.23025213 -0.050543014 13 20
1.0988715 -0.23171516 -0.097686768 68 18
1.0655667 -0.22752787 0.16496925 87 28
1.1082618 -0.089882724 0.13147637 49 27
1.0733662 -0.2292224 0.10157349 72 26
1.1309966 -0.092067197 0.076522596 8 25
1.0745258 -0.22947872 0.049611345 34 24
1.1208465 -0.091847591 0.025299765 50 23
1.082947 -0.23149255 0 9 22
1.1283046 -0.092640616 -0.025473846 51 21
1.08661 -0.23267999 -0.050193641 71 20
1.1607919 -0.095243484 -0.078210473 11 19
1.0931886 -0.23449543 -0.097239695 72 18
1.0599005 -0.23037276 0.16419657 90 28
1.1054519 -0.093739912 0.13117343 47 27
1.070088 -0.23262137 0.10133561 74 26
1.1231954 -0.095593624 0.076002039 9 25
1.0809951 -0.23502171 0.049960721 45 24
1.1180283 -0.095552102 0.025241738 50 23
1.0723242 -0.23331454 0 11 22
1.1304481 -0.096983716 -0.025531873 51 21
1.0833521 -0.23593529 -0.050077178 80 20
1.1355814 -0.097419083 -0.07648398 37 19
1.0996168 -0.24010848 -0.097910315 67 18
1.0615005 -0.23460905 0.16458291 89 28
1.105118 -0.097598083 0.13117343 47 27
1.0717398 -0.23671024 0.10157349 51 26
1.1253394 -0.09972848 0.076175556 9 25
1.0826056 -0.23933758 0.050077178 53 24
1.120178 -0.099670276 0.025299765 50 23
1.0812628 -0.23923597 0 11 22
1.1276304 -0.10051535 -0.025473846 51 21
1.0873961 -0.24080497 -0.050310094 79 20
1.1302652 -0.10094941 -0.076138675 46 19
1.0963846 -0.24320959 -0.097686768 64 18
1.0607166 -0.23812783 0.16458291 88 28
1.10726 -0.10148327 0.13147637 30 27
1.0660528 -0.23934971 0.10109774 17 26
1.1150665 -0.10256769 0.075481474 9 25
1.0744994 -0.24127032 0.049727805 70 24
1.117352 -0.10316 0.025241738 49 23
1.0829015 -0.24337326 0 11 22
1.1272726 -0.1044509 -0.025473846 51 21
1.0792856 -0.24275106 -0.049960721 80 20
1.1274405 -0.10447221 -0.07596603 46 19
1.1003848 -0.2481402 -0.098133847 62 18
1.062286 -0.24238333 0.16496925 87 28
1.0994862 -0.10465875 0.13056755 12 27
1.0700611 -0.24418657 0.10157349 13 26
1.1221515 -0.10715438 0.076002039 11 25
1.0760841 -0.24558003 0.049844261 70 24
1.1169662 -0.10725462 0.025241738 47 23
1.0796093 -0.24659029 0 11 22
1.1269011 -0.10838518 -0.025473846 51 21
1.0832554 -0.24782875 -0.050193641 79 20
1.1320351 -0.10887389 -0.076311335 24 19
1.1092159 -0.25422364 -0.099028006 58 18
1.0589855 -0.24571198 0.16458291 84 28
1.0966251 -0.10844915 0.13026461 11 27
1.0667357 -0.24753945 0.10133561 14 26
1.1143039 -0.11054424 0.075481474 11 25
1.0776083 -0.25009185 0.049960721 45 24
1.1140976 -0.11091074 0.025183709 46 23
1.0811322 -0.25111604 0 12 22
1.1240088 -0.11227173 -0.025415819 53 21
1.0848149 -0.25217876 -0.050310094 79 20
1.1241817 -0.11229475 -0.075793378 11 19
1.0581213 -0.24940704 0.16458291 79 28
1.0937707 -0.11202911 0.12996167 11 27
1.0731287 -0.25298926 0.10204925 13 26
1.1163931 -0.11468266 0.075654998 26 25
1.0767288 -0.25385189 0.049960721 13 24
1.1137036 -0.11479899 0.025183709 41 23
1.072953 -0.25315154 0 12 22
1.1236099 -0.11619457 -0.025415819 51 21
1.0814987 -0.25538522 -0.050193641 76 20
1.1287456 -0.11672053 -0.076138675 8 19
1.0548435 -0.25251913 0.16419657 75 28
1.0983098 -0.1163583 0.13056755 11 27
1.0674454 -0.25537863 0.10157349 13 26
1.1135051 -0.1183208 0.075481474 45 25
1.085546 -0.2599543 0.050426558 12 24
1.1207536 -0.1194644 0.025357792 34 23
1.0769228 -0.25807017 0 12 22
1.1207328 -0.11966 -0.025357792 53 21
1.0781734 -0.25857157 -0.050077178 79 20
1.1382531 -0.12169919 -0.076829277 7 19
1.0540003 -0.25601569 0.16419657 72 28
1.0905153 -0.11920736 0.12965873 11 27
1.0713817 -0.26028788 0.10204925 17 26
1.1106269 -0.12174635 0.07530795 49 25
1.0725504 -0.26058057 0.049844261 12 24
1.112875 -0.12257125 0.025183709 24 23
1.0736331 -0.26104444 0 51 22
1.1203083 -0.12357137 -0.025357792 53 21
1.0796895 -0.2629292 -0.050193641 74 20
1.1254454 -0.12413284 -0.07596603 7 19
1.0554516 -0.26047376 0.16458291 71 28
1.099937 -0.1242962 0.13087049 11 27
1.0631757 -0.26240927 0.10133561 29 26
1.1101732 -0.12581617 0.07530795 49 25
1.0764349 -0.26571652 0.050077178 12 24
1.1149244 -0.12673202 0.025241738 35 23
1.072669 -0.26497775 0 74 22
1.1198478 -0.12767667 -0.025357792 51 21
1.0811881 -0.26730055 -0.050310094 72 20
1.1324186 -0.12908839 -0.07648398 8 19
1.0497466 -0.26294628 0.16381021 34 28
1.0945654 -0.12757137 0.13026461 12 27
1.0694917 -0.26794779 0.10204925 38 26
1.1122051 -0.12997469 0.075481474 49 25
1.0706582 -0.26824886 0.049844261 13 24
1.1070262 -0.12976646 0.025067655 47 23
1.0693139 -0.26810762 0 76 22
1.1193954 -0.13158488 -0.025357792 53 21
1.0778277 -0.2704604 -0.050193641 71 20
1.1245283 -0.13218312 -0.07596603 9 19
1.0488223 -0.26660895 0.16381021 13 28
1.1039715 -0.13255289 0.13147637 12 27
1.0637757 -0.27025762 0.10157349 49 26
1.106791 -0.13327082 0.075134434 49 25
1.0697154 -0.27198449 0.049844261 12 24
1.1115305 -0.13421832 0.025183709 49 23
1.070793 -0.27245986 0 77 22
1.1189528 -0.13529623 -0.025357792 51 21
1.0696205 -0.27235791 -0.049844261 14 20
1.1215835 -0.13581321 -0.075793378 9 19
1.045542 -0.26946419 0.16342388 11 28
1.0961354 -0.13531741 0.13056755 12 27
1.0604172 -0.27334315 0.10133561 67 26
1.1112946 -0.13754217 0.075481474 45 25
1.0688076 -0.27553031 0.049844261 13 24
1.1036364 -0.13699627 0.02500963 53 23
1.0626253 -0.27412128 0 79 22
1.1259164 -0.14011115 -0.025531873 33 21
1.0662947 -0.27527437 -0.049727805 12 20
1.1211269 -0.13953176 -0.075793378 11 19
1.0398184 -0.27185282 0.1626512 11 28
1.0882688 -0.13822132 0.12965873 12 27
1.0570502 -0.27640861 0.10109774 74 26
1.1108078 -0.14142045 0.075481474 41 25
1.0678394 -0.27925947 0.049844261 14 24
1.103127 -0.14104038 0.02500963 53 23
1.0664965 -0.27910444 0 77 22
1.1204607 -0.14341657 -0.025415819 12 21
1.0604496 -0.27790481 -0.049494889 11 20
1.1231076 -0.14375566 -0.07596603 11 19
1.048359 -0.27821586 0.16419657 11 28
1.0852935 -0.14189294 0.12935579 25 27
1.0608382 -0.28156757 0.10157349 18 26
1.1177027 -0.14644673 0.076002039 33 25
1.0643963 -0.28252596 0.049727805 14 24
1.102628 -0.14489014 0.02500963 51 23
1.0654664 -0.28301147 0 75 22
1.1149706 -0.14688024 -0.025299765 9 21
1.0667098 -0.2835438 -0.049844261 11 20
1.1200997 -0.14755072 -0.075793378 12 19
1.042614 -0.28058007 0.16342388 11 28
1.0897121 -0.14632998 0.12996167 49 27
1.0598488 -0.28526884 0.10157349 13 26
1.1097673 -0.14936554 0.075481474 22 25
1.0658137 -0.28689355 0.049844261 14 24
1.1045929 -0.14906698 0.025067655 51 23
1.064472 -0.28672889 0 71 22
1.1094959 -0.15011193 -0.025183709 9 21
1.0633035 -0.28661084 -0.049727805 11 20
1.1121612 -0.15047276 -0.075275436 42 19
1.0440096 -0.28487286 0.16381021 13 28
1.0867355 -0.14979953 0.12965873 53 27
1.0540475 -0.28764662 0.10109774 13 26
1.1117105 -0.15357436 0.075654998 13 25
1.05999 -0.28928754 0.049611345 16 24
1.1015896 -0.15258436 0.02500963 50 23
1.0610541 -0.28977934 0 71 22
1.108965 -0.15398388 -0.025183709 9 21
1.0671118 -0.29164705 -0.049960721 12 20
1.1190424 -0.15536685 -0.075793378 50 19
1.0334921 -0.28586185 0.16226484 17 28
1.0911217 -0.15427591 0.13026461 51 27
1.0554851 -0.29180837 0.10133561 12 26
1.1111677 -0.15745401 0.075654998 30 25
1.0541626 -0.29164436 0.049378429 80 24
1.1010501 -0.15642871 0.02500963 50 23
1.0648524 -0.29482511 0 68 22
1.1133989 -0.1583536 -0.025299765 9 21
1.0708979 -0.29671335 -0.050193641 12 20
1.1135534 -0.1585796 -0.075448081 54 19
1.0396694 -0.29130128 0.16342388 18 28
1.0881475 -0.15754327 0.12996167 53 27
1.0544602 -0.29549092 0.10133561 13 26
1.1032326 -0.16007981 0.075134434 47 25
1.0603998 -0.29717463 0.049727805 83 24
1.0955772 -0.15937041 0.024893576 50 23
1.0542456 -0.29563522 0 71 22
1.1103652 -0.16188392 -0.025241738 9 21
1.069908 -0.30026293 -0.050193641 12 20
1.1130214 -0.16227143 -0.075448081 55 19
1.0315223 -0.29288989 0.16226484 24 28
1.0826799 -0.16062336 0.12935579 53 27
1.0534222 -0.29916987 0.10133561 13 26
1.1026671 -0.16392982 0.075134434 51 25
1.0593559 -0.30087429 0.049727805 85 24
1.0999312 -0.1641116 0.02500963 50 23
1.0556105 -0.30000171 0 56 22
1.1147388 -0.16648647 -0.025357792 11 21
1.0736014 -0.30555898 -0.050426558 12 20
1.1075132 -0.1654295 -0.075102776 56 19
1.0351862 -0.29804519 0.16303752 25 28
1.0820838 -0.16459049 0.12935579 55 27
1.0451484 -0.30094844 0.10062198 13 26
1.1020588 -0.1679702 0.075134434 53 25
1.0534492 -0.30336323 0.049494889 87 24
1.1042948 -0.16869412 0.025125684 35 23
1.0593057 -0.3052628 0 12 22
1.1141212 -0.17057104 -0.025357792 11 21
1.0773246 -0.31069815 -0.050659474 12 20
1.1118318 -0.17023179 -0.075448081 54 19
1.0341394 -0.30165684 0.16303752 26 28
1.0815028 -0.16836666 0.12935579 53 27
1.0464791 -0.30529663 0.10085986 13 26
1.1014658 -0.17181608 0.075134434 53 25
1.0547798 -0.30774286 0.049611345 85 24
1.0987587 -0.1717865 0.02500963 12 23
1.0654289 -0.31107488 0 11 22
1.113519 -0.17445903 -0.025357792 11 21
1.0690464 -0.31234154 -0.050310094 12 20
1.108766 -0.17373109 -0.075275436 55 19
1.0330802 -0.30526486 0.16303752 83 28
1.0809084 -0.17214078 0.12935579 53 27
1.0502316 -0.31018469 0.10133561 13 26
1.1008594 -0.17565985 0.075134434 54 25
1.0560926 -0.31213549 0.049727805 84 24
1.10309 -0.17639938 0.025125684 9 23
1.0595447 -0.31336442 0 11 22
1.1154032 -0.17854032 -0.025415819 11 21
1.0727359 -0.31749818 -0.050543014 60 20
1.1106162 -0.17798963 -0.075448081 54 19
1.0320622 -0.30868897 0.16303752 87 28
1.0852323 -0.17651008 0.12996167 51 27
1.0515254 -0.31456685 0.10157349 14 26
1.1027331 -0.17970523 0.07530795 53 25
1.0550518 -0.31563586 0.049727805 83 24
1.1000001 -0.17985091 0.025067655 9 23
1.0561062 -0.31615457 0 11 22
1.1123056 -0.18203442 -0.025357792 35 21
1.0644491 -0.31907547 -0.050193641 75 20
1.1075578 -0.18127413 -0.075275436 54 19
1.0380108 -0.31463358 0.16419657 87 28
1.0796803 -0.1796827 0.12935579 51 27
1.0384644 -0.31478485 0.1003841 18 26
1.0946845 -0.18253148 0.074787393 54 25
1.0538878 -0.31950074 0.049727805 84 24
1.0944335 -0.18287656 0.024951601 9 23
1.0573312 -0.32075378 0 11 22
1.1066992 -0.1852953 -0.025241738 53 21
1.065717 -0.32351923 -0.050310094 79 20
1.1044252 -0.18492584 -0.075102776 53 19
1.0298269 -0.31606627 0.16303752 84 28
1.0790466 -0.18345039 0.12935579 47 27
1.039737 -0.31914297 0.10062198 55 26
1.0989594 -0.18717821 0.075134434 53 25
1.0456085 -0.3209646 0.049378429 81 24
1.0888593 -0.18586557 0.024835547 9 23
1.0585934 -0.32518145 0 11 22
1.1060456 -0.18915726 -0.025241738 58 21
1.0645812 -0.32723731 -0.050310094 79 20
1.1062323 -0.18919496 -0.075275436 50 19
1.0263602 -0.31892136 0.1626512 87 28
1.0808455 -0.18763481 0.12965873 34 27
1.0386729 -0.32258907 0.10062198 88 26
1.0909253 -0.18974736 0.074613869 51 25
1.046865 -0.32535848 0.049494889 79 24
1.0931302 -0.19051264 0.024951601 9 23
1.057452 -0.32887465 0 12 22
1.1078755 -0.19324815 -0.025299765 59 21
1.0562835 -0.32871103 -0.049960721 80 20
1.1153963 -0.19474988 -0.07596603 29 19
1.0300064 -0.32381433 0.16342388 83 28
1.0777729 -0.19079092 0.12935579 37 27
1.0399131 -0.32696399 0.10085986 90 26
1.0927469 -0.19379406 0.074787393 51 25
1.0457804 -0.32882822 0.049494889 79 24
1.0924923 -0.19413656 0.024951601 11 23
1.0563555 -0.33237952 0 12 22
1.0998094 -0.19581604 -0.025125684 60 21
1.0551876 -0.332212 -0.049960721 79 20
1.1024624 -0.19628859 -0.075102776 11 19
1.0288699 -0.32740778 0.16342388 84 28
1.0844294 -0.19585872 0.13026461 43 27
1.0411353 -0.33135155 0.10109774 89 26
1.0871536 -0.19672999 0.074440353 46 25
1.0446262 -0.33247668 0.049494889 30 24
1.0991539 -0.19946206 0.025125684 11 23
1.0528082 -0.33530143 0 12 22
1.1089593 -0.2014191 -0.025357792 58 21
1.0539628 -0.33607721 -0.049960721 80 20
1.1066802 -0.20101644 -0.075448081 11 19
1.0300121 -0.33193898 0.16381021 81 28
1.0714972 -0.19760922 0.12874991 50 27
1.0375468 -0.33439702 0.10085986 89 26
1.0888786 -0.20116089 0.074613869 16 25
1.0481513 -0.33784494 0.049727805 12 24
1.0910752 -0.20194922 0.024951601 11 23
1.0515721 -0.33915791 0 12 22
1.1032966 -0.20458165 -0.025241738 58 21
1.0551584 -0.3405259 -0.050077178 79 20
1.1034828 -0.20462193 -0.075275436 9 19
1.0218073 -0.33322048 0.1626512 85 28
1.0732406 -0.20180131 0.12905285 53 27
1.0340677 -0.3370598 0.10062198 90 26
1.0881697 -0.20496057 0.074613869 11 25
1.0445929 -0.34072244 0.049611345 12 24
1.0903636 -0.20575655 0.024951601 11 23
1.0480069 -0.34204608 0 12 22
1.0976985 -0.20732227 -0.025125684 56 21
1.0515909 -0.34342703 -0.049960721 79 20
1.1076651 -0.20938841 -0.075620733 9 19
1.0253849 -0.33816394 0.16342388 84 28
1.0725656 -0.20535921 0.12905285 56 27
1.0328848 -0.34066731 0.10062198 88 26
1.0972856 -0.21042527 0.07530795 11 25
1.0434573 -0.34418458 0.049611345 12 24
1.0945863 -0.21030354 0.025067655 28 23
1.0468669 -0.34551954 0 75 22
1.0994234 -0.2116197 -0.025183709 59 21
1.0504464 -0.34691232 -0.049960721 79 20
1.1045145 -0.21259435 -0.075448081 9 19
1.0218568 -0.34095451 0.16303752 80 28
1.0694054 -0.20863225 0.12874991 58 27
1.0316894 -0.34427068 0.10062198 88 26
1.0940956 -0.21378134 0.075134434 11 25
1.0375149 -0.34623423 0.049378429 12 24
1.0839932 -0.21241328 0.024835547 49 23
1.040915 -0.34757853 0 84 22
1.0937705 -0.2145049 -0.025067655 58 21
1.0491678 -0.35076007 -0.049960721 77 20
1.0964202 -0.21502471 -0.074930124 9 19
1.0206003 -0.34469751 0.16303752 45 28
1.0686337 -0.2125504 0.12874991 59 27
1.0304207 -0.3480497 0.10062198 84 26
1.0908577 -0.21730812 0.07496091 11 25
1.0409676 -0.35164252 0.049611345 12 24
1.0783409 -0.21522833 0.024719493 58 23
1.0420008 -0.35219657 0 87 22
1.0954292 -0.21899696 -0.025125684 55 21
1.0526652 -0.35602981 -0.050193641 51 20
1.1005183 -0.22000901 -0.075275436 11 19
1.0193908 -0.34825796 0.16303752 45 28
1.065452 -0.21579222 0.12844697 60 27
1.0315527 -0.35245374 0.10085986 87 26
1.0925378 -0.22160499 0.075134434 11 25
1.0420954 -0.35608625 0.049727805 12 24
1.0800334 -0.21948344 0.024777522 60 23
1.043129 -0.3566452 0 83 22
1.097108 -0.22331251 -0.025183709 39 21
1.0466933 -0.35807607 -0.049960721 12 20
1.0997436 -0.22384921 -0.075275436 11 19
1.0158362 -0.35100275 0.1626512 50 28
1.0695553 -0.2205012 0.12905285 56 27
1.0327289 -0.35668981 0.10109774 80 26
1.0868706 -0.22441949 0.074787393 11 25
1.0432045 -0.36054209 0.049844261 13 24
1.0792607 -0.22325213 0.024777522 58 23
1.0395167 -0.3594625 0 83 22
1.0865674 -0.22494432 -0.024951601 12 21
1.0548706 -0.36501262 -0.050426558 13 20
1.1062853 -0.22918858 -0.075793378 11 19
1.0146667 -0.35436946 0.1626512 66 28
1.0663884 -0.22354312 0.12874991 55 27
1.0291297 -0.35946712 0.10085986 79 26
1.076353 -0.22599433 0.074093312 12 25
1.0490712 -0.36648434 0.050193641 12 24
1.0760674 -0.22632089 0.024719493 59 23
1.0383189 -0.36290765 0 85 22
1.0980095 -0.23128489 -0.025241738 11 21
1.05601 -0.36933771 -0.050543014 24 20
1.0981945 -0.23132966 -0.075275436 11 19
1.0204053 -0.36039108 0.16381021 79 28
1.072886 -0.22880054 0.12965873 33 27
1.0372484 -0.36639163 0.10181136 13 26
1.0877579 -0.23232783 0.07496091 12 25
1.0430795 -0.36847103 0.049960721 13 24
1.0727859 -0.22974543 0.024661468 59 23
1.0370458 -0.36652985 0 89 22
1.0874156 -0.23304281 -0.02500963 11 21
1.0475917 -0.37069261 -0.050193641 38 20
1.0900607 -0.23360987 -0.074757479 39 19
1.0190775 -0.36412868 0.16381021 81 28
1.0696141 -0.23221032 0.12935579 13 27
1.0358984 -0.37019089 0.10181136 12 26
1.0820225 -0.23526414 0.074613869 12 25
1.0417219 -0.37229165 0.049960721 13 24
1.0744205 -0.2340152 0.024719493 58 23
1.0356954 -0.37032834 0 84 22
1.0938833 -0.23860876 -0.025183709 11 21
1.0509906 -0.376039 -0.050426558 47 20
1.0867592 -0.23707737 -0.074584827 51 19
1.0178002 -0.36768368 0.16381021 83 28
1.0615236 -0.23435405 0.12844697 12 27
1.0275834 -0.37125358 0.10109774 12 26
1.0811949 -0.23903966 0.074613869 12 25
1.0333751 -0.37336579 0.049611345 16 24
1.0760384 -0.23829918 0.024777522 58 23
1.0367458 -0.374796 0 84 22
1.0881611 -0.24135399 -0.025067655 11 21
1.0426314 -0.37714297 -0.050077178 62 20
1.0907972 -0.24193883 -0.074930124 56 19
1.014257 -0.37020519 0.16342388 83 28
1.0680087 -0.2394855 0.12935579 12 27
1.0310187 -0.37637529 0.10157349 12 26
1.0779617 -0.24208269 0.074440353 42 25
1.0344754 -0.37765163 0.049727805 80 24
1.0679233 -0.24023689 0.024603439 59 23
1.0331507 -0.37736946 0 81 22
1.0873548 -0.24496113 -0.025067655 11 21
1.041375 -0.38059837 -0.050077178 75 20
1.0851204 -0.24446915 -0.074584827 60 19
1.0129585 -0.37374333 0.16342388 81 28
1.0720077 -0.24430408 0.12996167 12 27
1.0273654 -0.37910566 0.10133561 12 26
1.0771102 -0.24584398 0.074440353 56 25
1.0331509 -0.38126031 0.049727805 85 24
1.071911 -0.24525347 0.024719493 54 23
1.0294837 -0.38010293 0 89 22
1.0889307 -0.24930769 -0.025125684 11 21
1.0423137 -0.38528314 -0.050193641 84 20
1.0866928 -0.24880673 -0.074757479 58 19
1.0138942 -0.37832171 0.16381021 77 28
1.0686862 -0.24767666 0.12965873 12 27
1.0259691 -0.38286859 0.10133561 12 26
1.0786324 -0.2503486 0.074613869 63 25
1.0317466 -0.38504443 0.049727805 87 24
1.0710484 -0.24899365 0.024719493 49 23
1.039785 -0.38826963 0 33 22
1.090445 -0.25385851 -0.025183709 11 21
1.0409626 -0.38891917 -0.050193641 84 20
1.0882039 -0.25334817 -0.074930124 58 19
1.0125674 -0.38185853 0.16381021 74 28
1.0653985 -0.25084227 0.12935579 12 27
1.0269532 -0.38733053 0.10157349 12 26
1.0777519 -0.25411221 0.074613869 66 25
1.0303963 -0.38864353 0.049727805 88 24
1.0653052 -0.25159273 0.024603439 25 23
1.0360862 -0.39100942 0 12 22
1.0822519 -0.2559537 -0.02500963 11 21
1.0372641 -0.39166358 -0.050077178 81 20
1.0873129 -0.25714517 -0.074930124 58 19
1.0135345 -0.38627514 0.16419657 71 28
1.0645164 -0.2545597 0.12935579 12 27
1.0256631 -0.3907339 0.10157349 13 26
1.0744318 -0.25729731 0.074440353 66 25
1.0290334 -0.39223796 0.049727805 88 24
1.0644205 -0.25530979 0.024603439 12 23
1.0370492 -0.39551914 0 13 22
1.0886919 -0.26127496 -0.025183709 11 21
1.038222 -0.3961769 -0.050193641 84 20
1.0791297 -0.25920761 -0.074412182 60 19
1.0053382 -0.386958 0.16303752 21 28
1.0588405 -0.25692889 0.12874991 12 27
1.0242929 -0.39431173 0.10157349 13 26
1.0735725 -0.26085883 0.074440353 67 25
1.027727 -0.39564818 0.049727805 85 24
1.0708574 -0.2605949 0.024777522 12 23
1.0334008 -0.39805272 0 25 22
1.078055 -0.26272795 -0.024951601 22 21
1.0369025 -0.39961758 -0.050193641 83 20
1.0831131 -0.26395509 -0.074757479 58 19
1.0085816 -0.39226499 0.16381021 12 28
1.0507046 -0.25885892 0.12784109 12 27
1.0182753 -0.39607111 0.10109774 13 26
1.0702327 -0.26401275 0.074266829 66 25
1.0263397 -0.39923322 0.049727805 84 24
1.0601847 -0.26214013 0.024545414 11 23
1.0343329 -0.40256891 0 39 22
1.0819863 -0.26767924 -0.025067655 49 21
1.0354309 -0.40341535 -0.050193641 85 20
1.082185 -0.26773423 -0.074757479 56 19
1.0545661 -0.26390213 0.12844697 12 27
1.0214452 -0.40163127 0.10157349 13 26
1.0644169 -0.26673198 0.073919788 66 25
1.0225472 -0.40207371 0.049611345 85 24
1.0616887 -0.26644218 0.024603439 11 23
1.0235521 -0.4026776 0 51 22
1.0809979 -0.27164313 -0.025067655 55 21
1.0340165 -0.40702721 -0.050193641 85 20
1.0811965 -0.27169886 -0.074757479 56 19
1.0690148 -0.27048248 0.20601404 64 29
1.0011615 -0.39763921 0.16303752 11 28
1.0584517 -0.26879242 0.12905285 26 27
1.0223479 -0.40611774 0.10181136 60 26
1.0707346 -0.27227366 0.074440353 62 25
1.0234566 -0.40656725 0.049727805 84 24
1.0631757 -0.27075797 0.024661468 11 23
1.0221401 -0.406248 0 67 22
1.0776201 -0.27480263 -0.02500963 59 21
1.0325893 -0.41063416 -0.050193641 85 20
1.0802416 -0.27547127 -0.074757479 56 19
1.0561692 -0.27118704 0.20364605 63 29
1.0020579 -0.40205601 0.16342388 11 28
1.0551026 -0.27187172 0.12874991 53 27
1.0163797 -0.40764359 0.10133561 87 26
1.0697777 -0.27600953 0.074440353 59 25
1.0220312 -0.41013733 0.049727805 85 24
1.0622239 -0.27446753 0.024661468 11 23
1.023034 -0.41074958 0 81 22
1.0767028 -0.27837461 -0.02500963 55 21
1.0357805 -0.416107 -0.050426558 81 20
1.0816891 -0.27985972 -0.074930124 55 19
1.0576411 -0.27530092 0.20411965 62 29
1.0052938 -0.40724084 0.16419657 13 28
1.0517929 -0.27474731 0.12844697 60 27
1.0149506 -0.41118893 0.10133561 87 26
1.0712706 -0.2801812 0.074613869 55 25
1.0206655 -0.41352424 0.049727805 85 24
1.0564213 -0.27691707 0.024545414 12 23
1.0216664 -0.41413987 0 85 22
1.0757246 -0.28213131 -0.02500963 49 21
1.0273852 -0.41688931 -0.050077178 85 20
1.0783414 -0.28281778 -0.074757479 58 19
1.0566249 -0.27917552 0.20411965 63 29
1.0483786 -0.27796993 0.12814403 64 27
1.0111355 -0.41395858 0.10109774 90 26
1.0630009 -0.28220209 0.074093312 43 25
1.0122154 -0.41440982 0.049378429 26 24
1.0675325 -0.28378671 0.024835547 12 23
1.0247647 -0.41978619 0 84 22
1.0770998 -0.28670976 -0.025067655 42 21
1.0282327 -0.42142466 -0.050193641 83 20
1.0797092 -0.28740445 -0.074930124 56 19
1.0532714 -0.28223211 0.20364605 63 29
1.0474019 -0.28162774 0.12814403 63 27
1.0119822 -0.41844118 0.10133561 89 26
1.0644189 -0.28655389 0.074266829 14 25
1.019986 -0.42177615 0.049844261 20 24
1.0617062 -0.286221 0.024719493 12 23
1.0186766 -0.42144006 0 80 22
1.0785069 -0.29111385 -0.025125684 33 21
1.0336719 -0.42789033 -0.050543014 81 20
1.0714715 -0.28923762 -0.074412182 58 19
1.0499096 -0.28526881 0.20317246 66 29
1.0464125 -0.28528219 0.12814403 63 27
1.0082943 -0.42083156 0.10109774 87 26
1.0682271 -0.2915704 0.074613869 12 25
1.0162052 -0.42436713 0.049727805 33 24
1.0631129 -0.29057893 0.024777522 12 23
1.0195042 -0.4259617 0 74 22
1.0751233 -0.2940346 -0.025067655 18 21
1.0275676 -0.42956042 -0.050310094 84 20
1.0752695 -0.29428211 -0.074757479 56 19
1.0513259 -0.28939492 0.20364605 64 29
1.0478542 -0.28940585 0.12844697 60 27
1.0068192 -0.42434862 0.10109774 87 26
1.0720648 -0.29642987 0.07496091 11 25
1.0216901 -0.43065831 0.050077178 45 24
1.0573232 -0.29277956 0.024661468 39 23
1.0111812 -0.42641214 0 12 22
1.0740904 -0.2977857 -0.025067655 12 21
1.0261375 -0.43296564 -0.050310094 81 20
1.0742875 -0.29784623 -0.074757479 58 19
1.0479435 -0.29240865 0.20317246 67 29
1.0444463 -0.29239818 0.12814403 60 27
1.0099077 -0.42981887 0.10157349 87 26
1.0614117 -0.2974993 0.074266829 11 25
1.0155888 -0.43225688 0.049844261 56 24
1.0562431 -0.29665285 0.024661468 55 23
1.0234758 -0.43584353 0 11 22
1.0682293 -0.30019149 -0.024951601 11 21
1.0222484 -0.43573996 -0.050193641 84 20
1.0684363 -0.30025551 -0.074412182 58 19
1.0492282 -0.29691058 0.20364605 64 29
1.0433677 -0.2962243 0.12814403 62 27
1.0083256 -0.43351746 0.10157349 87 26
1.0603142 -0.30138758 0.074266829 11 25
1.0162898 -0.43696728 0.049960721 72 24
1.0527955 -0.29965913 0.024603439 59 23
1.0172822 -0.43760687 0 11 22
1.071932 -0.30546403 -0.025067655 11 21
1.0253049 -0.44128916 -0.050426558 81 20
1.0697286 -0.30484772 -0.074584827 58 19
1.043463 -0.29922876 0.20269886 68 29
1.0423273 -0.29986453 0.12814403 59 27
1.0046014 -0.43586364 0.10133561 87 26
1.0616539 -0.30577189 0.074440353 11 25
1.0124696 -0.43951312 0.049844261 84 24
1.0541463 -0.30401954 0.024661468 55 23
1.0272039 -0.44615754 0 11 22
1.0685103 -0.3083294 -0.02500963 43 21
1.0237583 -0.44486547 -0.050426558 83 20
1.0710557 -0.30926654 -0.074757479 55 19
1.044824 -0.30336645 0.20317246 66 29
1.0341748 -0.30125362 0.1272352 58 27
1.0053514 -0.44037083 0.10157349 84 26
1.0582383 -0.30859786 0.074266829 11 25
1.0132921 -0.44387475 0.049960721 87 24
1.0531323 -0.30751354 0.024661468 50 23
1.0165677 -0.44552913 0 11 22
1.0722286 -0.31344941 -0.025125684 54 21
1.0199924 -0.44725057 -0.050310094 81 20
1.0676289 -0.31212202 -0.074584827 58 19
1.0437587 -0.30701172 0.20317246 67 29
1.0402621 -0.30695245 0.12814403 55 27
1.001534 -0.44286641 0.10133561 84 26
1.0571545 -0.31228995 0.074266829 11 25
1.0094545 -0.44639456 0.049844261 84 24
1.0495999 -0.3106674 0.024603439 45 23
1.0150064 -0.44907492 0 11 22
1.0639338 -0.31507704 -0.024951601 62 21
1.0229089 -0.45301744 -0.050543014 83 20
1.0689259 -0.31654978 -0.074757479 59 19
1.0379184 -0.30944338 0.20222527 68 29
1.0415092 -0.31146878 0.12844697 33 27
1.0488306 -0.31403252 0.073746271 12 25
1.0100899 -0.4511143 0.049960721 83 24
1.0580918 -0.3171787 0.024835547 34 23
1.0201951 -0.45586535 0 11 22
1.0675626 -0.3204008 -0.025067655 62 21
1.0213214 -0.45658535 -0.050543014 77 20
1.0677584 -0.32046548 -0.074757479 58 19
1.0344802 -0.31236029 0.20175166 68 29
1.0356623 -0.31367451 0.12784109 12 27
1.0572813 -0.32056507 0.074440353 12 25
1.008509 -0.45463744 0.049960721 81 24
1.0521919 -0.3194288 0.024719493 22 23
1.0185976 -0.45942369 0 11 22
1.0640448 -0.32340381 -0.02500963 62 21
1.0242699 -0.46221095 -0.050775934 79 20
1.0642453 -0.32347062 -0.074584827 59 19
1.040431 -0.3181065 0.20317246 64 29
1.0369352 -0.31800997 0.12814403 12 27
1.0036315 -0.45643437 0.10204925 80 26
1.0585414 -0.32498035 0.074613869 12 25
1.0069159 -0.45815504 0.049960721 81 24
1.0558517 -0.32455778 0.024835547 13 23
1.0147144 -0.46193615 0 11 22
1.065357 -0.32765999 -0.025067655 63 21
1.0135678 -0.46162519 -0.050310094 77 20
1.0654951 -0.32791194 -0.074757479 59 19
1.0370237 -0.32083482 0.20269886 66 29
1.0429901 -0.3236371 0.12905285 12 27
1.0526913 -0.32701966 0.074266829 39 25
1.005391 -0.46149155 0.049960721 77 24
1.047605 -0.3258464 0.024661468 12 23
1.0109072 -0.46425071 0 11 22
1.059431 -0.32990116 -0.024951601 60 21
1.0279016 -0.47231346 -0.051125307 80 20
1.064402 -0.33144346 -0.074757479 60 19
1.0358975 -0.32445273 0.20269886 66 29
1.0347465 -0.32506076 0.12814403 12 27
1.0094447 -0.46763214 0.10300075 76 26
1.0491626 -0.32994938 0.074093312 46 25
1.006038 -0.46605244 0.050077178 80 24
1.0511746 -0.33117533 0.024777522 12 23
1.0160789 -0.47094384 0 11 22
1.0582728 -0.33359724 -0.024951601 60 21
1.0608581 -0.33441231 -0.074584827 58 19
1.0300183 -0.32677343 0.20175166 56 29
1.0382812 -0.33034521 0.12874991 12 27
1.0550803 -0.33604735 0.074613869 43 25
1.0020629 -0.46867409 0.049960721 80 24
1.0547779 -0.33635074 0.024893576 21 23
1.0075592 -0.47147265 0 72 22
1.0618082 -0.33898354 -0.025067655 58 21
1.0596254 -0.33829829 -0.074584827 58 19
1.0288713 -0.33036688 0.20175166 55 29
1.0394855 -0.33472276 0.12905285 12 27
1.0539008 -0.33972824 0.074613869 35 25
1.0004208 -0.47216907 0.049960721 83 24
1.0393162 -0.33545631 0.024545414 49 23
1.0081658 -0.47605875 0 77 22
1.0582386 -0.3419247 -0.02500963 59 21
1.0584379 -0.34199503 -0.074584827 58 19
1.0277119 -0.3339563 0.20175166 47 29
1.0359497 -0.33758569 0.12874991 12 27
1.0503359 -0.34263682 0.074440353 25 25
1.0405163 -0.33985281 0.024603439 60 23
1.0042433 -0.47849521 0 80 22
1.0523441 -0.34388986 -0.024893576 55 21
1.05961 -0.34645745 -0.074757479 56 19
1.0289327 -0.33812353 0.20222527 21 29
1.0348244 -0.34101915 0.12874991 12 27
1.0444535 -0.34456581 0.074093312 13 25
1.0440733 -0.34504077 0.024719493 64 23
1.002651 -0.48182276 0 81 22
1.0558867 -0.3491199 -0.02500963 38 21
1.0655644 -0.35230255 -0.075275436 54 19
1.0323484 -0.34343156 0.20317246 12 29
1.0312117 -0.34402966 0.12844697 12 27
1.0455509 -0.34917635 0.074266829 12 25
1.0428625 -0.34868315 0.024719493 66 23
1.0031253 -0.48658991 0 72 22
1.0546 -0.35298762 -0.02500963 12 21
1.0666327 -0.3569921 -0.075448081 60 19
1.0264868 -0.34547767 0.20222527 11 29
1.0300046 -0.34762716 0.12844697 12 27
1.0466902 -0.35361689 0.074440353 12 25
1.0345311 -0.34993473 0.024545414 66 23
1.0486232 -0.35507396 -0.024893576 11 21
1.0276 -0.34984446 0.20269886 9 29
1.021734 -0.34883112 0.12753814 22 27
1.0478113 -0.3580696 0.074613869 11 25
1.0380365 -0.35515139 0.024661468 64 23
1.0545392 -0.36096197 -0.025067655 9 21
1.0334033 -0.35563073 0.20411965 9 29
1.0299622 -0.35543433 0.12874991 49 27
1.0489773 -0.36235139 0.074787393 12 25
1.0368531 -0.35859168 0.024661468 63 23
1.0485457 -0.36301589 -0.024951601 9 21
1.0298352 -0.35843417 0.20364605 8 29
1.0240257 -0.35740256 0.12814403 55 27
1.0429935 -0.36437619 0.074440353 12 25
1.0378926 -0.36320978 0.024719493 62 23
1.0543543 -0.36913592 -0.025125684 9 21
1.0285146 -0.36220631 0.20364605 9 29
1.0227088 -0.36115339 0.12814403 56 27
1.0440041 -0.3690224 0.074613869 32 25
1.0342605 -0.36600199 0.024661468 59 23
1.0459212 -0.37050977 -0.024951601 9 21
1.0318727 -0.36743069 0.20459324 9 29
1.0237808 -0.36555028 0.12844697 55 27
1.0356586 -0.37016201 0.074093312 50 25
1.0329766 -0.36961001 0.024661468 56 23
1.0422667 -0.37332088 -0.024893576 9 21
1.0190265 -0.36689904 0.20222527 11 29
1.0224986 -0.3691217 0.12844697 51 27
1.0343603 -0.37377489 0.074093312 53 25
1.0269759 -0.37152356 0.024545414 53 23
1.045661 -0.3786484 -0.02500963 11 21
1.0223567 -0.37212253 0.20317246 11 29
1.0188707 -0.37184316 0.12814403 49 27
1.0353936 -0.37823367 0.074266829 56 25
1.0374186 -0.379372 0.024835547 30 23
1.0396351 -0.38058811 -0.024893576 11 21
1.0233572 -0.37653127 0.20364605 11 29
1.0198967 -0.37625104 0.12844697 47 27
1.0364087 -0.38270435 0.074440353 55 25
1.0290495 -0.38040689 0.024661468 12 23
1.0477515 -0.38748074 -0.025125684 11 21
1.0174973 -0.37822273 0.20269886 37 29
1.0256252 -0.38221514 0.12935579 41 27
1.0351338 -0.38613909 0.074440353 55 25
1.0371557 -0.38729379 0.024893576 11 23
1.0487354 -0.39200565 -0.025183709 24 21
1.0230705 -0.3843464 0.20411965 47 29
1.0126635 -0.38144556 0.12784109 34 27
1.0337797 -0.38975003 0.074440353 54 25
1.0380692 -0.39197031 0.024951601 11 23
1.0403409 -0.3930296 -0.02500963 49 21
1.0193582 -0.387227 0.20364605 51 29
1.0159009 -0.38691056 0.12844697 28 27
1.0323442 -0.39353639 0.074440353 54 25
1.0437061 -0.39824915 0.025125684 11 23
1.0365566 -0.3959533 -0.024951601 55 21
1.0180001 -0.39078286 0.20364605 51 29
1.009908 -0.38868219 0.12784109 18 27
1.0263057 -0.39535493 0.074093312 53 25
1.0423095 -0.40188995 0.025125684 11 23
1.0399053 -0.40117735 -0.025067655 56 21
1.0189896 -0.39503869 0.20411965 51 29
1.0155587 -0.39471033 0.12874991 42 27
1.024989 -0.39875612 0.074093312 51 25
1.0316471 -0.401737 0.024893576 11 23
1.0384986 -0.40480486 -0.025067655 56 21
1.013029 -0.39681301 0.20317246 53 29
1.0141747 -0.39825287 0.12874991 50 27
1.0328835 -0.40596017 0.074787393 51 25
1.0348231 -0.40733615 0.02500963 11 23
1.034752 -0.40751675 -0.02500963 56 21
1.0138521 -0.40142173 0.20364605 51 29
1.0057824 -0.39923641 0.12784109 55 27
1.0197896 -0.40516484 0.073919788 45 25
1.0333948 -0.41094586 0.02500963 11 23
1.0332514 -0.41130656 -0.02500963 58 21
1.0101637 -0.4040519 0.20317246 53 29
1.0066881 -0.40366319 0.12814403 54 27
1.0276353 -0.41241708 0.074613869 20 25
1.0296329 -0.41362402 0.024951601 11 23
1.0364512 -0.41676551 -0.025125684 55 21
1.0110251 -0.40848988 0.20364605 51 29
1.0075752 -0.40810111 0.12844697 53 27
1.0215628 -0.41413802 0.074266829 12 25
1.0305008 -0.41815028 0.02500963 11 23
1.0349902 -0.42038086 -0.025125684 54 21
1.014215 -0.41368422 0.20459324 50 29
1.0085154 -0.41237414 0.12874991 51 27
1.0224942 -0.41846287 0.074440353 11 25
1.0244055 -0.41985935 0.024893576 33 23
1.0312757 -0.42286754 -0.025067655 54 21
1.0149636 -0.41832903 0.20506684 50 29
1.0069971 -0.41606778 0.12874991 51 27
1.0163399 -0.42031175 0.074093312 11 25
1.0183108 -0.42153099 0.024777522 49 23
1.0297189 -0.42664447 -0.025067655 51 21
1.0066919 -0.41905478 0.20364605 51 29
1.0101234 -0.42148125 0.12935579 51 27
1.0194736 -0.42576891 0.074440353 9 25
1.0168332 -0.42508301 0.024777522 54 23
1.0259157 -0.42927665 -0.02500963 49 21
1.0074883 -0.42351237 0.20411965 51 29
1.0063568 -0.42404619 0.12905285 51 27
1.0225813 -0.43125308 0.074787393 9 25
1.0176479 -0.42959675 0.024835547 54 23
1.026791 -0.43364361 -0.025067655 21 21
1.0060782 -0.426851 0.20411965 50 29
1.0026594 -0.42641506 0.12874991 53 27
1.0188487 -0.43366998 0.074613869 9 25
1.0139163 -0.43199447 0.024777522 54 23
1.0321746 -0.44015124 -0.025241738 11 21
1.0045823 -0.43036029 0.20411965 49 29
1.0011648 -0.42991239 0.12874991 53 27
1.0104482 -0.43428478 0.074093312 9 25
1.010028 -0.43472478 0.024719493 53 23
1.0260365 -0.4417848 -0.025125684 9 21
1.0097631 -0.43694863 0.20554042 49 29
1.0064189 -0.436526 0.12965873 51 27
1.0134295 -0.43996149 0.074440353 9 25
1.0176823 -0.44221178 0.024951601 51 23
1.0289984 -0.44752601 -0.025241738 9 21
1.0082318 -0.4404707 0.20554042 46 29
1.0073148 -0.44150421 0.074093312 11 25
1.0115505 -0.44376346 0.024835547 51 23
1.0320904 -0.45293462 -0.025357792 9 21
1.0126944 -0.44785306 0.074613869 11 25
1.0100734 -0.44711542 0.024835547 51 23
1.0236411 -0.45351231 -0.025183709 9 21
1.0225229 -0.45644334 0.075481474 37 25
1.0107119 -0.45182952 0.024893576 53 23
1.0220518 -0.45708275 -0.025183709 9 21
1.0024909 -0.45154941 0.12996167 50 27
1.0140154 -0.45712814 0.07496091 47 25
1.0068481 -0.45433185 0.024835547 51 23
1.0226498 -0.46184942 -0.025241738 9 21
1.0124136 -0.4606649 0.07496091 50 25
1.0029792 -0.45681277 0.024777522 53 23
1.0233079 -0.46644807 -0.025299765 9 21
1.0086117 -0.46298426 0.074787393 50 25
1.0060056 -0.4622131 0.024893576 51 23
1.0172093 -0.46776038 -0.025183709 9 21
1.0115197 -0.4685888 0.075134434 50 25
1.0088439 -0.46799076 0.02500963 50 23
1.0155703 -0.47130829 -0.025183709 11 21
1.0026724 -0.46940008 0.024893576 53 23
1.0206327 -0.47819379 -0.025357792 37 21
1.0032899 -0.47395977 0.024951601 51 23
1.00991 -0.47750008 -0.025125684 50 21
1.0016295 -0.47745901 0.024951601 49 23
1.0128375 -0.48298812 -0.025241738 53 21
1.0111455 -0.48652068 -0.025241738 56 21
1.009441 -0.49004728 -0.025241738 55 21
1.1262201 -0.052279089 0.10442802 8 26
1.1235356 -0.05627716 0.10419014 30 26
1.1208475 -0.060060635 0.10395226 84 26
1.118158 -0.063630886 0.10371439 80 26
1.1243954 -0.064201176 0.05089239 8 24
1.1204126 -0.067688547 0.10395226 74 26
1.1341459 -0.068551458 0.051358223 12 24
