# .PCD v0.7 - Point Cloud Data file format
VERSION 0.7
FIELDS x y z intensity ring
SIZE 4 4 4 4 2
TYPE F F F F U
COUNT 1 1 1 1 1
WIDTH 1198
HEIGHT 1
VIEWPOINT 0 0 0 1 0 0 0
POINTS 1198
DATA ascii
0.868182 -0.085819833 0 8 22
0.86974698 -0.086131841 -0.039130077 80 20
0.86975402 -0.086433098 -0.07533282 47 18
0.84807616 -0.08645457 0.12788014 71 28
0.85917884 -0.087627888 0.079213053 21 26
0.86203641 -0.087932847 0.0387807 84 24
0.86540627 -0.088437892 0 8 22
0.86945659 -0.089015551 -0.039130077 80 20
0.87192327 -0.089729719 -0.07555636 46 18
0.8526805 -0.089945316 0.12865284 64 28
0.85639346 -0.090358958 0.078975171 28 26
0.86420697 -0.091209777 0.03889716 80 24
0.86757779 -0.091727324 0 8 22
0.86912441 -0.092201672 -0.039130077 80 20
0.87903076 -0.093582094 -0.076226972 41 18
0.8425265 -0.091972075 0.12710746 43 28
0.85605651 -0.093497194 0.078975171 32 26
0.86138511 -0.094099134 0.0387807 80 24
0.86226678 -0.094350062 0 8 22
0.87624246 -0.096070029 -0.039479453 81 20
0.88363051 -0.097360976 -0.076674052 16 18
0.84465402 -0.095195517 0.1274938 24 28
0.86315876 -0.097189702 0.079688802 34 26
0.86353225 -0.097391523 0.03889716 74 24
0.86441565 -0.097646266 0 9 22
0.8659789 -0.097979985 -0.039013617 81 20
0.88330275 -0.10029067 -0.076674052 8 18
0.83452272 -0.096831284 0.12594843 17 28
0.852929 -0.099028617 0.078737296 35 26
0.85576493 -0.099371403 0.038547784 68 24
0.86905211 -0.10110252 0 11 22
0.86812896 -0.10114639 -0.039130077 81 20
0.88789201 -0.10396473 -0.077121131 7 18
0.83908296 -0.10034318 0.12672111 13 28
0.86492938 -0.10351527 0.079926684 43 26
0.86037046 -0.10296406 0.0387807 62 24
0.86373097 -0.10352785 0 12 22
0.87270975 -0.10493624 -0.039362993 76 20
0.88258106 -0.10645479 -0.076674052 7 18
0.83870959 -0.1034179 0.12672111 13 28
0.86207509 -0.10637365 0.079688802 64 26
0.85503191 -0.10549252 0.038547784 64 24
0.86086541 -0.10637998 0 17 22
0.86986059 -0.10766894 -0.039246533 75 20
0.87724459 -0.10906215 -0.076226972 7 18
0.84324253 -0.10697944 0.1274938 12 28
0.85923052 -0.10906253 0.079450928 74 26
0.85218185 -0.10815572 0.038431324 58 24
0.86048877 -0.10938431 0 24 22
0.86947948 -0.11070466 -0.039246533 74 20
0.8867349 -0.11341161 -0.077121131 8 18
0.8404156 -0.10959645 0.12710746 14 28
0.866265 -0.11289479 0.080164559 75 26
0.86170101 -0.1124474 0.03889716 41 24
0.86505795 -0.11304773 0 26 22
0.86908776 -0.11373904 -0.039246533 67 20
0.87894994 -0.11536097 -0.076450512 9 18
0.84249479 -0.1127167 0.1274938 16 28
0.8633998 -0.11558148 0.079926684 76 26
0.86379772 -0.11564193 0.039013617 25 24
0.85724729 -0.11490048 0 30 22
0.86870581 -0.11662041 -0.039246533 64 20
0.87607509 -0.11808959 -0.076226972 11 18
0.85188061 -0.11702675 0.12903918 21 28
0.85559726 -0.11755941 0.079213053 81 26
0.85844254 -0.11796391 0.0387807 21 24
0.85931683 -0.1182392 0 30 22
0.86582035 -0.11930493 -0.039130077 60 20
0.88798571 -0.12288395 -0.077344678 13 18
0.84655637 -0.11944539 0.1282665 32 28
0.86255062 -0.12175682 0.079926684 76 26
0.85800433 -0.12110946 0.0387807 14 24
0.86135221 -0.1217441 0 53 22
0.86537731 -0.12247752 -0.039130077 53 20
0.88260061 -0.12542488 -0.076897591 12 18
0.85102141 -0.12311963 0.12903918 37 28
0.85721785 -0.12389196 0.079450928 76 26
0.86745882 -0.12555951 0.039246533 12 24
0.86092198 -0.12475004 0 70 22
0.87482643 -0.12695673 -0.039595909 51 20
0.87971669 -0.12798639 -0.076674052 18 18
0.83839655 -0.12410071 0.12710746 41 28
0.85678017 -0.12688345 0.079450928 74 26
0.85716009 -0.12694687 0.0387807 16 24
0.8629756 -0.12797724 0 79 22
0.86946207 -0.12911107 -0.039362993 41 20
0.87187904 -0.12993678 -0.07600344 25 18
0.84772253 -0.12853287 0.12865284 43 28
0.85633206 -0.12987341 0.079450928 75 26
0.85917985 -0.13031889 0.03889716 17 24
0.86746502 -0.13175201 0 76 22
0.86651516 -0.1319149 -0.039246533 21 20
0.87880176 -0.1341248 -0.076674052 26 18
0.83992672 -0.13048247 0.1274938 43 28
0.85585034 -0.13301115 0.079450928 72 26
0.85622978 -0.13307728 0.0387807 17 24
0.85956842 -0.13375859 0 83 22
0.86604941 -0.13493878 -0.039246533 11 20
0.87338603 -0.13656326 -0.076226972 32 18
0.84190446 -0.1338076 0.12788014 50 28
0.86031824 -0.13664171 0.079926684 70 26
0.86069065 -0.13686207 0.039013617 18 24
0.86156416 -0.1371575 0 76 22
0.87050337 -0.13875958 -0.039479453 11 20
0.87047052 -0.1390598 -0.07600344 53 18
0.83170807 -0.13499019 0.12633477 84 28
0.8549251 -0.1388336 0.079450928 72 26
0.86269599 -0.14012206 0.039130077 22 24
0.86357123 -0.14042124 0 77 22
0.86018318 -0.14001575 -0.039013617 9 20
0.87980551 -0.1437276 -0.076897591 64 18
0.82879621 -0.13748193 0.12594843 90 28
0.85443527 -0.141817 0.079450928 76 26
0.87205172 -0.14479329 0.039595909 20 24
0.86800605 -0.14426693 0 71 22
0.87197578 -0.14524987 -0.039595909 11 20
0.87684345 -0.14638172 -0.076674052 71 18
0.83072072 -0.14093825 0.12633477 90 28
0.85065889 -0.033949621 0.099667571 12 27
0.85390973 -0.14494772 0.079450928 72 26
0.86413217 -0.14671595 0.039246533 22 24
0.86008072 -0.14617208 0 74 22
0.86900258 -0.14786769 -0.039479453 11 20
0.87139416 -0.14874431 -0.076226972 76 18
0.82779115 -0.1434091 0.12594843 90 28
0.85549426 -0.037119675 0.10027345 24 27
0.85094756 -0.14749624 0.079213053 49 26
0.87099326 -0.15102981 0.039595909 18 24
0.86448938 -0.15004082 0 63 22
0.87831849 -0.15263478 -0.039945286 11 20
0.87577349 -0.15265249 -0.076674052 74 18
0.82728553 -0.14629775 0.12594843 90 28
0.85288024 -0.039996572 0.099970512 43 27
0.85535294 -0.15119611 0.079688802 46 26
0.86308688 -0.1527451 0.039246533 17 24
0.86149985 -0.15261525 0 63 22
0.87286472 -0.15481529 -0.039712369 12 20
0.86791104 -0.15423042 -0.07600344 77 18
0.82922548 -0.14948493 0.12633477 90 28
0.85522175 -0.042941935 0.10027345 49 27
0.84992391 -0.15328498 0.079213053 47 26
0.8767429 -0.044261288 0.058649972 12 25
0.8601191 -0.15515684 0.039130077 33 24
0.85607082 -0.15457037 0 63 22
0.86497754 -0.15635782 -0.039362993 16 20
0.87716311 -0.15906045 -0.076897591 68 18
0.82869864 -0.15237856 0.12633477 90 28
0.85258824 -0.045800973 0.099970512 51 27
0.84938365 -0.15625083 0.079213053 51 26
0.8765831 -0.047321424 0.058649972 29 25
0.85466242 -0.15724209 0.03889716 50 24
0.85798353 -0.1580167 0 58 22
0.86439872 -0.15952708 -0.039362993 22 20
0.86926049 -0.16074467 -0.076226972 63 18
0.83056092 -0.15587685 0.12672111 90 28
0.86480421 -0.049600884 0.10148522 51 27
0.84636056 -0.15889746 0.078975171 58 26
0.87889403 -0.050670549 0.058823492 47 25
0.84917396 -0.15943934 0.03866424 54 24
0.85739863 -0.16116031 0 56 22
0.86874264 -0.1634793 -0.039595909 22 20
0.87111115 -0.16439743 -0.076450512 59 18
0.8728447 -0.052356139 0.16196965 76 29
0.82758701 -0.15830465 0.12633477 90 28
0.85967094 -0.052331887 0.10087934 39 27
0.85560167 -0.16359754 0.079926684 68 26
0.88120151 -0.053883459 0.058997013 51 25
0.85841858 -0.16430514 0.039130077 54 24
0.88050622 -0.054145232 0.019671148 12 23
0.86419326 -0.16558199 0 38 22
0.87061805 -0.16698729 -0.039712369 24 20
0.87056118 -0.16728525 -0.076450512 54 18
0.86776572 -0.054954018 0.16102245 74 29
0.82463431 -0.16056967 0.12594843 90 28
0.85949272 -0.055182368 0.10087934 33 27
0.84770083 -0.16513683 0.079213053 77 26
0.8735503 -0.056344666 0.058476452 60 25
0.85296905 -0.16618329 0.03889716 50 24
0.87034374 -0.056445777 0.01943904 37 23
0.86118686 -0.16796212 0 30 22
0.86026037 -0.16793492 -0.039246533 25 20
0.86997199 -0.17032306 -0.076450512 51 18
0.85531998 -0.057199251 0.15865448 74 29
0.82891172 -0.16442107 0.12672111 90 28
0.86177123 -0.058342796 0.10118228 28 27
0.84955907 -0.16858548 0.079450928 80 26
0.87085962 -0.059231333 0.058302931 67 25
0.84503889 -0.16768274 0.038547784 43 24
0.86514306 -0.059307572 0.019322986 50 23
0.86059535 -0.17096719 0 25 22
0.88757795 -0.060937569 -0.019845227 12 21
0.85719103 -0.1705932 -0.039130077 38 20
0.86449075 -0.17237276 -0.07600344 53 18
0.85510463 -0.060333773 0.15865448 74 29
0.82588387 -0.16696228 0.12633477 90 28
0.85660005 -0.06116166 0.10057639 16 27
0.84893548 -0.17169814 0.079450928 76 26
0.8706367 -0.062422797 0.058302931 74 25
0.85420442 -0.172784 0.039013617 41 24
0.86991751 -0.062672324 0.01943904 53 23
0.85261589 -0.17261349 0 26 22
0.88485533 -0.064016819 -0.019787202 11 21
0.8541441 -0.17308217 -0.039013617 51 20
0.86873084 -0.17654403 -0.076450512 50 18
0.85488874 -0.063318282 0.15865448 74 29
0.83254987 -0.17135692 0.1274938 90 28
0.8613317 -0.064507954 0.10118228 12 27
0.84836143 -0.17451236 0.079450928 74 26
0.8729009 -0.065641552 0.058476452 74 25
0.85115141 -0.17525485 0.03889716 33 24
0.87218612 -0.065889828 0.019497067 55 23
0.85690266 -0.17661025 0 25 22
0.87466729 -0.0662238 -0.019555094 41 21
0.85842377 -0.17708401 -0.039246533 58 20
0.86570346 -0.17891383 -0.076226972 50 18
0.85712212 -0.066335186 0.15912808 74 29
0.83197713 -0.17411679 0.1274938 90 28
0.85368937 -0.066804387 0.10027345 12 27
0.84774715 -0.17747265 0.079450928 68 26
0.87019157 -0.068347536 0.058302931 76 25
0.8603375 -0.18014815 0.039362993 25 24
0.87196285 -0.068781741 0.019497067 54 23
0.85142118 -0.178413 0 25 22
0.88190699 -0.069847867 -0.019729175 50 21
0.85783178 -0.17992967 -0.039246533 64 20
0.88011098 -0.069716729 -0.05870102 12 19
0.86507368 -0.18193461 -0.076226972 32 18
0.85933256 -0.069517583 0.15960167 72 29
0.82894981 -0.17649917 0.12710746 75 28
0.86582035 -0.070759587 0.10178816 12 27
0.84468973 -0.17990611 0.079213053 62 26
0.8674615 -0.07118769 0.058129411 77 25
0.85482115 -0.18209727 0.039130077 22 24
0.86672205 -0.071579769 0.019381013 47 23
0.85568064 -0.18243885 0 25 22
0.87667513 -0.072527595 -0.019613121 51 21
0.85716659 -0.18307257 -0.039246533 66 20
0.88234842 -0.072987184 -0.058873672 26 19
0.87416756 -0.18706135 -0.077121131 16 18
0.85417885 -0.072267018 0.15865448 74 29
0.84035993 -0.18218397 0.12903918 58 28
0.85813576 -0.073319897 0.10087934 13 27
0.8440246 -0.18300085 0.079213053 53 26
0.86968023 -0.07457269 0.058302931 76 25
0.85902637 -0.18629993 0.039362993 26 24
0.866467 -0.074604757 0.019381013 39 23
0.84523916 -0.18342821 0 32 22
0.87640339 -0.075740285 -0.019613121 56 21
0.86140031 -0.18713602 -0.039479453 64 20
0.86964822 -0.075181529 -0.058010422 49 19
0.86861289 -0.18919215 -0.076674052 12 18
0.8934418 -0.077177271 -0.098655082 9 17
0.85147548 -0.075039819 0.15818089 74 29
0.83248687 -0.18350238 0.12788014 68 28
0.85787463 -0.076314904 0.10087934 16 27
0.83852297 -0.18486185 0.078737296 53 26
0.86941463 -0.077607997 0.058302931 77 25
0.84862155 -0.1871217 0.03889716 29 24
0.86122125 -0.077196658 0.019264959 30 23
0.84947354 -0.1874674 0 39 22
0.86866403 -0.078148171 -0.01943904 39 21
0.86074179 -0.19014172 -0.039479453 64 20
0.87186509 -0.078433216 -0.05818307 56 19
0.86794722 -0.19222304 -0.076674052 11 18
0.89316696 -0.080295503 -0.098655082 8 17
0.84876329 -0.077794634 0.15770729 72 29
0.8270238 -0.18531443 0.12710746 79 28
0.8501879 -0.078644596 0.099970512 20 27
0.83787251 -0.18778771 0.078737296 39 26
0.86665446 -0.080418907 0.058129411 80 25
0.85526949 -0.19174007 0.039246533 33 24
0.8609466 -0.080202408 0.019264959 22 23
0.85368985 -0.19153835 0 42 22
0.87585324 -0.081856839 -0.019613121 28 21
0.86494327 -0.19425167 -0.039712369 60 20
0.87406987 -0.081701279 -0.058355723 62 19
0.8745544 -0.19691034 -0.077344678 11 18
0.8978284 -0.083861232 -0.099223696 28 17
0.85338938 -0.08105889 0.15865448 75 29
0.82640469 -0.18805592 0.12710746 89 28
0.84992248 -0.081463486 0.099970512 22 27
0.84452069 -0.19224083 0.079450928 20 26
0.87134945 -0.083755732 0.058476452 76 25
0.84732813 -0.1928937 0.03889716 35 24
0.86067587 -0.083056964 0.019264959 17 23
0.84574163 -0.19268367 0 47 22
0.86562359 -0.083825208 -0.019381013 22 21
0.85456091 -0.1948735 -0.039246533 64 20
0.87131101 -0.084365949 -0.05818307 72 19
0.86904466 -0.19868743 -0.076897591 12 18
0.87776238 -0.084978484 -0.096949227 45 17
0.85310131 -0.084037274 0.15865448 71 29
0.82333815 -0.1903767 0.12672111 90 28
0.85210305 -0.084668055 0.10027345 28 27
0.85111409 -0.19688864 0.080164559 12 26
0.87105179 -0.086796805 0.058476452 76 25
0.85151285 -0.19698822 0.039130077 35 24
0.86285329 -0.086453103 0.019322986 13 23
0.84262979 -0.19506465 0 50 22
0.87527585 -0.087816641 -0.019613121 21 21
0.85627228 -0.19857454 -0.039362993 66 20
0.87597573 -0.08789102 -0.058528371 70 19
0.86834574 -0.20171975 -0.076897591 12 18
0.88238901 -0.088678099 -0.097517841 47 17
0.85034484 -0.086920962 0.15818089 75 29
0.8298437 -0.19510782 0.12788014 90 28
0.84684861 -0.087295942 0.099667571 29 27
0.83828115 -0.19712733 0.078975171 11 26
0.86824632 -0.089739352 0.058302931 77 25
0.84349668 -0.19837418 0.0387807 60 24
0.86503297 -0.089715332 0.019381013 12 23
0.85650134 -0.20162539 0 51 22
0.86997479 -0.090520687 -0.019497067 21 21
0.85314459 -0.20098357 -0.039246533 62 20
0.87316632 -0.090849876 -0.058355723 72 19
0.87002254 -0.20547937 -0.077121131 13 18
0.88701642 -0.092257947 -0.098086454 50 17
0.85247809 -0.090139739 0.15865448 75 29
0.83155853 -0.19858328 0.1282665 90 28
0.85394371 -0.09101931 0.10057639 33 27
0.84729958 -0.20224176 0.079926684 11 26
0.86792773 -0.092769556 0.058302931 75 25
0.85008144 -0.20307642 0.039130077 75 24
0.86222863 -0.092474796 0.019322986 12 23
0.85093236 -0.20343907 0 50 22
0.87464142 -0.093925036 -0.019613121 28 21
0.85486507 -0.20454758 -0.039362993 56 20
0.87532431 -0.094157062 -0.058528371 70 19
0.87417632 -0.20953605 -0.077568218 16 18
0.87927812 -0.094577357 -0.097233534 43 17
0.85523844 -0.20760293 0.19558759 96 30
0.85461545 -0.093225315 0.15912808 71 29
0.82129943 -0.19898807 0.12672111 90 28
0.84870219 -0.093322322 0.099970512 42 27
0.84658849 -0.20519815 0.079926684 9 26
0.86761534 -0.095647193 0.058302931 75 25
0.85425436 -0.20708311 0.039362993 81 24
0.86191726 -0.095333539 0.019322986 13 23
0.85753721 -0.20804618 0 38 22
0.86685365 -0.096171662 -0.01943904 38 21
0.86145794 -0.20916708 -0.039712369 50 20
0.87500727 -0.097059228 -0.058528371 68 19
0.87585747 -0.213181 -0.077791758 18 18
0.88142908 -0.097759582 -0.097517841 29 17
0.84505498 -0.20823173 0.19333297 90 30
0.85184479 -0.095940247 0.15865448 71 29
0.8229968 -0.20245002 0.12710746 87 28
0.84837127 -0.096284278 0.099970512 56 27
0.8482821 -0.20875286 0.080164559 11 26
0.86727619 -0.098675154 0.058302931 64 25
0.85110289 -0.20946088 0.039246533 84 24
0.86156207 -0.098491982 0.019322986 13 23
0.84710199 -0.20862246 0 14 22
0.87396437 -0.10002884 -0.019613121 46 21
0.85583931 -0.21111478 -0.039479453 42 20
0.87714177 -0.1003897 -0.05870102 68 19
0.8678605 -0.21442732 -0.077121131 22 18
0.88353324 -0.10126553 -0.097802147 21 17
0.83011883 -0.20774274 0.18995105 90 30
0.8514874 -0.099061765 0.15865448 67 29
0.8198545 -0.20486002 0.12672111 83 28
0.85047823 -0.099674843 0.10027345 72 27
0.83785999 -0.20942199 0.079213053 13 26
0.8718642 -0.10242132 0.058649972 56 25
0.85275072 -0.21319067 0.039362993 83 24
0.86121309 -0.1014988 0.019322986 16 23
0.85845023 -0.21479006 0 9 22
0.87855756 -0.1038042 -0.019729175 53 21
0.8599391 -0.21532613 -0.039712369 38 20
0.87676793 -0.1036039 -0.05870102 67 19
0.87189603 -0.21883091 -0.077568218 24 18
0.88317442 -0.10434902 -0.097802147 13 17
0.82702953 -0.2100334 0.1893874 90 30
0.84626019 -0.10146317 0.15770729 64 29
0.8310973 -0.21078771 0.12865284 70 28
0.85012513 -0.10264296 0.10027345 81 27
0.84198254 -0.21343456 0.079688802 18 26
0.86407119 -0.10458597 0.058129411 38 25
0.85200125 -0.21616602 0.039362993 81 24
0.86333543 -0.10479857 0.019381013 18 23
0.84800893 -0.2153001 0 8 22
0.87076283 -0.10583314 -0.019555094 62 21
0.85918224 -0.21832657 -0.039712369 62 20
0.87392437 -0.10636932 -0.058528371 68 19
0.86393088 -0.21986078 -0.076897591 25 18
0.88527119 -0.10772446 -0.098086454 12 17
0.82632846 -0.21277477 0.1893874 90 30
0.84591907 -0.10426892 0.15770729 60 29
0.8327843 -0.2141639 0.12903918 66 28
0.8522436 -0.10576007 0.10057639 89 27
0.84604961 -0.21762444 0.080164559 22 26
0.87362254 -0.10865441 0.058823492 24 25
0.84644586 -0.21773373 0.039130077 80 24
0.86298317 -0.10766092 0.019381013 21 23
0.85938781 -0.22125764 0 8 22
0.87286896 -0.10917532 -0.019613121 70 21
0.85845357 -0.22117452 -0.039712369 68 20
0.87356681 -0.10926678 -0.058528371 60 19
0.86074883 -0.22224663 -0.076674052 25 18
0.88244367 -0.11035813 -0.097802147 11 17
0.82558072 -0.21565789 0.1893874 90 30
0.84554994 -0.10722108 0.15770729 50 29
0.83203167 -0.21706957 0.12903918 63 28
0.84940672 -0.10842715 0.10027345 90 27
0.83806551 -0.21867301 0.079450928 32 26
0.87076324 -0.1113937 0.058649972 20 25
0.84568071 -0.22068705 0.039130077 76 24
0.8725217 -0.11191697 0.019613121 25 23
0.84894115 -0.22170505 0 8 22
0.87248254 -0.11222154 -0.019613121 70 21
0.86250538 -0.22544472 -0.039945286 76 20
0.8707056 -0.11200414 -0.058355723 64 19
0.85996771 -0.22524986 -0.076674052 50 18
0.8894462 -0.1143678 -0.098655082 11 17
0.82717562 -0.21916838 0.18995105 90 30
0.85004067 -0.11079236 0.15865448 50 29
0.82411045 -0.21805851 0.12788014 43 28
0.85148448 -0.11170723 0.10057639 88 27
0.83729714 -0.22159706 0.079450928 34 26
0.86542201 -0.11379619 0.058302931 14 25
0.84973025 -0.22492784 0.039362993 71 24
0.85971195 -0.11351331 0.019322986 51 23
0.85782218 -0.22725187 0 8 22
0.87208545 -0.1152664 -0.019613121 64 21
0.8592611 -0.22795811 -0.039828826 79 20
0.87278271 -0.11536271 -0.058528371 59 19
0.86158121 -0.22889562 -0.076897591 59 18
0.88409466 -0.11698892 -0.098086454 11 17
0.82871717 -0.22283724 0.19051471 90 30
0.84962887 -0.11390718 0.15865448 46 29
0.81853819 -0.21978402 0.12710746 20 28
0.84860909 -0.11450256 0.10027345 89 27
0.83167565 -0.2233611 0.078975171 37 26
0.86747152 -0.11729459 0.058476452 12 25
0.84648997 -0.22738683 0.039246533 70 24
0.86426568 -0.11717124 0.01943904 67 23
0.85939622 -0.23104946 0 9 22
0.87165719 -0.11846197 -0.019613121 60 21
0.85846013 -0.23095611 -0.039828826 76 20
0.86246508 -0.11724489 -0.057837773 50 19
0.87034661 -0.23466836 -0.077791758 64 18
0.88121879 -0.11974665 -0.097802147 12 17
0.82562542 -0.22493775 0.18995105 91 30
0.85411209 -0.11737842 0.15960167 45 29
0.82494962 -0.22446118 0.1282665 12 28
0.84822476 -0.11731602 0.10027345 88 27
0.84052891 -0.22875631 0.079926684 37 26
0.8720203 -0.1208415 0.058823492 11 25
0.83369142 -0.2268831 0.03866424 67 24
0.86634886 -0.12037363 0.019497067 76 23
0.85380435 -0.23257197 0 11 22
0.87125957 -0.12135185 -0.019613121 45 21
0.85287404 -0.23247609 -0.039595909 75 20
0.86948496 -0.12111585 -0.058355723 39 19
0.86956364 -0.23755325 -0.077791758 66 18
0.8783558 -0.12233242 -0.097517841 12 17
0.8224892 -0.22716379 0.1893874 90 30
0.84397048 -0.11901636 0.15770729 43 29
0.82416117 -0.22733943 0.1282665 12 28
0.85026801 -0.12061767 0.10057639 85 27
0.83732808 -0.23102093 0.079688802 47 26
0.87406337 -0.12422875 0.058997013 11 25
0.83770567 -0.23113248 0.03889716 59 24
0.86837703 -0.12389426 0.019555094 80 23
0.85298723 -0.23555088 0 12 22
0.8782562 -0.12543198 -0.019787202 25 21
0.8544215 -0.23627204 -0.039712369 70 20
0.87152684 -0.12449597 -0.058528371 32 19
0.87112719 -0.24125761 -0.078015298 68 18
0.88528079 -0.12658539 -0.098370776 13 17
0.82633823 -0.23150319 0.19051471 90 30
0.85081989 -0.12314267 0.15912808 42 29
0.82807612 -0.23170199 0.12903918 11 28
0.84490687 -0.12303221 0.099970512 81 27
0.84126538 -0.23544186 0.080164559 77 26
0.86619568 -0.12637214 0.058476452 12 25
0.83444977 -0.23352215 0.0387807 53 24
0.86299133 -0.12621522 0.01943904 84 23
0.85692954 -0.24003622 0 16 22
0.86542106 -0.12687205 -0.019497067 18 21
0.85359162 -0.23925309 -0.039712369 70 20
0.87600195 -0.12839916 -0.058873672 25 19
0.86784148 -0.24376959 -0.077791758 68 18
0.87991643 -0.128968 -0.097802147 16 17
0.82084256 -0.23304354 0.1893874 90 30
0.84552646 -0.12540567 0.15818089 50 29
0.82963675 -0.23527108 0.12942553 12 28
0.84447217 -0.12598073 0.099970512 79 27
0.84287262 -0.23891503 0.080402434 80 26
0.87068444 -0.13011844 0.058823492 13 25
0.83843106 -0.2378085 0.039013617 51 24
0.86254555 -0.12922683 0.01943904 84 23
0.84887666 -0.24095997 0 21 22
0.87241369 -0.13083263 -0.019671148 12 21
0.84795016 -0.24085453 -0.039479453 67 20
0.8681463 -0.13036577 -0.058355723 47 19
0.86702836 -0.24664609 -0.077791758 66 18
0.88437551 -0.13276267 -0.098370776 22 17
0.82006526 -0.23576425 0.1893874 90 30
0.849962 -0.12893112 0.15912808 55 29
0.83359653 -0.23939669 0.13019821 12 28
0.84404981 -0.12878042 0.099970512 76 27
0.84203351 -0.24185574 0.080402434 90 26
0.85544986 -0.13078547 0.057782371 13 25
0.84243488 -0.24197847 0.039246533 33 24
0.86458373 -0.132458 0.019497067 84 23
0.84807289 -0.24377364 0 26 22
0.8719517 -0.13387714 -0.019671148 9 21
0.84954506 -0.24436142 -0.039595909 62 20
0.87017536 -0.13361558 -0.058528371 59 19
0.8637712 -0.24897557 -0.077568218 67 18
0.88147426 -0.13532451 -0.098086454 33 17
0.81923729 -0.23862538 0.1893874 90 30
0.84465325 -0.13115804 0.15818089 68 29
0.8327558 -0.24230504 0.13019821 16 28
0.84850109 -0.13247751 0.10057639 68 27
0.8435719 -0.24549492 0.080640309 90 26
0.85745317 -0.13414928 0.057955891 17 25
0.84398115 -0.24562147 0.039362993 12 24
0.86164594 -0.13509497 0.01943904 83 23
0.84002119 -0.2446174 0 28 22
0.86900896 -0.13653894 -0.019613121 9 21
0.84868687 -0.24732539 -0.039595909 56 20
0.86970365 -0.13665225 -0.058528371 62 19
0.86528528 -0.25269306 -0.077791758 64 18
0.87608707 -0.1376432 -0.097517841 45 17
0.82306778 -0.24287443 0.19051471 90 30
0.85146654 -0.13523987 0.15960167 80 29
0.83427238 -0.24591483 0.13058455 20 28
0.85293674 -0.13620724 0.10118228 62 27
0.84270978 -0.24843803 0.080640309 89 26
0.84958857 -0.13598014 0.05743533 20 25
0.8502993 -0.25070259 0.039712369 9 24
0.86608261 -0.13903067 0.019555094 79 23
0.84874648 -0.25040171 0 41 22
0.87099582 -0.13996118 -0.019671148 9 21
0.84298831 -0.24900743 -0.039362993 51 20
0.87168491 -0.14007612 -0.05870102 70 19
0.86678398 -0.25642413 -0.078015298 60 18
0.88539016 -0.14240409 -0.098655082 60 17
0.81517714 -0.2437776 0.18882374 90 30
0.85338926 -0.13874671 0.16007526 85 29
0.82863587 -0.24754478 0.12981187 29 28
0.85488194 -0.13972582 0.10148522 35 27
0.84655899 -0.25296199 0.081116065 84 26
0.86385822 -0.1414701 0.058476452 22 25
0.84698373 -0.25309643 0.039595909 8 24
0.86805946 -0.14245088 0.019613121 79 23
0.84782296 -0.2535108 0 63 22
0.87541163 -0.14395007 -0.019787202 9 21
0.84450465 -0.25267029 -0.039479453 50 20
0.87116557 -0.14327006 -0.05870102 76 19
0.86822164 -0.26032028 -0.078238837 60 18
0.88488764 -0.14549379 -0.098655082 64 17
0.81897956 -0.2480458 0.18995105 90 30
0.85289973 -0.14172474 0.16007526 83 29
0.82776672 -0.25043577 0.12981187 37 28
0.83969623 -0.14029776 0.099667571 29 27
0.83857465 -0.2535888 0.080402434 81 26
0.86335915 -0.14448465 0.058476452 24 25
0.84609514 -0.25605145 0.039595909 8 24
0.86262476 -0.14466712 0.019497067 76 23
0.85171461 -0.25792974 0 72 22
0.87492943 -0.14685225 -0.019787202 9 21
0.84122938 -0.25488648 -0.039362993 46 20
0.87558156 -0.14712308 -0.059046321 74 19
0.86021078 -0.26101145 -0.077568218 62 18
0.88437438 -0.14858174 -0.098655082 70 17
0.82280624 -0.25219998 0.19107836 90 30
0.8475824 -0.14374536 0.15912808 85 29
0.81985199 -0.25099188 0.12865284 42 28
0.84167373 -0.14349151 0.099970512 22 27
0.84006202 -0.25724909 0.080640309 76 26
0.85795611 -0.14652105 0.058129411 32 25
0.85239935 -0.26106742 0.039945286 8 24
0.86214036 -0.1475269 0.019497067 74 23
0.85085464 -0.26075271 0 74 22
0.8694824 -0.14907439 -0.019671148 11 21
0.84753668 -0.25988886 -0.039712369 18 20
0.87017024 -0.14919654 -0.05870102 75 19
0.85929447 -0.26401255 -0.077568218 62 18
0.88142759 -0.1511007 -0.098370776 71 17
0.81959659 -0.25434259 0.19051471 90 30
0.85191524 -0.14752692 0.16007526 83 29
0.82132816 -0.25458956 0.12903918 42 28
0.84361374 -0.14684717 0.10027345 12 27
0.83440864 -0.25869393 0.080164559 74 26
0.86727184 -0.15120095 0.058823492 55 25
0.84671605 -0.26255018 0.039712369 9 24
0.85913074 -0.15026213 0.01943904 63 23
0.84755343 -0.26297441 0 76 22
0.87634599 -0.1533809 -0.019845227 12 21
0.84657842 -0.26299348 -0.039712369 9 20
0.87210196 -0.1526563 -0.058873672 75 19
0.8559919 -0.266265 -0.077344678 58 18
0.8833155 -0.15475218 -0.098655082 70 17
0.82330215 -0.25881779 0.19164202 90 30
0.85136884 -0.15064834 0.16007526 80 29
0.81332576 -0.2553601 0.12788014 45 28
0.84551436 -0.15036568 0.10057639 12 27
0.83819973 -0.26325381 0.080640309 63 26
0.86179882 -0.15351766 0.058476452 71 25
0.85050941 -0.26716036 0.039945286 11 24
0.85367763 -0.15239556 0.019322986 63 23
0.84896702 -0.26683459 0 74 22
0.87085485 -0.15572555 -0.019729175 13 21
0.8575573 -0.26972252 -0.040294662 7 20
0.86908031 -0.15541947 -0.05870102 68 19
0.86212933 -0.27166301 -0.078015298 58 18
0.88276994 -0.15783457 -0.098655082 70 17
0.82239366 -0.26169005 0.19164202 90 30
0.84358704 -0.15233164 0.15865448 77 29
0.82654136 -0.26272303 0.13019821 58 28
0.84009838 -0.15244408 0.099970512 11 27
0.83732212 -0.26603195 0.080640309 58 26
0.86125767 -0.15652496 0.058476452 80 25
0.84719366 -0.26936498 0.039828826 11 24
0.85314047 -0.15537453 0.019322986 38 23
0.85041082 -0.2705602 0 68 22
0.87525386 -0.15949516 -0.019845227 14 21
0.85423273 -0.27195087 -0.040178202 7 20
0.8709873 -0.15889297 -0.058873672 67 19
0.86359417 -0.27528244 -0.078238837 56 18
0.88465828 -0.16135404 -0.098939389 70 17
0.81920481 -0.26366356 0.19107836 90 30
0.85032368 -0.1564399 0.16007526 74 29
0.81861711 -0.26317638 0.12903918 90 28
0.84447128 -0.15611739 0.10057639 12 27
0.82691944 -0.26588193 0.079688802 54 26
0.86318737 -0.15982734 0.058649972 81 25
0.84867114 -0.27294332 0.039945286 13 24
0.85753787 -0.15910086 0.01943904 22 23
0.84475315 -0.27183536 0 70 22
0.86977476 -0.16164961 -0.019729175 18 21
0.86045188 -0.27709603 -0.040527578 8 20
0.86554903 -0.16088253 -0.058528371 64 19
0.8626281 -0.27829528 -0.078238837 58 18
0.88411844 -0.16428679 -0.098939389 67 17
0.8182795 -0.26652148 0.19107836 90 30
0.84253061 -0.15807016 0.15865448 70 29
0.82004035 -0.26680246 0.12942553 90 28
0.84880102 -0.15996951 0.10118228 12 27
0.82598621 -0.26876679 0.079688802 51 26
0.85772032 -0.16192789 0.058302931 85 25
0.85008603 -0.27668282 0.040061742 17 24
0.85203493 -0.16132674 0.019322986 14 23
0.84854949 -0.27634248 0 67 22
0.86674821 -0.16422625 -0.019671148 22 21
0.84994102 -0.27712789 -0.040061742 9 20
0.86498207 -0.16390288 -0.058528371 62 19
0.86165136 -0.28130469 -0.078238837 58 18
0.88106877 -0.16707011 -0.098655082 67 17
0.82191932 -0.27105647 0.19220567 90 30
0.83953333 -0.16070265 0.15818089 64 29
0.81436896 -0.26824868 0.12865284 90 28
0.84089422 -0.16169466 0.10027345 13 27
0.82971895 -0.27336183 0.080164559 45 26
0.85957128 -0.16553527 0.058476452 83 25
0.84432644 -0.27822182 0.039828826 22 24
0.86128813 -0.16616637 0.019555094 11 23
0.84990329 -0.2802394 0 59 22
0.86123013 -0.16646701 -0.019555094 50 21
0.84896851 -0.28009304 -0.040061742 11 20
0.86682564 -0.16753858 -0.05870102 58 19
0.8606146 -0.28446093 -0.078238837 59 18
0.88536006 -0.1710737 -0.099223696 64 17
0.82558495 -0.27547756 0.19333297 88 30
0.84137791 -0.16409509 0.15865448 58 29
0.81342769 -0.2710897 0.12865284 90 28
0.84276134 -0.16509904 0.10057639 18 27
0.82880789 -0.27611175 0.080164559 20 26
0.85898829 -0.16853473 0.058476452 84 25
0.85281867 -0.28435022 0.040294662 22 24
0.85579538 -0.16822146 0.01943904 9 23
0.83707207 -0.27921951 0 58 22
0.8680343 -0.17074886 -0.019729175 67 21
0.85271931 -0.28464788 -0.040294662 12 20
0.86378711 -0.17008831 -0.058528371 58 19
0.85966647 -0.28731328 -0.078238837 56 18
0.88719583 -0.17463621 -0.099508002 63 17
0.82005531 -0.27664477 0.19220567 84 30
0.83360171 -0.16547157 0.1572337 50 29
0.81720144 -0.27537513 0.12942553 90 28
0.83977413 -0.16741465 0.10027345 21 27
0.83255166 -0.28060469 0.080640309 11 26
0.85842466 -0.17138231 0.058476452 81 25
0.84477758 -0.28476602 0.039945286 25 24
0.85032856 -0.17009182 0.019322986 9 23
0.83614159 -0.28199381 0 55 22
0.864981 -0.17329365 -0.019671148 74 21
0.85413498 -0.2882784 -0.040411122 11 20
0.85832483 -0.17198551 -0.05818307 35 19
0.85865831 -0.29031232 -0.078238837 53 18
0.88661182 -0.17757732 -0.099508002 63 17
0.82369071 -0.28109074 0.19333297 74 30
0.84746397 -0.17125626 0.16007526 39 29
0.81623524 -0.27822602 0.12942553 90 28
0.83675128 -0.16985832 0.099970512 25 27
0.83627415 -0.28512713 0.081116065 9 26
0.86026651 -0.17486767 0.058649972 79 25
0.83433175 -0.28446591 0.039479453 50 24
0.85214978 -0.17369957 0.019381013 9 23
0.83751619 -0.28572387 0 51 22
0.86192054 -0.17581922 -0.019613121 79 21
0.84835005 -0.28978097 -0.040178202 12 20
0.86260939 -0.17596394 -0.058528371 20 19
0.8552857 -0.29249632 -0.078015298 58 18
0.88352007 -0.18033564 -0.099223696 64 17
0.81345433 -0.28090385 0.19107836 66 30
0.83961344 -0.17289682 0.15865448 30 29
0.81520998 -0.28121582 0.12942553 90 28
0.83612311 -0.17292401 0.099970512 29 27
0.83052236 -0.28655508 0.080640309 9 26
0.8596198 -0.17801955 0.058649972 79 25
0.83800083 -0.28916287 0.039712369 64 24
0.86133283 -0.17867649 0.019613121 9 23
0.83646333 -0.2887916 0 49 22
0.86127037 -0.17897713 -0.019613121 81 21
0.84969187 -0.29356179 -0.040294662 13 20
0.86440188 -0.17962502 -0.05870102 13 19
0.85655898 -0.29644927 -0.078238837 55 18
0.88775164 -0.18441574 -0.099792317 64 17
0.81936085 -0.28616866 0.19276932 58 30
0.84381276 -0.17681961 0.15960167 18 29
0.8118934 -0.28324014 0.12903918 90 28
0.84037405 -0.17684975 0.10057639 29 27
0.83890766 -0.29275566 0.081591815 9 26
0.85899311 -0.1810191 0.058649972 75 25
0.83227485 -0.29042894 0.039479453 72 24
0.85581017 -0.18066321 0.019497067 11 23
0.84488302 -0.29502958 0 37 22
0.86553371 -0.18300293 -0.019729175 80 21
0.84630638 -0.29569641 -0.040178202 16 20
0.86376965 -0.18264125 -0.05870102 9 19
0.85786712 -0.3002657 -0.078462377 56 18
0.87980813 -0.18599224 -0.098939389 66 17
0.82065147 -0.28984407 0.19333297 49 30
0.84799492 -0.18077382 0.16054887 11 29
0.81089979 -0.2860724 0.12903918 85 28
0.83489549 -0.178757 0.099970512 43 27
0.84491497 -0.29818422 0.082305454 8 26
0.86079609 -0.1845324 0.058823492 72 25
0.8359617 -0.29500613 0.039712369 71 24
0.85517424 -0.18364944 0.019497067 11 23
0.83442682 -0.29462412 0 11 22
0.86733454 -0.18654187 -0.019787202 76 21
0.84526902 -0.2986488 -0.040178202 16 20
0.8728857 -0.18772601 -0.059391622 8 19
0.85915905 -0.30409488 -0.078685917 58 18
0.88158321 -0.18957777 -0.099223696 64 17
0.81505144 -0.29105684 0.19220567 45 30
0.84975922 -0.18424609 0.16102245 9 29
0.80757201 -0.2880654 0.12865284 79 28
0.84397143 -0.18375437 0.10118228 58 27
0.8391853 -0.29944736 0.081829697 9 26
0.85527039 -0.18648706 0.058476452 63 25
0.83727682 -0.29876751 0.039828826 72 24
0.85697126 -0.18715991 0.019555094 12 23
0.84515512 -0.30176717 0 8 22
0.86667812 -0.1895683 -0.019787202 76 21
0.84892076 -0.30328941 -0.040411122 38 20
0.86247355 -0.18866701 -0.05870102 8 19
0.85809231 -0.30709204 -0.078685917 55 18
0.87848824 -0.19212988 -0.098939389 64 17
0.80716425 -0.291401 0.19051471 59 30
0.84671223 -0.18668951 0.16054887 11 29
0.81120414 -0.2925705 0.12942553 71 28
0.83605158 -0.18511076 0.10027345 75 27
0.83813483 -0.30237484 0.081829697 11 26
0.85461414 -0.18947138 0.058476452 56 25
0.83153486 -0.29998171 0.039595909 71 24
0.84410572 -0.18747519 0.019264959 13 23
0.84409654 -0.30471548 0 7 22
0.86112869 -0.19152072 -0.019671148 80 21
0.84081686 -0.30368844 -0.040061742 56 20
0.8691178 -0.19328058 -0.059218969 8 19
0.8593545 -0.31093833 -0.078909449 53 18
0.88023818 -0.19572771 -0.099223696 64 17
0.80842799 -0.2950578 0.19107836 90 30
0.85324585 -0.19123408 0.16196965 9 29
0.8124963 -0.29625246 0.12981187 66 28
0.84266806 -0.18964188 0.10118228 84 27
0.83473837 -0.30444011 0.081591815 12 26
0.85151315 -0.19191189 0.058302931 35 25
0.83282667 -0.30374396 0.039712369 70 24
0.85076475 -0.19205107 0.01943904 16 23
0.8524133 -0.31111145 0 4 22
0.86045492 -0.19452547 -0.019671148 75 21
0.84209532 -0.30748391 -0.040178202 63 20
0.86356956 -0.19522676 -0.058873672 8 19
0.85826391 -0.31393614 -0.078909449 53 18
0.87954962 -0.19879912 -0.099223696 63 17
0.80739313 -0.29787791 0.19107836 90 30
0.84538829 -0.19259608 0.16054887 11 29
0.81840336 -0.30166724 0.13097091 58 28
0.84442163 -0.19312859 0.10148522 87 27
0.83605725 -0.30807278 0.081829697 12 26
0.85327065 -0.19543305 0.058476452 22 25
0.83410233 -0.3075189 0.039828826 63 24
0.84521395 -0.19391558 0.019322986 20 23
0.84663546 -0.31234297 0 8 22
0.86224258 -0.1979302 -0.019729175 72 21
0.84569824 -0.31216246 -0.040411122 67 20
0.85801828 -0.1971366 -0.058528371 9 19
0.86188513 -0.31851801 -0.079356529 51 18
0.87400591 -0.20076926 -0.098655082 67 17
0.8064009 -0.30055371 0.19107836 90 30
0.85192442 -0.19703747 0.16196965 12 29
0.81739849 -0.30437949 0.13097091 50 28
0.83893883 -0.19481887 0.10087934 88 27
0.83497679 -0.31098929 0.081829697 13 26
0.84775639 -0.19714542 0.058129411 17 25
0.83307797 -0.31028318 0.039828826 62 24
0.84696758 -0.19742528 0.019381013 30 23
0.845595 -0.3151488 0 8 22
0.86154652 -0.20093881 -0.019729175 72 21
0.84460348 -0.31511262 -0.040411122 68 20
0.86465108 -0.20166008 -0.059046321 9 19
0.86309856 -0.32240155 -0.079580069 51 18
0.87814033 -0.20493464 -0.099223696 64 17
0.80984765 -0.30523708 0.19220567 90 30
0.84641427 -0.19904837 0.16102245 13 29
0.81627738 -0.30737334 0.13097091 16 28
0.84063601 -0.19845572 0.10118228 85 27
0.83848488 -0.31581339 0.082305454 13 26
0.84702808 -0.20025127 0.058129411 12 25
0.82726544 -0.31156251 0.039595909 58 24
0.84627324 -0.20038055 0.019381013 53 23
0.85378313 -0.3217954 0 9 22
0.85837072 -0.2035253 -0.019671148 63 21
0.84583288 -0.31894571 -0.040527578 67 20
0.86876279 -0.20596518 -0.059391622 11 19
0.87983799 -0.20856501 -0.099508002 63 17
0.80877721 -0.30806217 0.19220567 90 30
0.84093595 -0.20087478 0.16007526 17 29
0.81058705 -0.30845213 0.13019821 9 28
0.8399381 -0.20138888 0.10118228 85 27
0.83273005 -0.31695625 0.081829697 13 26
0.85845733 -0.20608388 0.058997013 11 25
0.81917769 -0.31176594 0.039246533 56 24
0.85043198 -0.2044884 0.019497067 63 23
0.85032058 -0.32387814 0 11 22
0.86251801 -0.20767707 -0.019787202 56 21
0.84005159 -0.32010639 -0.040294662 68 20
0.86318588 -0.20784219 -0.059046321 12 19
0.87668824 -0.21106018 -0.099223696 63 17
0.80769706 -0.31088343 0.19220567 90 30
0.84500402 -0.20495257 0.16102245 22 29
0.81180853 -0.31217211 0.13058455 9 28
0.8368172 -0.20373942 0.10087934 84 27
0.82697749 -0.31806278 0.08135394 37 26
0.85530806 -0.2084953 0.058823492 11 25
0.82739878 -0.31823254 0.039712369 53 24
0.85457242 -0.20862772 0.019613121 75 23
0.84918481 -0.32684436 0 9 22
0.85207003 -0.20833915 -0.019555094 32 21
0.83892912 -0.32303679 -0.040294662 62 20
0.85760653 -0.20968279 -0.05870102 13 19
0.88077486 -0.21528549 -0.099792317 62 17
0.80660689 -0.31370091 0.19220567 90 30
0.8418982 -0.20732079 0.16054887 26 29
0.81531382 -0.31680483 0.13135725 9 28
0.83610094 -0.20665921 0.10087934 77 27
0.82360071 -0.31989658 0.081116065 53 26
0.85942024 -0.21266432 0.059170533 11 25
0.82628286 -0.32111877 0.039712369 51 24
0.85141128 -0.21101499 0.019555094 76 23
0.84338319 -0.32798302 0 11 22
0.85865694 -0.21294828 -0.019729175 20 21
0.83779639 -0.3259632 -0.040294662 60 20
0.85444713 -0.21208104 -0.058528371 16 19
0.880018 -0.21835867 -0.099792317 62 17
0.81009167 -0.31816643 0.19333297 90 30
0.84358937 -0.21069953 0.16102245 26 29
0.80507088 -0.31587458 0.12981187 9 28
0.83300215 -0.20883413 0.10057639 76 27
0.82710779 -0.32459933 0.081591815 58 26
0.85871035 -0.21551311 0.059170533 11 25
0.82521349 -0.32385704 0.039712369 50 24
0.8555581 -0.21504225 0.019671148 77 23
0.8353166 -0.32801944 0 11 22
0.85305762 -0.21473752 -0.019613121 13 21
0.83671087 -0.32873964 -0.040294662 54 20
0.85615939 -0.21551543 -0.05870102 34 19
0.87928903 -0.22127572 -0.099792317 60 17
0.81576097 -0.32370463 0.19502394 90 30
0.84284878 -0.21364291 0.16102245 43 29
0.80855089 -0.32051498 0.13058455 9 28
0.83708161 -0.21295051 0.10118228 68 27
0.82596964 -0.32748449 0.081591815 62 26
0.86278987 -0.21972692 0.059517574 11 25
0.83335465 -0.3304404 0.040178202 20 24
0.84991741 -0.21695375 0.019555094 76 23
0.83184493 -0.33000565 0 11 22
0.85714936 -0.21893759 -0.019729175 9 21
0.8331815 -0.33087671 -0.040178202 53 20
0.86023819 -0.21972375 -0.059046321 51 19
0.81456906 -0.32669234 0.19502394 85 30
0.83016509 -0.21370532 0.15865448 50 29
0.81195164 -0.32532525 0.13135725 11 28
0.84110439 -0.21724471 0.10178816 62 27
0.82707161 -0.3314411 0.081829697 60 26
0.86197871 -0.22288772 0.059517574 11 25
0.82982224 -0.33255792 0.040061742 9 24
0.84915495 -0.2199192 0.019555094 76 23
0.83990234 -0.33679676 0 11 22
0.86118317 -0.22331914 -0.019845227 8 21
0.834337 -0.33471856 -0.040294662 53 20
0.85942709 -0.22287519 -0.059046321 59 19
0.80665845 -0.3267729 0.19333297 84 30
0.83179092 -0.21721521 0.15912808 62 29
0.81767267 -0.33095485 0.13251628 12 28
0.8355363 -0.21893504 0.10118228 59 27
0.82821417 -0.33526564 0.082067572 59 26
0.85878134 -0.22526911 0.059344053 12 25
0.8332814 -0.33733806 0.040294662 8 24
0.85080117 -0.2235103 0.019613121 75 23
0.82946217 -0.33594972 0 45 22
0.85797966 -0.22569473 -0.019787202 8 21
0.83547568 -0.33857244 -0.040411122 50 20
0.85864389 -0.22587381 -0.059046321 63 19
0.79875737 -0.32680222 0.19164202 77 30
0.83577704 -0.22136073 0.16007526 70 29
0.82336426 -0.33662838 0.13367532 18 28
0.83956724 -0.22311141 0.10178816 50 27
0.82473755 -0.33720702 0.081829697 60 26
0.86522543 -0.23016907 0.059864614 12 25
0.83902627 -0.34309715 0.040644038 7 24
0.84518206 -0.22520526 0.019497067 75 23
0.83290756 -0.34074757 0 51 22
0.86443645 -0.23060107 -0.019961281 8 21
0.82505327 -0.33768016 -0.039945286 51 20
0.86267322 -0.23014216 -0.059391622 68 19
0.87367147 -0.23305021 -0.099508002 49 17
0.80666429 -0.33319163 0.19389662 72 30
0.83503842 -0.22413105 0.16007526 70 29
0.81996262 -0.33840889 0.13328896 25 28
0.84601682 -0.2278098 0.10269699 34 27
0.82131672 -0.33898494 0.081591815 58 26
0.85240853 -0.2298243 0.058997013 12 25
0.83327186 -0.34396064 0.040411122 7 24
0.84443057 -0.22800675 0.019497067 64 23
0.83638978 -0.34542757 0 59 22
0.85883796 -0.23217513 -0.019845227 9 21
0.8331517 -0.34425145 -0.040411122 29 20
0.85708654 -0.23171312 -0.059046321 70 19
0.80325085 -0.33506194 0.19333297 49 30
0.83899182 -0.22832012 0.16102245 68 29
0.81649888 -0.34031305 0.13290262 17 28
0.8356334 -0.22817405 0.10148522 25 27
0.82242316 -0.34281296 0.081829697 56 26
0.85160112 -0.23279835 0.058997013 13 25
0.83897418 -0.34976679 0.040760498 8 24
0.84358925 -0.2311002 0.019497067 63 23
0.83748388 -0.34931302 0 58 22
0.85561007 -0.2345176 -0.019787202 9 21
0.83418661 -0.34827054 -0.040527578 9 20
0.85867959 -0.23535615 -0.059218969 68 19
0.79977536 -0.33705208 0.19276932 16 30
0.83104509 -0.22945416 0.15960167 68 29
0.82206792 -0.34619632 0.13406166 16 28
0.83479148 -0.23123525 0.10148522 16 27
0.82345229 -0.34679663 0.082067572 53 26
0.84593189 -0.23459852 0.058649972 37 25
0.83538741 -0.35186449 0.040644038 9 24
0.84036738 -0.23338145 0.01943904 64 23
0.83389652 -0.35140377 0 64 22
0.86197424 -0.23964061 -0.019961281 9 21
0.83756334 -0.35313183 -0.040760498 7 20
0.85540646 -0.23784034 -0.059046321 68 19
0.83497071 -0.23366317 0.16054887 67 29
0.80950153 -0.34420261 0.13212994 17 28
0.83397919 -0.23414782 0.10148522 12 27
0.82223678 -0.34966892 0.082067572 53 26
0.85712188 -0.24089077 0.059517574 47 25
0.8364498 -0.35576138 0.040760498 9 24
0.84677076 -0.23832478 0.019613121 58 23
0.83726078 -0.3562814 0 56 22
0.85872495 -0.24197672 -0.019903254 9 21
0.84091628 -0.3580209 -0.040993415 7 20
0.8617782 -0.24283437 -0.05956427 64 19
0.83178651 -0.23591331 0.16007526 64 29
0.81282949 -0.34898651 0.13290262 50 28
0.83793432 -0.23840222 0.1020911 11 27
0.82101119 -0.35253692 0.082067572 54 26
0.86107665 -0.2452343 0.059864614 50 25
0.8329106 -0.35768798 0.040644038 9 24
0.84112293 -0.23992141 0.019497067 55 23
0.83371747 -0.35820934 0 55 22
0.85787511 -0.24497275 -0.019903254 11 21
0.84195334 -0.36194584 -0.041109871 7 20
0.85372525 -0.24380633 -0.059046321 63 19
0.83331901 -0.23948662 0.16054887 60 29
0.80028766 -0.34688133 0.13097091 72 28
0.83709705 -0.24132571 0.1020911 12 27
0.81977564 -0.35540062 0.082067572 54 26
0.85781735 -0.24755362 0.059691094 53 25
0.84081209 -0.3645891 0.041109871 8 24
0.83787745 -0.24216881 0.01943904 29 23
0.82787997 -0.35911644 0 55 22
0.8594175 -0.24865386 -0.019961281 12 21
0.83153105 -0.36088344 -0.040644038 7 20
0.85286897 -0.24678491 -0.059046321 62 19
0.78607738 -0.34425426 0.19051471 8 30
0.82540166 -0.24035549 0.15912808 60 29
0.80133224 -0.35066873 0.13135725 76 28
0.83624953 -0.24424624 0.1020911 13 27
0.81853002 -0.35826001 0.082067572 53 26
0.85455227 -0.24985315 0.059517574 54 25
0.83496374 -0.36550793 0.040876955 8 24
0.84182811 -0.2464833 0.019555094 20 23
0.82890886 -0.36301255 0 51 22
0.85374361 -0.2502594 -0.019845227 12 21
0.83712107 -0.36680716 -0.040993415 8 20
0.85439759 -0.25045547 -0.059218969 60 19
0.80044633 -0.35393071 0.19446027 9 30
0.8339833 -0.24598613 0.16102245 55 29
0.80010331 -0.35346377 0.13135725 74 28
0.84015507 -0.24855846 0.10269699 20 27
0.81727451 -0.36111504 0.082067572 34 26
0.85606819 -0.25353622 0.059691094 50 25
0.83368284 -0.3684203 0.040876955 7 24
0.84336072 -0.25012431 0.019613121 12 23
0.82992071 -0.3669202 0 51 22
0.86005855 -0.25535244 -0.020019308 42 21
0.84039825 -0.37175849 -0.041226331 8 20
0.85351813 -0.25343633 -0.059218969 54 19
0.8014276 -0.35772109 0.19502394 11 30
0.83076555 -0.24819982 0.16054887 53 29
0.80111784 -0.35726619 0.1317436 70 28
0.82976574 -0.24866709 0.10148522 26 27
0.82061344 -0.36586121 0.082543328 26 26
0.85278714 -0.25581291 0.059517574 46 25
0.82555723 -0.36825943 0.040527578 8 24
0.84248245 -0.25306666 0.019613121 11 23
0.83091533 -0.37083936 0 51 22
0.86160254 -0.2589159 -0.020077337 49 21
0.83681762 -0.37366608 -0.041109871 9 20
0.85501862 -0.25712582 -0.059391622 53 19
0.8068918 -0.36339408 0.19671489 17 30
0.82523453 -0.24954587 0.15960167 51 29
0.79992867 -0.35992083 0.1317436 70 28
0.84082049 -0.25498495 0.10299993 33 27
0.82159829 -0.36975032 0.082781211 32 26
0.84715736 -0.25720361 0.059170533 39 25
0.83115572 -0.37408641 0.040876955 39 24
0.85121179 -0.25874022 0.019845227 11 23
0.82284981 -0.37049684 0 51 22
0.86069357 -0.26192188 -0.020077337 54 21
0.83557397 -0.37643901 -0.041109871 11 20
0.85177332 -0.25924015 -0.059218969 35 19
0.80561841 -0.36620846 0.19671489 28 30
0.83610451 -0.25598475 0.16196965 41 29
0.80091375 -0.36373794 0.13212994 63 28
0.83042824 -0.25503114 0.10178816 38 27
0.82482928 -0.37468556 0.08325696 35 26
0.83909672 -0.25798041 0.058649972 32 25
0.82757372 -0.37594703 0.040760498 41 24
0.84547651 -0.26040021 0.019729175 9 23
0.82837194 -0.37648657 0 50 22
0.86455512 -0.26638362 -0.020193391 60 21
0.83645922 -0.38053855 -0.041226331 11 20
0.85086316 -0.2622118 -0.059218969 18 19
0.80205977 -0.36813709 0.19615124 28 30
0.8328141 -0.25832692 0.16149606 30 29
0.7973327 -0.36563575 0.1317436 63 28
0.83660275 -0.26026464 0.10269699 42 27
0.81667191 -0.37457696 0.082543328 42 26
0.84052873 -0.26178911 0.058823492 24 25
0.82845753 -0.3800244 0.040876955 37 24
0.84217423 -0.26261246 0.019671148 9 23
0.82698643 -0.37952018 0 39 22
0.85402161 -0.26659763 -0.019961281 63 21
0.83965975 -0.38555101 -0.041459247 11 20
0.85704464 -0.26753864 -0.059736926 12 19
0.80518472 -0.37299326 0.19727854 21 30
0.83659536 -0.26268992 0.16244325 12 29
0.80948514 -0.37467521 0.13406166 53 28
0.83332014 -0.26244456 0.10239404 45 27
0.82444948 -0.38148534 0.083494842 47 26
0.84437108 -0.26620811 0.059170533 16 25
0.82712603 -0.38291395 0.040876955 32 24
0.84840888 -0.26778781 0.019845227 9 23
0.83472049 -0.38662919 0 13 22
0.86028898 -0.27166665 -0.020135364 63 21
0.83830881 -0.38847965 -0.041459247 11 20
0.85134524 -0.26903868 -0.059391622 8 19
0.81496334 -0.38084456 0.20009682 22 30
0.83103639 -0.26398972 0.16149606 9 29
0.80823821 -0.37735748 0.13406166 53 28
0.83007866 -0.26445985 0.1020911 47 27
0.81635571 -0.38118556 0.082781211 51 26
0.83634925 -0.26675311 0.058649972 13 25
0.83037204 -0.38777888 0.041109871 17 24
0.84275025 -0.26909247 0.019729175 11 23
0.82438397 -0.38514045 0 11 22
0.86171818 -0.27542245 -0.020193391 60 21
0.82797682 -0.38700584 -0.040993415 35 20
0.85995919 -0.27487189 -0.060082223 7 19
0.81362903 -0.38368699 0.20009682 35 30
0.83010989 -0.26688895 0.16149606 7 29
0.80468428 -0.37911814 0.13367532 53 28
0.8338784 -0.26886559 0.10269699 32 27
0.81726879 -0.38509914 0.083019085 50 26
0.84491503 -0.27270889 0.059344053 12 25
0.83126974 -0.39174506 0.041226331 9 24
0.84889895 -0.27446663 0.019903254 12 23
0.83884555 -0.39551657 0 12 22
0.85599136 -0.27690318 -0.020077337 63 21
0.82655281 -0.39003795 -0.040993415 50 20
0.85899442 -0.27787203 -0.060082223 7 19
0.81002074 -0.38561413 0.19953316 80 30
0.83146244 -0.27068293 0.16196965 9 29
0.80106145 -0.38099846 0.13328896 54 28
0.82580376 -0.26962942 0.10178816 22 27
0.81360716 -0.38701749 0.082781211 50 26
0.84865528 -0.27734023 0.059691094 12 25
0.82757592 -0.39371094 0.041109871 7 24
0.83842558 -0.27434546 0.019671148 14 23
0.83288074 -0.39642882 0 28 22
0.85734791 -0.28081018 -0.020135364 62 21
0.82969052 -0.39507884 -0.041226331 53 20
0.85559797 -0.28024864 -0.059909575 7 19
0.80428404 -0.38631916 0.19840586 74 30
0.83517981 -0.2751064 0.16291684 9 29
0.80639899 -0.38701504 0.13444801 51 28
0.82721603 -0.27328217 0.1020911 12 27
0.81225127 -0.38985515 0.082781211 49 26
0.83820194 -0.27719498 0.058997013 34 25
0.81945032 -0.39333901 0.040760498 7 24
0.8422125 -0.27882841 0.019787202 24 23
0.82248795 -0.39498296 0 35 22
0.86348617 -0.28614053 -0.020309445 56 21
0.82605803 -0.39688569 -0.041109871 51 20
0.8546145 -0.28323352 -0.059909575 7 19
0.79855239 -0.38698885 0.19727854 81 30
0.83887637 -0.2795592 0.16386405 9 29
0.80504316 -0.38982758 0.13444801 39 28
0.81918967 -0.27382794 0.10118228 9 27
0.81319129 -0.39363629 0.083019085 49 26
0.84906572 -0.28404287 0.059864614 46 25
0.82929701 -0.40166679 0.041342791 9 24
0.83411777 -0.27940482 0.019613121 34 23
0.83009291 -0.40223369 0 45 22
0.86016059 -0.28821471 -0.020251418 54 21
0.82242316 -0.39867204 -0.040993415 53 20
0.85125381 -0.28542855 -0.059736926 7 19
0.80382144 -0.3928597 0.19896951 83 30
0.83794475 -0.28233942 0.16386405 11 29
0.80817956 -0.39467371 0.13522071 13 28
0.82768989 -0.27969426 0.10239404 8 27
0.80734521 -0.3942773 0.082543328 47 26
0.85284847 -0.28844211 0.060211658 50 25
0.82571912 -0.40331322 0.041226331 9 24
0.83318663 -0.28216931 0.019613121 39 23
0.82202387 -0.40167525 0 47 22
0.85441089 -0.28962362 -0.020135364 53 21
0.82781917 -0.40470359 -0.041342791 54 20
0.85739517 -0.29063261 -0.060254876 8 19
0.804627 -0.39674574 0.19953316 84 30
0.83927977 -0.28604808 0.16433764 11 29
0.80237114 -0.39529824 0.13444801 11 28
0.83140945 -0.28417385 0.10299993 8 27
0.81042337 -0.39930379 0.083019085 46 26
0.84947455 -0.29061648 0.060038138 59 25
0.82878119 -0.40841147 0.041459247 9 24
0.83687991 -0.28682879 0.019729175 21 23
0.82509607 -0.40676382 0 49 22
0.85339469 -0.29260433 -0.020135364 53 21
0.82633036 -0.40773499 -0.041342791 51 20
0.8540141 -0.2928212 -0.060082223 8 19
0.8053453 -0.40078276 0.20009682 83 30
0.83358008 -0.28753445 0.16339043 12 29
0.80312574 -0.39934161 0.13483436 9 28
0.82566732 -0.2856099 0.10239404 8 27
0.81563133 -0.40561208 0.083732717 21 26
0.84604472 -0.2929185 0.059864614 63 25
0.83174533 -0.41368118 0.041692164 11 24
0.83823735 -0.29056036 0.019787202 13 23
0.81912851 -0.40754718 0 50 22
0.85231656 -0.29573017 -0.020135364 50 21
0.82490206 -0.41061696 -0.041342791 51 20
0.85057664 -0.29513818 -0.059909575 8 19
0.80394137 -0.40359151 0.20009682 85 30
0.84185141 -0.29365051 0.16528483 11 29
0.79952186 -0.40102971 0.13444801 11 28
0.82466537 -0.28849027 0.10239404 8 27
0.81421047 -0.40845671 0.083732717 8 26
0.8497293 -0.29750544 0.060211658 60 25
0.82360798 -0.4132064 0.041342791 9 24
0.84430057 -0.29594544 0.019961281 11 23
0.81993258 -0.41153079 0 49 22
0.84183657 -0.29541904 -0.019903254 39 21
0.82346368 -0.4134939 -0.041342791 51 20
0.86131918 -0.3022024 -0.060772825 9 19
0.80903822 -0.40971261 0.20178777 81 30
0.82923526 -0.2925368 0.16291684 12 29
0.80912292 -0.409421 0.13637973 11 28
