# .PCD v0.7 - Point Cloud Data file format
VERSION 0.7
FIELDS x y z intensity ring
SIZE 4 4 4 4 2
TYPE F F F F U
COUNT 1 1 1 1 1
WIDTH 1199
HEIGHT 1
VIEWPOINT 0 0 0 1 0 0 0
POINTS 1199
DATA ascii
0.91987294 -0.068409882 0 8 22
0.92139024 -0.068688102 -0.041459247 64 20
0.92621082 -0.069540679 -0.080250688 9 18
0.8967033 -0.069604114 0.13522071 8 28
0.90074307 -0.069939949 0.083019085 49 26
0.90125549 -0.069987111 0.040527578 51 24
0.91215259 -0.071020231 0 9 22
0.9211449 -0.071903937 -0.041459247 64 20
0.92099875 -0.072371349 -0.079803608 4 18
0.89645487 -0.072733767 0.13522071 11 28
0.90298623 -0.073133484 0.08325696 53 26
0.9034943 -0.073340751 0.040644038 49 24
0.91688168 -0.074621335 0 12 22
0.9159112 -0.074700959 -0.041226331 63 20
0.92323482 -0.075634308 -0.080027148 7 18
0.88882673 -0.075064167 0.13406166 11 28
0.9027254 -0.076285042 0.08325696 56 26
0.9032461 -0.076336436 0.040644038 45 24
0.91164804 -0.077227369 0 11 22
0.91814637 -0.077955037 -0.041342791 62 20
0.92544568 -0.079074427 -0.080250688 4 18
0.88363945 -0.077721149 0.13328896 14 28
0.89501804 -0.078762911 0.082543328 60 26
0.91043556 -0.080163993 0.040993415 16 24
0.9113729 -0.080409139 0 12 22
0.91288042 -0.080867015 -0.041109871 59 20
0.92764366 -0.082530886 -0.080474228 4 18
0.89564401 -0.082117252 0.13522071 24 28
0.89967871 -0.082509458 0.083019085 58 26
0.90516305 -0.083032072 0.040760498 9 24
0.9085831 -0.083514109 0 16 22
0.91010642 -0.083818056 -0.040993415 54 20
0.9273349 -0.085930325 -0.080474228 7 18
0.88797724 -0.084522635 0.13406166 24 28
0.89938527 -0.085649423 0.083019085 56 26
0.90486771 -0.086191177 0.040760498 8 24
0.90330994 -0.086198106 0 21 22
0.90483755 -0.08650703 -0.040760498 51 20
0.92702937 -0.089166798 -0.080474228 8 18
0.88523459 -0.087218486 0.13367532 26 28
0.89414418 -0.088131025 0.082543328 59 26
0.89960766 -0.088689223 0.040527578 8 24
0.89804447 -0.088689573 0 50 22
0.90454566 -0.08950711 -0.040760498 51 20
0.91434276 -0.090977982 -0.079356529 11 18
0.88983792 -0.090821795 0.13444801 30 28
0.89383107 -0.091251642 0.082543328 56 26
0.90177631 -0.09208864 0.040644038 7 24
0.90270221 -0.092344694 0 59 22
0.90421164 -0.092821829 -0.040760498 51 20
0.9264009 -0.09547478 -0.080474228 11 18
0.88704342 -0.093816705 0.13406166 34 28
0.88606799 -0.093723342 0.081829697 58 26
0.89646715 -0.09485551 0.040411122 8 24
0.90235764 -0.095652647 0 63 22
0.90636468 -0.096247256 -0.040876955 49 20
0.9161436 -0.097788706 -0.079580069 12 18
0.86952782 -0.094991215 0.13135725 43 28
0.89068198 -0.097368829 0.082305454 53 26
0.9010942 -0.098539196 0.040644038 8 24
0.90201825 -0.098801881 0 63 22
0.9060232 -0.099410467 -0.040876955 22 20
0.92074537 -0.10154375 -0.080027148 16 18
0.86919099 -0.098025858 0.13135725 64 28
0.8928265 -0.10060664 0.082543328 53 26
0.89330232 -0.10082551 0.040294662 9 24
0.90663487 -0.10252373 0 60 22
0.90815145 -0.10285951 -0.040993415 9 20
0.90556329 -0.10287417 -0.078685917 20 18
0.87131381 -0.10119883 0.1317436 75 28
0.88505596 -0.10284246 0.081829697 51 26
0.89792281 -0.10437603 0.040527578 11 24
0.90132487 -0.10493939 0 64 22
0.90036601 -0.10498472 -0.040644038 8 20
0.91014338 -0.10662592 -0.079132989 37 18
0.86360013 -0.10334048 0.13058455 80 28
0.88716179 -0.10623325 0.082067572 51 26
0.89755291 -0.10750973 0.040527578 11 24
0.90343457 -0.10838877 0 60 22
0.9024539 -0.10858836 -0.040760498 8 20
0.90235168 -0.10888932 -0.078462377 51 18
0.85831439 -0.10588761 0.12981187 81 28
0.88676655 -0.10948414 0.082067572 39 26
0.8946752 -0.11048657 0.040411122 11 24
0.89807057 -0.11107349 0 62 22
0.90454692 -0.11205084 -0.040876955 8 20
0.90935707 -0.11313599 -0.079132989 62 18
0.85793954 -0.10888304 0.12981187 80 28
0.88393044 -0.11210494 0.081829697 28 26
0.8918075 -0.11328813 0.040294662 12 24
0.90015656 -0.11452922 0 55 22
0.89672089 -0.1142427 -0.040527578 9 20
0.90650779 -0.11582934 -0.078909449 66 18
0.86491907 -0.11270363 0.13097091 84 28
0.9257825 -0.0010041379 0.1087558 9 27
0.88846773 -0.11584543 0.082305454 21 26
0.8889513 -0.11591584 0.040178202 12 24
0.8898592 -0.11619451 0 56 22
0.89881247 -0.11754555 -0.040644038 9 20
0.91103393 -0.11965328 -0.079356529 64 18
0.86452037 -0.11572208 0.13097091 76 28
0.91088402 -0.0042071301 0.10693816 16 27
0.88805789 -0.11894607 0.082305454 20 26
0.89349002 -0.11969343 0.040411122 39 24
0.88944811 -0.11929999 0 53 22
0.90087098 -0.12102076 -0.040760498 11 20
0.90814394 -0.12249388 -0.079132989 66 18
0.85921901 -0.11805417 0.13019821 76 28
0.91582674 -0.0074135358 0.10754404 42 27
0.89256662 -0.12273537 0.082781211 21 26
0.88317412 -0.1214265 0.039945286 47 24
0.88407475 -0.12170988 0 53 22
0.90291601 -0.12451178 -0.040876955 12 20
0.90771073 -0.12566315 -0.079132989 64 18
0.86611503 -0.12225687 0.13135725 67 28
0.91827494 -0.010792681 0.10784698 47 27
0.88964742 -0.12565187 0.082543328 28 26
0.93016499 -0.011219229 0.062293906 11 25
0.8777793 -0.12395203 0.039712369 51 24
0.88857168 -0.12566164 0 50 22
0.89256662 -0.12639555 -0.040411122 13 20
0.90970838 -0.12934566 -0.079356529 62 18
0.8607958 -0.1245595 0.13058455 71 28
0.92071301 -0.014029177 0.10814992 51 27
0.87691504 -0.12679005 0.08135394 34 26
0.92762643 -0.014433833 0.062120385 9 25
0.87734127 -0.12701529 0.039712369 51 24
0.89060098 -0.12912735 0 37 22
0.89459044 -0.12987524 -0.040527578 13 20
0.90434825 -0.13163245 -0.078909449 63 18
0.86526281 -0.12814945 0.13135725 63 28
0.92314273 -0.017121706 0.10845286 50 27
0.88138884 -0.13059199 0.081829697 39 26
0.92757344 -0.017509874 0.062120385 38 25
0.87444592 -0.12955184 0.039595909 51 24
0.88769579 -0.131707 0 24 22
0.89168561 -0.13246809 -0.040411122 14 20
0.90880698 -0.13553479 -0.079356529 56 18
0.85992801 -0.13041583 0.13058455 64 28
0.91563404 -0.020199753 0.10754404 50 27
0.8710894 -0.13215005 0.080878191 45 26
0.93498713 -0.020895153 0.06264095 43 25
0.87152028 -0.13222268 0.039479453 50 24
0.94190729 -0.021518962 0.021063795 11 23
0.8921721 -0.13556804 0 16 22
0.88872617 -0.13535334 -0.040294662 16 20
0.90340722 -0.13794273 -0.078909449 53 18
0.85456491 -0.13279568 0.12981187 72 28
0.91555381 -0.023555584 0.10754404 50 27
0.87551552 -0.13611877 0.08135394 49 26
0.93490428 -0.024321912 0.06264095 45 25
0.87596309 -0.13619567 0.039712369 45 24
0.93433052 -0.024628742 0.020889714 9 23
0.87932271 -0.13688383 0 14 22
0.89071482 -0.1388454 -0.040411122 41 20
0.89797735 -0.14047132 -0.078462377 51 18
0.86384946 -0.13735405 0.13135725 49 28
0.91794676 -0.026817145 0.10784698 49 27
0.87012148 -0.13837999 0.080878191 50 26
0.93232059 -0.027518163 0.062467426 45 25
0.880413 -0.14004932 0.039945286 39 24
0.93174046 -0.027821973 0.020831687 37 23
0.88130742 -0.14035167 0 14 22
0.880364 -0.14035666 -0.039945286 50 20
0.8974815 -0.14360502 -0.078462377 50 18
0.85117996 -0.13835581 0.12942553 41 28
0.91040617 -0.029797759 0.10693816 49 27
0.86963314 -0.14141643 0.080878191 50 26
0.92972606 -0.030696673 0.062293906 24 25
0.87745488 -0.14271469 0.039828826 33 24
0.92913955 -0.030997423 0.02077366 46 23
0.88081217 -0.14342715 0 13 22
0.92912865 -0.031321753 -0.02077366 9 21
0.87986869 -0.14342885 -0.039945286 53 20
0.89943105 -0.1471449 -0.078685917 49 18
0.85556293 -0.14214826 0.13019821 38 28
0.91277683 -0.033058632 0.1072411 49 27
0.86913419 -0.14445116 0.080878191 50 26
0.92213565 -0.033688556 0.061773345 25 25
0.87941378 -0.14619231 0.039945286 25 24
0.92902565 -0.03424054 0.02077366 47 23
0.87291098 -0.14525141 0 21 22
0.92651582 -0.034478474 -0.020715633 9 21
0.88921201 -0.14816517 -0.040411122 53 20
0.89154726 -0.14903399 -0.078015298 30 18
0.84775925 -0.14387518 0.12903918 34 28
0.91265583 -0.036244616 0.1072411 46 27
0.86374533 -0.14648791 0.080402434 50 26
0.92201245 -0.036907203 0.061773345 30 25
0.8690542 -0.14756434 0.039479453 24 24
0.92640293 -0.037389033 0.020715633 49 23
0.87486219 -0.14872265 0 22 22
0.93139148 -0.037739992 -0.020831687 38 21
0.88622856 -0.15084314 -0.040294662 51 20
0.89595515 -0.15283899 -0.078462377 12 18
0.86187351 -0.14925145 0.13135725 35 28
0.90261239 -0.038870804 0.10602934 43 27
0.8681308 -0.15036379 0.080878191 29 26
0.92686868 -0.040167283 0.062120385 39 25
0.86856008 -0.15044542 0.039479453 26 24
0.92627382 -0.040460888 0.020715633 49 23
0.87928855 -0.1524895 0 30 22
0.93125397 -0.040990923 -0.020831687 45 21
0.87588573 -0.15204825 -0.039828826 56 20
0.94181353 -0.041434053 -0.062844619 11 19
0.89786822 -0.15639877 -0.078685917 11 18
0.86134732 -0.15225904 0.13135725 42 28
0.90990883 -0.042347305 0.10693816 38 27
0.86760068 -0.15339319 0.080878191 12 26
0.93170595 -0.043622598 0.062467426 43 25
0.87540382 -0.15479918 0.039828826 29 24
0.92112571 -0.043632317 0.020599579 49 23
0.871369 -0.15423231 0 37 22
0.93360209 -0.044353429 -0.020889714 46 21
0.88023818 -0.15614198 -0.040061742 53 20
0.92920554 -0.044162184 -0.061981373 17 19
0.88751495 -0.15776478 -0.077791758 9 18
0.85349482 -0.15407993 0.13019821 46 28
0.90478992 -0.04544647 0.10633228 30 27
0.87437636 -0.15791728 0.081591815 9 26
0.92904872 -0.04691796 0.062293906 47 25
0.86991769 -0.15710674 0.039595909 32 24
0.92346412 -0.046967722 0.020657606 45 23
0.86833882 -0.15697412 0 43 22
0.93093687 -0.047653735 -0.020831687 45 21
0.87968785 -0.15921365 -0.040061742 51 20
0.92903745 -0.047567599 -0.061981373 42 19
0.89182842 -0.16191816 -0.078238837 9 18
0.85537976 -0.15751176 0.13058455 51 28
0.90710413 -0.048730921 0.10663522 28 27
0.86406219 -0.15898991 0.080640309 8 26
0.92887926 -0.050160658 0.062293906 50 25
0.86445433 -0.15922533 0.039362993 53 24
0.91081464 -0.049545623 0.020367472 37 23
0.87024307 -0.16046369 0 46 22
0.92578185 -0.050481576 -0.020715633 21 21
0.87912673 -0.16228335 -0.040061742 53 20
0.92886579 -0.050810255 -0.061981373 47 19
0.88639188 -0.16395691 -0.077791758 9 18
0.84999979 -0.15942432 0.12981187 66 28
0.90445966 -0.051604085 0.10633228 25 27
0.87083638 -0.16340022 0.08135394 8 26
0.92621756 -0.053104479 0.062120385 50 25
0.86882818 -0.16302443 0.039595909 70 24
0.90814984 -0.052428383 0.020309445 26 23
0.86970615 -0.16334863 0 49 22
0.93059093 -0.053989265 -0.020831687 16 21
0.87122428 -0.1637952 -0.039712369 53 20
0.9286921 -0.053890206 -0.061981373 50 19
0.89559704 -0.16891973 -0.078685917 11 18
0.84943813 -0.16239041 0.12981187 71 28
0.89931911 -0.054474358 0.1057264 21 27
0.86293119 -0.16501828 0.080640309 9 26
0.92104709 -0.056047529 0.061773345 53 25
0.87315708 -0.16700664 0.039828826 76 24
0.91543669 -0.056196019 0.020483525 17 23
0.86667645 -0.16590732 0 49 22
0.92041683 -0.056649629 -0.020599579 13 21
0.87306952 -0.16746379 -0.039828826 47 20
0.92600864 -0.056985009 -0.061808724 53 19
0.88278162 -0.16966508 -0.077568218 12 18
0.83914489 -0.16358703 0.1282665 79 28
0.90406722 -0.058074884 0.10633228 22 27
0.86720347 -0.16914503 0.081116065 11 26
0.9233247 -0.059576951 0.061946865 50 25
0.8676393 -0.16923739 0.039595909 79 24
0.90775138 -0.058925565 0.020309445 12 23
0.87096745 -0.17005304 0 25 22
0.92768633 -0.060490936 -0.02077366 16 21
0.86758024 -0.16954026 -0.039595909 43 20
0.92579365 -0.060378619 -0.061808724 51 19
0.88948071 -0.17435427 -0.078238837 13 18
0.90430391 -0.06049107 0.16812639 55 29
0.84583288 -0.16797727 0.12942553 71 28
0.90138268 -0.061069306 0.10602934 43 27
0.86419797 -0.17152922 0.080878191 12 26
0.92559975 -0.062962264 0.062120385 50 25
0.86704332 -0.17226499 0.039595909 81 24
0.91252804 -0.062421653 0.020425498 11 23
0.8728193 -0.17358597 0 11 22
0.91251713 -0.062580913 -0.020425498 26 21
0.86943108 -0.17306124 -0.039712369 39 20
0.91811132 -0.06311661 -0.061290774 53 19
0.88645697 -0.17680991 -0.078015298 17 18
0.89675093 -0.062993772 0.16670561 59 29
0.84527123 -0.17078124 0.12942553 70 28
0.90365094 -0.064227283 0.10633228 50 27
0.863594 -0.1745448 0.080878191 17 26
0.92289782 -0.065860391 0.061946865 47 25
0.86646724 -0.17513925 0.039595909 76 24
0.9098227 -0.065275192 0.020367472 9 23
0.87223887 -0.17647938 0 8 22
0.91977316 -0.066284932 -0.020599579 38 21
0.87129879 -0.17644514 -0.039828826 37 20
0.92287314 -0.06650617 -0.061636072 50 19
0.87851757 -0.17839853 -0.077344678 22 18
0.85719413 -0.17663373 0.19446027 92 30
0.89897412 -0.066297419 0.16717921 60 29
0.84950608 -0.17473841 0.13019821 66 28
0.90094602 -0.067203365 0.10602934 55 27
0.86054307 -0.17705058 0.080640309 29 26
0.91519976 -0.068542659 0.061426304 47 25
0.86585063 -0.17816272 0.039595909 74 24
0.91207004 -0.068790719 0.020425498 9 23
0.86672288 -0.17850222 0 7 22
0.92202878 -0.069676876 -0.020657606 46 21
0.8730908 -0.18014811 -0.039945286 53 20
0.91517305 -0.069183134 -0.061118122 51 19
0.87301505 -0.18044396 -0.076897591 25 18
0.84224665 -0.17673595 0.19107836 91 30
0.89382929 -0.069226347 0.16623202 63 29
0.836779 -0.17528738 0.1282665 46 28
0.9031682 -0.070691973 0.10633228 64 27
0.85258502 -0.17865373 0.079926684 30 26
0.91245556 -0.071707845 0.061252784 21 25
0.86030602 -0.1802983 0.039362993 72 24
0.91182435 -0.071974024 0.020425498 12 23
0.87095368 -0.18271643 0 7 22
0.91927528 -0.072864935 -0.020599579 49 21
0.87489933 -0.18371388 -0.040061742 64 20
0.91242659 -0.072346464 -0.060945474 51 19
0.8747831 -0.1841615 -0.077121131 28 18
0.84400517 -0.18018956 0.19164202 90 30
0.89602941 -0.072537288 0.16670561 70 29
0.84581953 -0.18029171 0.12981187 24 28
0.90538985 -0.074039757 0.10663522 63 27
0.85682154 -0.18267886 0.080402434 34 26
0.91717201 -0.07528729 0.061599825 12 25
0.85967141 -0.18330024 0.039362993 70 24
0.90160191 -0.07436163 0.020193391 12 23
0.86786693 -0.18522762 0 8 22
0.92150664 -0.076272935 -0.020657606 51 21
0.87669361 -0.18729447 -0.040178202 71 20
0.9221127 -0.0763276 -0.061636072 46 19
0.87170148 -0.18668647 -0.076897591 42 18
0.84337109 -0.18313462 0.19164202 90 30
0.88598442 -0.074865147 0.16481122 72 29
0.84518504 -0.18324307 0.12981187 14 28
0.89770639 -0.076587103 0.1057264 67 27
0.84405661 -0.18285352 0.079213053 37 26
0.90944725 -0.077870093 0.061079264 9 25
0.85414797 -0.18522912 0.039130077 63 24
0.90133691 -0.077508353 0.020193391 14 23
0.86477333 -0.18771951 0 9 22
0.92373931 -0.079536177 -0.020715633 51 21
0.87847358 -0.19088982 -0.040294662 74 20
0.91438466 -0.078922421 -0.061118122 37 19
0.87837279 -0.19118272 -0.077568218 55 18
0.83087373 -0.1832758 0.18882374 91 30
0.89062315 -0.078218699 0.16575842 76 29
0.84216189 -0.18550724 0.12942553 12 28
0.90239239 -0.079988383 0.10633228 63 27
0.85312921 -0.18796515 0.080164559 38 26
0.90172988 -0.080242522 0.060558699 7 25
0.84865415 -0.18697357 0.03889716 60 24
0.90604073 -0.081086323 0.020309445 45 23
0.85682619 -0.18895265 0 9 22
0.92096615 -0.082543612 -0.020657606 51 21
0.87536466 -0.19341032 -0.040178202 72 20
0.90666395 -0.081305996 -0.060600173 29 19
0.88255978 -0.19533569 -0.078015298 66 18
0.84207195 -0.18901795 0.19164202 90 30
0.89033049 -0.08148247 0.16575842 75 29
0.83906764 -0.18804631 0.12903918 12 28
0.89220643 -0.082409434 0.10512052 59 27
0.85728848 -0.19219179 0.080640309 59 26
0.90888149 -0.08421728 0.061079264 7 25
0.85526949 -0.19174007 0.039246533 54 24
0.90575218 -0.084248498 0.020309445 50 23
0.85856581 -0.19264524 0 12 22
0.91816831 -0.08569292 -0.020599579 49 21
0.87711948 -0.19701804 -0.040294662 71 20
0.91132748 -0.08507888 -0.060945474 16 19
0.88183784 -0.19856912 -0.078015298 70 18
0.83903384 -0.19140828 0.19107836 90 30
0.89004064 -0.084589809 0.16575842 76 29
0.83359236 -0.18986449 0.1282665 12 28
0.89191335 -0.085523307 0.10512052 59 27
0.85418731 -0.19462416 0.080402434 79 26
0.90113252 -0.086693056 0.060558699 7 25
0.84729445 -0.19304159 0.03889716 51 24
0.9004758 -0.086942717 0.020193391 59 23
0.85301608 -0.19451712 0 14 22
0.91786355 -0.088897407 -0.020599579 49 21
0.8739931 -0.19951676 -0.040178202 74 20
0.90854198 -0.088025652 -0.060772825 13 19
0.87143582 -0.1994005 -0.077121131 77 18
0.8359893 -0.19377968 0.19051471 90 30
0.88729638 -0.087462127 0.16528483 79 29
0.83532947 -0.19333628 0.12865284 14 28
0.89654958 -0.089113571 0.1057264 53 27
0.85353726 -0.19745566 0.080402434 87 26
0.90082449 -0.089838065 0.060558699 8 25
0.85147852 -0.19713683 0.039130077 50 24
0.90514195 -0.090569735 0.020309445 60 23
0.85233194 -0.19749351 0 22 22
0.91258872 -0.091455482 -0.020483525 22 21
0.8708601 -0.20199609 -0.040061742 75 20
0.90822923 -0.091196522 -0.060772825 12 19
0.87561786 -0.20342807 -0.077568218 75 18
0.84008092 -0.19767894 0.19164202 90 30
0.89188695 -0.090888217 0.16623202 76 29
0.83948976 -0.19724758 0.12942553 20 28
0.89624912 -0.092086151 0.1057264 50 27
0.86252761 -0.20273575 0.08135394 87 26
0.9054845 -0.093322806 0.060905743 8 25
0.85324973 -0.20053683 0.039246533 32 24
0.90483665 -0.093570799 0.020309445 63 23
0.85896873 -0.20205443 0 28 22
0.90729058 -0.094137914 -0.020367472 12 21
0.87018538 -0.20488286 -0.040061742 64 20
0.90792179 -0.094207808 -0.060772825 13 19
0.87248039 -0.20590541 -0.077344678 76 18
0.83701843 -0.20003788 0.19107836 90 30
0.88668042 -0.093499683 0.16528483 79 29
0.83399409 -0.19901767 0.12865284 24 28
0.89098543 -0.094703048 0.10512052 50 27
0.85455716 -0.20399353 0.080640309 90 26
0.90267277 -0.096225321 0.060732223 9 25
0.85254449 -0.20351401 0.039246533 12 24
0.90200174 -0.096627042 0.020251418 63 23
0.84610766 -0.20211653 0 29 22
0.911928 -0.097824268 -0.020483525 11 21
0.86457413 -0.20689644 -0.039828826 62 20
0.9051069 -0.097117081 -0.060600173 25 19
0.87659627 -0.21012239 -0.077791758 71 18
0.83391428 -0.20252337 0.19051471 90 30
0.89121372 -0.097268037 0.16623202 76 29
0.8380568 -0.20324974 0.12942553 32 28
0.88816488 -0.097703472 0.10481758 47 27
0.85138673 -0.20653149 0.080402434 90 26
0.89983428 -0.09926638 0.060558699 11 25
0.85421824 -0.20723221 0.039362993 9 24
0.89420426 -0.098970458 0.020077337 66 23
0.85264498 -0.20700404 0 32 22
0.89913934 -0.099820703 -0.020193391 8 21
0.85899627 -0.20872174 -0.039595909 59 20
0.90970391 -0.10097078 -0.060945474 46 19
0.87582028 -0.21333386 -0.077791758 74 18
0.83556557 -0.20602229 0.19107836 90 30
0.88354862 -0.099574097 0.16481122 75 29
0.83254862 -0.20498046 0.12865284 39 28
0.89275146 -0.1013495 0.10542346 33 27
0.85552728 -0.21055526 0.080878191 85 26
0.90196103 -0.10268219 0.060732223 12 25
0.85348964 -0.21021272 0.039362993 9 24
0.9013052 -0.1029218 0.020251418 62 23
0.85434306 -0.21058345 0 53 22
0.89880341 -0.10280181 -0.020193391 7 21
0.85826242 -0.21171893 -0.039595909 54 20
0.90191019 -0.10331421 -0.060427524 53 19
0.87752384 -0.21684024 -0.078015298 70 18
0.83487773 -0.20879199 0.19107836 90 30
0.88321358 -0.1025035 0.16481122 72 29
0.82467991 -0.20592624 0.1274938 43 28
0.88008249 -0.10290264 0.10390875 21 27
0.85237408 -0.21293108 0.080640309 83 26
0.89665997 -0.10510539 0.060385179 13 25
0.85278791 -0.21304184 0.039362993 9 24
0.89350992 -0.10505478 0.020077337 63 23
0.8560639 -0.21402781 0 71 22
0.90092194 -0.10622456 -0.020251418 7 21
0.85271347 -0.21333949 -0.039362993 53 20
0.90899551 -0.10716055 -0.060945474 59 19
0.87434781 -0.21929039 -0.077791758 71 18
0.8388623 -0.21291558 0.19220567 90 30
0.88772678 -0.10615525 0.16575842 70 29
0.82874143 -0.21002965 0.1282665 45 28
0.88464713 -0.10655399 0.10451463 12 27
0.84680408 -0.21466984 0.080164559 80 26
0.89628762 -0.10823467 0.060385179 16 25
0.85445815 -0.2166371 0.039479453 11 24
0.89808279 -0.10891734 0.020193391 56 23
0.85773319 -0.2176356 0 75 22
0.90550947 -0.10995798 -0.020367472 8 21
0.84950697 -0.21584238 -0.039246533 49 20
0.90366268 -0.10974488 -0.060600173 64 19
0.87357712 -0.22234109 -0.077791758 70 18
0.83807629 -0.21598873 0.19220567 90 30
0.88002038 -0.10852733 0.16433764 67 29
0.82079482 -0.21120043 0.12710746 46 28
0.87193316 -0.10830073 0.10299993 8 27
0.84601164 -0.2177721 0.080164559 74 26
0.89588493 -0.11151901 0.060385179 38 25
0.85849214 -0.22102468 0.039712369 11 24
0.89521623 -0.11174872 0.020135364 53 23
0.85451043 -0.22014815 0 80 22
0.90261954 -0.11297238 -0.020309445 8 21
0.85841495 -0.22132434 -0.039712369 25 20
0.90077889 -0.11275315 -0.060427524 67 19
0.87034702 -0.22491251 -0.077568218 70 18
0.82554305 -0.21580198 0.1893874 87 30
0.87963617 -0.11159852 0.16433764 59 29
0.82721728 -0.21595457 0.1282665 51 28
0.87647462 -0.11195885 0.10360581 7 27
0.84043372 -0.21945417 0.079688802 72 26
0.90291411 -0.1155755 0.060905743 49 25
0.84805679 -0.22147174 0.039246533 12 24
0.88738114 -0.11393836 0.019961281 53 23
0.85131961 -0.2224914 0 79 22
0.90469944 -0.1164348 -0.020367472 9 21
0.8552227 -0.22368149 -0.039595909 12 20
0.90532875 -0.11652021 -0.060772825 64 19
0.86714959 -0.22731189 -0.077344678 72 18
0.82007945 -0.21742159 0.18826009 84 30
0.87437123 -0.11404707 0.16339043 56 29
0.82645839 -0.21884078 0.1282665 90 28
0.87115586 -0.11438529 0.10299993 7 27
0.83729714 -0.22159706 0.079450928 59 26
0.9025051 -0.11872656 0.060905743 54 25
0.84969091 -0.22507615 0.039362993 14 24
0.89193547 -0.11767555 0.020077337 50 23
0.84570789 -0.22416845 0 81 22
0.9018296 -0.11911365 -0.020309445 11 21
0.8520245 -0.22601907 -0.039479453 9 20
0.90244311 -0.11935933 -0.060600173 64 19
0.86879599 -0.23083152 -0.077568218 64 18
0.82170451 -0.22077805 0.18882374 74 30
0.87155426 -0.11662725 0.16291684 54 29
0.82811207 -0.22222655 0.12865284 90 28
0.87815255 -0.11824653 0.10390875 7 27
0.83651847 -0.22451843 0.079450928 58 26
0.899634 -0.12139191 0.060732223 62 25
0.8489399 -0.22789258 0.039362993 24 24
0.89401805 -0.12096107 0.020135364 29 23
0.84978545 -0.22828095 0 75 22
0.90388596 -0.12259015 -0.020367472 11 21
0.85609043 -0.23015191 -0.039712369 8 20
0.90451461 -0.12267983 -0.060772825 62 19
0.87038755 -0.23451646 -0.077791758 63 18
0.81858051 -0.22299859 0.18826009 66 30
0.87357467 -0.11999603 0.16339043 51 29
0.822568 -0.22380652 0.12788014 90 28
0.87773442 -0.12131114 0.10390875 8 27
0.83332998 -0.22677743 0.079213053 54 26
0.89920479 -0.12453148 0.060732223 63 25
0.84091538 -0.22886884 0.039013617 29 24
0.88861579 -0.12356205 0.020019308 13 23
0.84657294 -0.23058283 0 75 22
0.893547 -0.12439296 -0.020135364 13 21
0.86005634 -0.23461446 -0.039945286 8 20
0.90160972 -0.12549925 -0.060600173 63 19
0.8671633 -0.23689118 -0.077568218 67 18
0.82714128 -0.22861731 0.19051471 50 30
0.86340255 -0.12185257 0.16149606 51 29
0.82174224 -0.22681989 0.12788014 90 28
0.87482607 -0.12418544 0.10360581 9 27
0.83009601 -0.2291618 0.078975171 41 26
0.89627224 -0.12748188 0.060558699 64 25
0.84247631 -0.23262013 0.039130077 33 24
0.89312953 -0.12735538 0.020135364 11 23
0.85294616 -0.23569974 0 66 22
0.89803529 -0.12836108 -0.020251418 14 21
0.8544215 -0.23627204 -0.039712369 8 20
0.90114373 -0.12880298 -0.060600173 60 19
0.86868709 -0.24073876 -0.077791758 66 18
0.82399464 -0.23084001 0.18995105 41 30
0.87269366 -0.12624408 0.16339043 43 29
0.82569927 -0.23103029 0.12865284 90 28
0.87930059 -0.12793942 0.10421169 11 27
0.83647573 -0.23408832 0.079688802 24 26
0.89335299 -0.13025655 0.060385179 67 25
0.82964343 -0.23216389 0.038547784 35 24
0.88278341 -0.12905321 0.019903254 8 23
0.84249556 -0.23595454 0 60 22
0.89510792 -0.13113941 -0.020193391 41 21
0.85599458 -0.23993306 -0.039828826 9 20
0.90068859 -0.13194777 -0.060600173 59 19
0.86305034 -0.24241114 -0.077344678 63 18
0.82786644 -0.23505759 0.19107836 41 30
0.86738926 -0.12858342 0.16244325 33 29
0.82013869 -0.23255114 0.12788014 90 28
0.8763932 -0.13064888 0.10390875 13 27
0.84047997 -0.2382303 0.080164559 13 26
0.89289284 -0.13337414 0.060385179 67 25
0.83122873 -0.23574597 0.03866424 35 24
0.88480043 -0.13249728 0.019961281 7 23
0.83926356 -0.23820527 0 58 22
0.90208626 -0.13519841 -0.020367472 51 21
0.85275126 -0.24223122 -0.039712369 11 20
0.89775515 -0.13472746 -0.060427524 54 19
0.85745519 -0.24389741 -0.076897591 58 18
0.81772625 -0.23508514 0.18882374 45 30
0.87909824 -0.13326477 0.16481122 17 29
0.819363 -0.23526955 0.12788014 90 28
0.86368388 -0.13171825 0.10239404 18 27
0.83725309 -0.2404696 0.079926684 12 26
0.89244562 -0.13633434 0.060385179 64 25
0.8376379 -0.24058753 0.039013617 56 24
0.88435614 -0.13543066 0.019961281 7 23
0.84086996 -0.24168372 0 53 22
0.90160882 -0.13834648 -0.020367472 58 21
0.84954506 -0.24436142 -0.039595909 12 20
0.88990492 -0.13658883 -0.059909575 53 19
0.85659856 -0.24688901 -0.076897591 62 18
0.81456399 -0.23725083 0.18826009 47 30
0.86892068 -0.13485414 0.16291684 9 29
0.82090664 -0.23882437 0.1282665 90 28
0.86321884 -0.13473228 0.10239404 24 27
0.83640856 -0.24339072 0.079926684 12 26
0.88456893 -0.13831311 0.059864614 67 25
0.8343969 -0.24280615 0.03889716 77 24
0.87891346 -0.1379098 0.019845227 8 23
0.8328256 -0.24250236 0 53 22
0.89371008 -0.14034963 -0.020193391 67 21
0.8438524 -0.24606332 -0.039362993 16 20
0.88449293 -0.13893382 -0.05956427 32 19
0.85811996 -0.25058144 -0.077121131 59 18
0.81135488 -0.23953895 0.18769644 47 30
0.87569678 -0.13917349 0.16433764 7 29
0.80818945 -0.23830746 0.12633477 90 28
0.8602677 -0.13751043 0.1020911 26 27
0.84028131 -0.24787498 0.080402434 12 26
0.89637458 -0.14349212 0.060732223 58 25
0.84307522 -0.24871317 0.039362993 81 24
0.88089556 -0.1413662 0.019903254 8 23
0.83432716 -0.24626699 0 50 22
0.89318967 -0.14362429 -0.020193391 68 21
0.85256118 -0.25186121 -0.039828826 20 20
0.88890469 -0.14295331 -0.059909575 14 19
0.8619675 -0.25515017 -0.077568218 62 18
0.80585045 -0.24096172 0.18656914 51 30
0.86793345 -0.1410685 0.16291684 9 29
0.81444705 -0.24326633 0.1274938 90 28
0.86958319 -0.14208585 0.10330287 47 27
0.83468902 -0.24922396 0.079926684 13 26
0.89340591 -0.14622404 0.060558699 56 25
0.83741993 -0.25021258 0.039130077 85 24
0.88286412 -0.14483811 0.019961281 9 23
0.83585584 -0.24990001 0 30 22
0.89270848 -0.14658542 -0.020193391 68 21
0.85167676 -0.2548357 -0.039828826 24 20
0.88840026 -0.14605528 -0.059909575 11 19
0.85158271 -0.25512508 -0.076674052 60 18
0.80737621 -0.24434438 0.18713279 90 30
0.87472916 -0.1451309 0.16433764 9 29
0.81127352 -0.24524489 0.12710746 84 28
0.87155616 -0.14537016 0.10360581 58 27
0.82667315 -0.24995697 0.079213053 16 26
0.88553321 -0.1479729 0.060038138 53 25
0.8341971 -0.25225934 0.039013617 84 24
0.87991285 -0.14735892 0.019903254 11 23
0.83741361 -0.25340053 0 11 22
0.88972533 -0.14929375 -0.020135364 70 21
0.84605038 -0.25619909 -0.039595909 25 20
0.89283258 -0.14981264 -0.060254876 8 19
0.85306793 -0.25882491 -0.076897591 59 18
0.80651844 -0.24716115 0.18713279 90 30
0.86937445 -0.14737648 0.16339043 11 29
0.80805254 -0.24734612 0.12672111 81 28
0.87104344 -0.14841157 0.10360581 72 27
0.82341778 -0.2521064 0.078975171 18 26
0.88993031 -0.15188889 0.060385179 50 25
0.83569741 -0.25590691 0.039130077 85 24
0.88183153 -0.15099809 0.019961281 12 23
0.82935858 -0.25410679 0 8 22
0.89166337 -0.15281408 -0.020193391 67 21
0.84272009 -0.25855982 -0.039479453 30 20
0.88246685 -0.15126973 -0.05956427 7 19
0.85215932 -0.26180112 -0.076897591 59 18
0.81257963 -0.25230059 0.18882374 92 30
0.87124842 -0.15097424 0.16386405 12 29
0.80949777 -0.25104395 0.12710746 76 28
0.86560172 -0.15076517 0.10299993 81 27
0.83198833 -0.25809622 0.079926684 22 26
0.87461948 -0.1526181 0.059344053 26 25
0.83475387 -0.25896817 0.039130077 81 24
0.87637275 -0.15322794 0.019845227 13 23
0.82603598 -0.25639763 0 8 22
0.88617122 -0.15523206 -0.020077337 70 21
0.83704644 -0.26000634 -0.039246533 53 20
0.88436431 -0.15492678 -0.059736926 7 19
0.85119402 -0.26492271 -0.076897591 59 18
0.80937243 -0.25439903 0.18826009 95 30
0.87071609 -0.15401454 0.16386405 12 29
0.80861658 -0.25386807 0.12710746 74 28
0.86018121 -0.15293074 0.10239404 84 27
0.82396519 -0.25874382 0.079213053 28 26
0.88145101 -0.15696165 0.059864614 16 25
0.82908356 -0.26037189 0.03889716 80 24
0.86844754 -0.15498927 0.019671148 14 23
0.83466834 -0.26230153 0 8 22
0.89546996 -0.16005701 -0.020309445 63 21
0.84327489 -0.26519188 -0.039595909 64 20
0.8887307 -0.1588773 -0.060082223 7 19
0.85026407 -0.2678923 -0.076897591 58 18
0.80620509 -0.25633743 0.18769644 96 30
0.86053252 -0.15518592 0.16196965 14 29
0.81012237 -0.25730196 0.1274938 39 28
0.8621124 -0.15621799 0.10269699 84 27
0.82784247 -0.26299384 0.079688802 29 26
0.87356043 -0.15856786 0.059344053 12 25
0.83297181 -0.26464412 0.039130077 76 24
0.86546868 -0.15742785 0.019613121 18 23
0.83617455 -0.26583138 0 8 22
0.89247429 -0.1625843 -0.020251418 63 21
0.8447687 -0.2687498 -0.039712369 72 20
0.87837958 -0.16006206 -0.059391622 7 19
0.84937108 -0.27071041 -0.076897591 56 18
0.80530542 -0.25915006 0.18769644 96 30
0.86481655 -0.15906325 0.16291684 22 29
0.8068698 -0.25936624 0.12710746 24 28
0.86400336 -0.15967049 0.10299993 83 27
0.82455212 -0.26511413 0.079450928 30 26
0.87545514 -0.1620634 0.059517574 9 25
0.82729203 -0.26600918 0.03889716 76 24
0.8747201 -0.16239673 0.019845227 47 23
0.82810777 -0.26643339 0 9 22
0.88944286 -0.16524875 -0.020193391 60 21
0.83665287 -0.26952913 -0.039362993 75 20
0.88762873 -0.16492297 -0.060082223 8 19
0.85315669 -0.2752142 -0.077344678 60 18
0.80666399 -0.26286063 0.18826009 95 30
0.85457236 -0.1604476 0.16102245 29 29
0.80356699 -0.26155114 0.12672111 20 28
0.86097246 -0.16238308 0.10269699 83 27
0.82121044 -0.26735798 0.079213053 32 26
0.87485528 -0.16527101 0.059517574 8 25
0.82631147 -0.2690396 0.03889716 74 24
0.86923391 -0.164533 0.019729175 58 23
0.82712567 -0.26946676 0 9 22
0.89128798 -0.1689665 -0.020251418 55 21
0.83570689 -0.27244797 -0.039362993 75 20
0.88456666 -0.16771725 -0.059909575 9 19
0.84504712 -0.27600244 -0.076674052 59 18
0.80111933 -0.26413724 0.18713279 95 30
0.85641932 -0.16388413 0.16149606 32 29
0.80733711 -0.2659122 0.1274938 16 28
0.85796213 -0.16492584 0.10239404 83 27
0.82027215 -0.27022293 0.079213053 39 26
0.88162386 -0.1697181 0.060038138 9 25
0.82299745 -0.27113488 0.0387807 70 24
0.87110966 -0.16803281 0.019787202 67 23
0.82855237 -0.27314103 0 12 22
0.8882376 -0.17160919 -0.020193391 51 21
0.83949006 -0.27693999 -0.039595909 67 20
0.87907577 -0.16987099 -0.05956427 11 19
0.84644085 -0.27973771 -0.076897591 56 18
0.80250078 -0.26770887 0.18769644 90 30
0.85825276 -0.16733551 0.16196965 38 29
0.80172151 -0.26715469 0.12672111 16 28
0.85738117 -0.16791967 0.10239404 79 27
0.8146534 -0.27135649 0.078737296 63 26
0.87368017 -0.17137457 0.059517574 9 25
0.81494457 -0.2716189 0.038431324 67 24
0.8656103 -0.17012216 0.019671148 74 23
0.82759386 -0.27603158 0 13 22
0.89011723 -0.17502935 -0.020251418 26 21
0.83851826 -0.27986866 -0.039595909 71 20
0.88337421 -0.17388855 -0.059909575 12 19
0.85022789 -0.28413317 -0.077344678 58 18
0.80391449 -0.27115315 0.18826009 90 30
0.84805661 -0.16829704 0.16007526 51 29
0.80784708 -0.27219611 0.12788014 16 28
0.85681963 -0.17076194 0.10239404 72 27
0.82077014 -0.27660084 0.079450928 75 26
0.88044828 -0.17571515 0.060038138 9 25
0.81876838 -0.27592698 0.03866424 64 24
0.86994576 -0.17395835 0.019787202 71 23
0.82904088 -0.27957928 0 16 22
0.88459694 -0.17716703 -0.020135364 14 21
0.83522135 -0.28184336 -0.039479453 67 20
0.87300551 -0.17488438 -0.059218969 13 19
0.79605383 -0.27157998 0.18656914 90 30
0.85227895 -0.1722149 0.16102245 62 29
0.80922782 -0.27581728 0.1282665 20 28
0.85378498 -0.17326508 0.1020911 67 27
0.82215321 -0.28027317 0.079688802 76 26
0.87493879 -0.17780747 0.059691094 11 25
0.82488519 -0.28121871 0.039013617 50 24
0.86685193 -0.17665337 0.019729175 72 23
0.81623948 -0.27840599 0 22 22
0.88642335 -0.1807465 -0.020193391 11 21
0.8318215 -0.28408971 -0.039362993 64 20
0.87727988 -0.17891404 -0.05956427 22 19
0.79965341 -0.27609786 0.18769644 90 30
0.85645342 -0.17631377 0.16196965 76 29
0.80121285 -0.27634698 0.12710746 24 28
0.8555758 -0.17688878 0.10239404 66 27
0.82347083 -0.28410223 0.079926684 76 26
0.87428117 -0.18101311 0.059691094 11 25
0.81913161 -0.2825993 0.0387807 33 24
0.86623007 -0.17967819 0.019729175 74 23
0.81993574 -0.28303933 0 24 22
0.880858 -0.18299077 -0.020077337 9 21
0.82610804 -0.28534904 -0.039130077 62 20
0.86928844 -0.1806263 -0.059046321 51 19
0.80098212 -0.27969649 0.18826009 90 30
0.8606407 -0.18029532 0.16291684 81 29
0.80257338 -0.27996168 0.1274938 26 28
0.85009342 -0.17886607 0.10178816 66 27
0.81782866 -0.2851806 0.079450928 75 26
0.86631858 -0.18254144 0.059170533 12 25
0.8299191 -0.28960025 0.039362993 22 24
0.86315072 -0.18219139 0.019671148 70 23
0.81894284 -0.28589967 0 25 22
0.8802464 -0.18591079 -0.020077337 8 21
0.82981795 -0.28988993 -0.039362993 58 20
0.87841868 -0.18569626 -0.059736926 55 19
0.8000502 -0.28235111 0.18826009 90 30
0.85763574 -0.18264383 0.16244325 85 29
0.79931331 -0.28179422 0.12710746 29 28
0.85435194 -0.18270835 0.10239404 37 27
0.80979359 -0.2855328 0.078737296 74 26
0.86082834 -0.18438217 0.058823492 13 25
0.81954211 -0.28900483 0.03889716 21 24
0.86254179 -0.18505269 0.019671148 68 23
0.8227011 -0.29028943 0 43 22
0.87959206 -0.18898229 -0.020077337 8 21
0.81944108 -0.2892909 -0.03889716 54 20
0.87779808 -0.18860818 -0.059736926 66 19
0.79905981 -0.28514206 0.18826009 90 30
0.85459244 -0.18512353 0.16196965 81 29
0.80297351 -0.28625354 0.12788014 33 28
0.8512826 -0.18516889 0.1020911 30 27
0.81581777 -0.29088315 0.079450928 71 26
0.86749429 -0.18895808 0.059344053 13 25
0.82087839 -0.29270852 0.039013617 16 24
0.86185771 -0.18821283 0.019671148 66 23
0.81933028 -0.29231343 0 67 22
0.87159753 -0.19047081 -0.019903254 9 21
0.81837529 -0.29229236 -0.03889716 53 20
0.87713438 -0.19167112 -0.059736926 68 19
0.79800928 -0.28806889 0.18826009 42 30
0.8491109 -0.18721119 0.16102245 83 29
0.79959768 -0.2883507 0.1274938 34 28
0.84574932 -0.18722875 0.10148522 22 27
0.8147462 -0.29387131 0.079450928 70 26
0.86435956 -0.19160333 0.059170533 14 25
0.81745297 -0.29486191 0.03889716 14 24
0.85631269 -0.19015014 0.019555094 64 23
0.82530153 -0.29787838 0 70 22
0.87333477 -0.19419995 -0.019961281 9 21
0.81969678 -0.29600137 -0.039013617 51 20
0.87642598 -0.19488469 -0.059736926 70 19
0.7901414 -0.28832963 0.18656914 26 30
0.84845221 -0.19017398 0.16102245 79 29
0.79394948 -0.28943589 0.12672111 34 28
0.85235828 -0.19179371 0.10239404 17 27
0.81137949 -0.29585499 0.079213053 71 26
0.86855447 -0.19570234 0.059517574 43 25
0.81641877 -0.29771355 0.03889716 18 24
0.85320425 -0.19259457 0.019497067 63 23
0.82191032 -0.29989457 0 75 22
0.8702122 -0.19670291 -0.019903254 9 21
0.82803321 -0.30231005 -0.039479453 32 20
0.86843789 -0.19631317 -0.059218969 72 19
0.79369587 -0.29278395 0.18769644 18 30
0.85017818 -0.1936729 0.16149606 70 29
0.7998805 -0.29478604 0.12788014 33 28
0.85168362 -0.1947678 0.10239404 13 27
0.81039399 -0.29854399 0.079213053 71 26
0.87273109 -0.19983295 0.059864614 50 25
0.82473844 -0.30404022 0.039362993 21 24
0.85983956 -0.1972277 0.019671148 55 23
0.82085848 -0.30276173 0 75 22
0.86955512 -0.19958754 -0.019903254 11 21
0.82463229 -0.30432808 -0.039362993 12 20
0.87017953 -0.1998951 -0.059391622 68 19
0.79044056 -0.29455781 0.18713279 16 30
0.83995861 -0.19430573 0.15960167 71 29
0.79427361 -0.29570124 0.12710746 43 28
0.84861422 -0.19703661 0.1020911 13 27
0.81167692 -0.30224535 0.079450928 67 26
0.86477149 -0.20105177 0.059344053 55 25
0.81671149 -0.30414122 0.039013617 21 24
0.85430926 -0.19895774 0.019555094 56 23
0.8151691 -0.30372456 0 75 22
0.87372434 -0.20374356 -0.020019308 11 21
0.82128084 -0.3061828 -0.039246533 9 20
0.87194234 -0.20333937 -0.05956427 68 19
0.79168457 -0.29817969 0.18769644 13 30
0.84405768 -0.19834593 0.16054887 62 29
0.78399873 -0.2949684 0.12556209 83 28
0.85517198 -0.20168623 0.10299993 13 27
0.80363625 -0.30242926 0.078737296 56 26
0.86649323 -0.20463569 0.059517574 56 25
0.82031488 -0.30876142 0.039246533 18 24
0.85114062 -0.2015186 0.019497067 29 23
0.81877863 -0.30834207 0 71 22
0.86814058 -0.20565328 -0.019903254 12 21
0.82248759 -0.31007767 -0.039362993 8 20
0.86879879 -0.20581356 -0.059391622 67 19
0.79740793 -0.30369788 0.1893874 20 30
0.84332508 -0.20143825 0.16054887 56 29
0.78983098 -0.30049297 0.12672111 88 28
0.84718257 -0.20310406 0.1020911 21 27
0.80484599 -0.30626372 0.078975171 50 26
0.85603064 -0.20550846 0.058823492 63 25
0.82150936 -0.31266007 0.039362993 16 24
0.84800035 -0.20391089 0.01943904 20 23
0.81530893 -0.31044546 0 74 22
0.86981249 -0.20941216 -0.019961281 13 21
0.82839441 -0.31563163 -0.039712369 8 20
0.87046492 -0.20957361 -0.05956427 66 19
0.78725988 -0.30295637 0.18713279 22 30
0.84022963 -0.20380898 0.16007526 53 29
0.7841711 -0.30146337 0.12594843 90 28
0.8416428 -0.20489973 0.10148522 28 27
0.81310874 -0.31252596 0.079926684 43 26
0.86500669 -0.2108309 0.059517574 51 25
0.81575584 -0.31372121 0.039130077 13 24
0.84728342 -0.20686972 0.01943904 14 23
0.81888223 -0.31509686 0 70 22
0.87154281 -0.21288185 -0.020019308 14 21
0.82030278 -0.31581211 -0.039362993 9 20
0.87215239 -0.21319644 -0.059736926 64 19
0.7930544 -0.30823025 0.18882374 24 30
0.83477849 -0.20543474 0.15912808 51 29
0.78546721 -0.30496213 0.12633477 90 28
0.84578049 -0.2088659 0.1020911 34 27
0.80737787 -0.31354868 0.079450928 51 26
0.86188012 -0.21310626 0.059344053 46 25
0.81703657 -0.31733465 0.039246533 14 24
0.8635866 -0.21383663 0.019845227 11 23
0.81317687 -0.31598788 0 64 22
0.86593944 -0.21473297 -0.019903254 46 21
0.82622683 -0.32126296 -0.039712369 9 20
0.8617512 -0.21371284 -0.059046321 60 19
0.78744417 -0.30920425 0.18769644 30 30
0.8459726 -0.21128754 0.16149606 39 29
0.7843979 -0.30770206 0.12633477 89 28
0.84022856 -0.21062382 0.10148522 42 27
0.81090719 -0.31819487 0.079926684 68 26
0.85386908 -0.21431233 0.058823492 39 25
0.8182463 -0.32110274 0.039362993 22 24
0.8579461 -0.2157945 0.019729175 11 23
0.80974424 -0.31790495 0 63 22
0.8603338 -0.21654762 -0.019787202 51 21
0.81343418 -0.31969252 -0.039130077 11 20
0.86584044 -0.21792381 -0.059391622 54 19
0.78856707 -0.31299281 0.18826009 37 30
0.83804929 -0.21259651 0.16007526 29 29
0.78785217 -0.31240791 0.12710746 88 28
0.84667081 -0.21551816 0.10239404 45 27
0.80511343 -0.31931809 0.079450928 74 26
0.85065943 -0.21683121 0.058649972 32 25
0.81474489 -0.32317305 0.039246533 34 24
0.85961097 -0.21939942 0.019787202 11 23
0.81321633 -0.32272673 0 63 22
0.86680382 -0.22153622 -0.019961281 56 21
0.814632 -0.32345742 -0.039246533 11 20
0.86745399 -0.22170676 -0.05956427 46 19
0.78746969 -0.31574348 0.18826009 32 30
0.83968109 -0.21612561 0.16054887 13 29
0.78217596 -0.3133072 0.12633477 85 28
0.84110439 -0.21724471 0.10178816 47 27
0.80630171 -0.32305795 0.079688802 79 26
0.85714614 -0.22165233 0.059170533 24 25
0.81592762 -0.32694975 0.039362993 34 24
0.85399741 -0.22115894 0.019671148 12 23
0.80744863 -0.32369116 0 63 22
0.86602521 -0.22456057 -0.019961281 63 21
0.81349802 -0.32629904 -0.039246533 12 20
0.86909068 -0.22535279 -0.059736926 24 19
0.78410769 -0.31757009 0.18769644 35 30
0.83892149 -0.21905532 0.16054887 9 29
0.78107756 -0.31603557 0.12633477 84 28
0.84034097 -0.22017939 0.10178816 50 27
0.80522597 -0.32573 0.079688802 81 26
0.84671086 -0.22213848 0.058476452 21 25
0.80784392 -0.3269676 0.039013617 28 24
0.85563928 -0.22476691 0.019729175 12 23
0.80168408 -0.32461935 0 70 22
0.8676948 -0.22805993 -0.020019308 63 21
0.81235409 -0.3291367 -0.039246533 13 20
0.85864389 -0.22587381 -0.059046321 14 19
0.7830503 -0.32016852 0.18769644 35 30
0.84531492 -0.22369984 0.16196965 7 29
0.78002524 -0.31862399 0.12633477 80 28
0.83720595 -0.22233471 0.10148522 39 27
0.80178267 -0.3275916 0.079450928 83 26
0.8435576 -0.22431095 0.058302931 17 25
0.81830192 -0.33439684 0.039595909 12 24
0.84522134 -0.22505775 0.019497067 12 23
0.80522662 -0.32917976 0 58 22
0.86205995 -0.22981301 -0.019903254 66 21
0.8228032 -0.33658493 -0.039828826 14 20
0.8627134 -0.22999159 -0.059391622 12 19
0.78867418 -0.32570672 0.1893874 38 30
0.83978367 -0.22539011 0.16102245 9 29
0.78118908 -0.32229283 0.12672111 79 28
0.83642471 -0.22525574 0.10148522 29 27
0.80293232 -0.33134356 0.079688802 80 26
0.84276944 -0.22725414 0.058302931 16 25
0.81482363 -0.33629274 0.039479453 11 24
0.84197628 -0.22750896 0.01943904 13 23
0.80176437 -0.33102858 0 34 22
0.86366701 -0.23346636 -0.019961281 63 21
0.81234193 -0.33575961 -0.039362993 18 20
0.86190534 -0.2330016 -0.059391622 9 19
0.78972042 -0.32953903 0.18995105 47 30
0.84369254 -0.229743 0.16196965 9 29
0.77772528 -0.32419753 0.12633477 66 28
0.8403849 -0.2296145 0.1020911 17 27
0.80171251 -0.33428422 0.079688802 81 26
0.8443383 -0.23099287 0.058476452 17 25
0.80667812 -0.33637616 0.039130077 11 24
0.84358925 -0.2311002 0.019497067 21 23
0.79593605 -0.33202821 0 28 22
0.86521763 -0.23728473 -0.020019308 60 21
0.81576931 -0.34052867 -0.039595909 17 20
0.86104554 -0.23615909 -0.059391622 8 19
0.78183931 -0.32943866 0.18826009 90 30
0.83814931 -0.23139367 0.16102245 9 29
0.77886277 -0.3278746 0.12672111 53 28
0.83479148 -0.23123525 0.10148522 12 27
0.79830819 -0.33596975 0.079450928 80 26
0.84352684 -0.23393877 0.058476452 41 25
0.81009722 -0.34113985 0.039362993 9 24
0.83795732 -0.23271942 0.019381013 30 23
0.79477215 -0.33480451 0 30 22
0.86442596 -0.24015261 -0.020019308 60 21
0.80767941 -0.34044686 -0.039246533 42 20
0.85540646 -0.23784034 -0.059046321 9 19
0.78298134 -0.33298862 0.18882374 90 30
0.84684098 -0.23678915 0.16291684 11 29
0.78458357 -0.33337113 0.12788014 50 28
0.8316288 -0.23333867 0.10118228 9 27
0.79484272 -0.33777511 0.079213053 79 26
0.84514922 -0.23740245 0.058649972 51 25
0.81355327 -0.34578952 0.039595909 9 24
0.84199667 -0.23683694 0.019497067 38 23
0.79825383 -0.33940637 0 37 22
0.86117482 -0.24249771 -0.019961281 62 21
0.80195493 -0.34115657 -0.039013617 56 20
0.8498081 -0.23933679 -0.05870102 8 19
0.77734327 -0.33378589 0.18769644 90 30
0.8341912 -0.23643073 0.16054887 12 29
0.77661294 -0.33316854 0.12672111 43 28
0.8308093 -0.23624018 0.10118228 9 27
0.79137427 -0.33956039 0.078975171 72 26
0.84911656 -0.24170339 0.058997013 59 25
0.80546409 -0.34565547 0.039246533 11 24
0.83631223 -0.23856375 0.019381013 46 23
0.79706424 -0.34219071 0 43 22
0.86032313 -0.24550229 -0.019961281 55 21
0.80299109 -0.34508535 -0.039130077 66 20
0.85376781 -0.24365735 -0.059046321 9 19
0.77834654 -0.33760783 0.18826009 90 30
0.83095789 -0.23881537 0.16007526 13 29
0.77991414 -0.33798882 0.1274938 66 28
0.83709705 -0.24132571 0.1020911 9 27
0.79012442 -0.34245867 0.078975171 60 26
0.84342885 -0.24344407 0.058649972 71 25
0.80648053 -0.34960428 0.039362993 11 24
0.83787745 -0.24216881 0.01943904 29 23
0.7958048 -0.34510982 0 50 22
0.84980655 -0.24590158 -0.019729175 60 21
0.80407006 -0.34888601 -0.039246533 70 20
0.84807366 -0.24541168 -0.05870102 9 19
0.77716339 -0.3403227 0.18826009 90 30
0.83955443 -0.24443246 0.16196965 12 29
0.77420902 -0.33871728 0.12672111 90 28
0.83386552 -0.24355724 0.10178816 9 27
0.79126197 -0.34608001 0.079213053 58 26
0.84736526 -0.24777327 0.058997013 72 25
0.80296999 -0.35141036 0.039246533 12 24
0.83702695 -0.24509208 0.01943904 18 23
0.79688275 -0.34889406 0 58 22
0.8561877 -0.25080639 -0.019903254 54 21
0.80284727 -0.35169062 -0.039246533 67 20
0.85439759 -0.25045547 -0.059218969 9 19
0.77603054 -0.34289801 0.18826009 90 30
0.83166963 -0.24515325 0.16054887 12 29
0.77308148 -0.34128278 0.12672111 90 28
0.83305335 -0.2463211 0.10178816 9 27
0.78777504 -0.34782889 0.078975171 54 26
0.8441456 -0.24988067 0.058823492 74 25
0.80864602 -0.35711479 0.039595909 12 24
0.83620965 -0.24786639 0.01943904 13 23
0.79343724 -0.35051864 0 67 22
0.85530704 -0.25379354 -0.019903254 53 21
0.80395812 -0.35536638 -0.039362993 67 20
0.84638357 -0.25117862 -0.05870102 11 19
0.77705061 -0.34660283 0.18882374 90 30
0.82845467 -0.24735931 0.16007526 13 29
0.76737863 -0.34195665 0.12594843 90 28
0.83218837 -0.24922752 0.10178816 11 27
0.78428566 -0.3495577 0.078737296 49 26
0.84565908 -0.25353533 0.058997013 71 25
0.79828101 -0.3558453 0.039130077 16 24
0.84008682 -0.25235429 0.019555094 12 23
0.79220891 -0.35328609 0 64 22
0.84722936 -0.25463924 -0.019729175 38 21
0.80265021 -0.35831064 -0.039362993 67 20
0.85506344 -0.25697657 -0.059391622 11 19
0.77133882 -0.34743616 0.18769644 90 30
0.82283944 -0.24898575 0.15912808 33 29
0.76836991 -0.34578648 0.12633477 90 28
0.82176268 -0.2494202 0.10057639 12 27
0.79886639 -0.35962084 0.080402434 25 26
0.8351711 -0.2537598 0.058302931 76 25
0.79242224 -0.3567071 0.03889716 21 24
0.83441448 -0.25384381 0.01943904 11 23
0.7886318 -0.35515496 0 66 22
0.84150463 -0.25629967 -0.019613121 41 21
0.79912043 -0.3600786 -0.039246533 68 20
0.8493402 -0.25866878 -0.059046321 12 19
0.77676511 -0.35316828 0.1893874 90 30
0.81491804 -0.24971937 0.15770729 43 29
0.76491213 -0.34743908 0.12594843 90 28
0.8232612 -0.25300938 0.10087934 12 27
0.79307991 -0.36033684 0.079926684 12 26
0.8414374 -0.25885352 0.058823492 72 25
0.79571432 -0.36154854 0.039130077 22 24
0.82874209 -0.25529677 0.019322986 9 23
0.79193377 -0.35998625 0 58 22
0.84538549 -0.26069531 -0.019729175 46 21
0.79558802 -0.36182627 -0.039130077 66 20
0.84843206 -0.26163197 -0.059046321 20 19
0.76889455 -0.35281262 0.18769644 90 30
0.80934817 -0.25112131 0.1567601 50 29
0.76145208 -0.34907177 0.12556209 90 28
0.82237303 -0.25588155 0.10087934 17 27
0.79633629 -0.36518919 0.080402434 9 26
0.83576238 -0.26031914 0.058476452 71 25
0.78764534 -0.36118379 0.0387807 42 24
0.83978623 -0.26187506 0.019613121 11 23
0.7884028 -0.36170018 0 56 22
0.8468582 -0.2643829 -0.019787202 51 21
0.79205322 -0.3635537 -0.039013617 67 20
0.84989637 -0.26532862 -0.059218969 43 19
0.76772034 -0.35536045 0.18769644 90 30
0.81085509 -0.25453216 0.1572337 51 29
0.76476848 -0.35368028 0.12633477 90 28
0.82388914 -0.25934562 0.10118228 21 27
0.79060882 -0.36572674 0.079926684 8 26
0.84203684 -0.26531786 0.058997013 67 25
0.78417939 -0.3627395 0.03866424 64 24
0.83175635 -0.2624225 0.01943904 9 23
0.7917313 -0.36642414 0 54 22
0.84836215 -0.26793587 -0.019845227 53 21
0.79537028 -0.36828825 -0.039246533 60 20
0.84187096 -0.26591179 -0.05870102 53 19
0.7664752 -0.35803813 0.18769644 90 30
0.80996168 -0.25736105 0.1572337 51 29
0.76129383 -0.35529715 0.12594843 90 28
0.8135125 -0.25923339 0.099970512 30 27
0.7848227 -0.3663674 0.079450928 8 26
0.83159292 -0.26525074 0.058302931 66 25
0.78516865 -0.36653671 0.0387807 70 24
0.8284061 -0.26471525 0.019381013 11 23
0.78818488 -0.36812189 0 51 22
0.84503901 -0.27014112 -0.019787202 59 21
0.79401505 -0.37120095 -0.039246533 62 20
0.84807074 -0.27110749 -0.059218969 55 19
0.76295763 -0.35980025 0.18713279 90 30
0.8136909 -0.26181817 0.15818089 47 29
0.76221806 -0.35914373 0.12633477 90 28
0.81964839 -0.26447925 0.10087934 46 27
0.7879715 -0.37137482 0.079926684 9 26
0.84011668 -0.27133653 0.058997013 55 25
0.79058868 -0.37262318 0.039130077 71 24
0.82985729 -0.26836768 0.01943904 11 23
0.78231341 -0.36886439 0 33 22
0.8488031 -0.27476293 -0.019903254 63 21
0.79271448 -0.37397033 -0.039246533 63 20
0.84232157 -0.27269083 -0.058873672 59 19
0.7638936 -0.36351371 0.18769644 90 30
0.80809939 -0.26315036 0.1572337 45 29
0.7609598 -0.36180219 0.12633477 90 28
0.81635898 -0.26657522 0.10057639 56 27
0.77551109 -0.36861515 0.078737296 9 26
0.83916438 -0.27426744 0.058997013 53 25
0.79153574 -0.37645885 0.039246533 71 24
0.82416034 -0.26972142 0.019322986 11 23
0.79454958 -0.37807187 0 11 22
0.84550983 -0.27680507 -0.019845227 64 21
0.79140425 -0.37673515 -0.039246533 63 20
0.83662003 -0.27408966 -0.058528371 63 19
0.76707 -0.36816421 0.18882374 90 30
0.81889123 -0.26963365 0.15960167 41 29
0.7553072 -0.36217597 0.12556209 90 28
0.80839467 -0.26696676 0.099667571 77 27
0.7809431 -0.37456581 0.079450928 9 26
0.8358801 -0.27627259 0.058823492 46 25
0.7857852 -0.37691021 0.039013617 72 24
0.83038628 -0.27478862 0.019497067 11 23
0.786538 -0.37744272 0 8 22
0.83978909 -0.27819598 -0.019729175 60 21
0.79015058 -0.37935746 -0.039246533 64 20
0.83807623 -0.27764022 -0.05870102 62 19
0.76578015 -0.37083954 0.18882374 90 30
0.82027614 -0.27325961 0.16007526 37 29
0.75847948 -0.36697343 0.12633477 88 28
0.8145256 -0.27212578 0.10057639 79 27
0.78186822 -0.37837932 0.079688802 11 26
0.83491063 -0.27918869 0.058823492 25 25
0.78446472 -0.3796508 0.039013617 74 24
0.82225728 -0.27546853 0.019322986 13 23
0.78296834 -0.37909082 0 8 22
0.84355676 -0.28270102 -0.019845227 66 21
0.78651035 -0.38115621 -0.039130077 55 20
0.8394689 -0.28134999 -0.058873672 59 19
0.77315742 -0.37794515 0.19107836 90 30
0.81461263 -0.2747089 0.15912808 29 29
0.76156247 -0.37193042 0.12710746 81 28
0.81587577 -0.27589756 0.10087934 76 27
