# .PCD v0.7 - Point Cloud Data file format
VERSION 0.7
FIELDS x y z intensity ring
SIZE 4 4 4 4 2
TYPE F F F F U
COUNT 1 1 1 1 1
WIDTH 1186
HEIGHT 1
VIEWPOINT 0 0 0 1 0 0 0
POINTS 1186
DATA ascii
0.69060391 -0.10925134 0.030977976 32 24
0.70189136 -0.021439688 0.015493204 19 23
0.68636155 -0.10868938 0 90 22
0.7004267 -0.11108778 -0.031443812 14 20
0.69842345 -0.11113261 -0.060355674 85 18
0.70937943 -0.11315888 -0.094956025 46 16
0.66198736 -0.10720313 0.14711343 98 30
0.67522126 -0.022052055 0.12360842 90 29
0.66355425 -0.10724295 0.099676974 72 28
0.69212973 -0.023122285 0.08027935 51 27
0.68304342 -0.11047123 0.062799536 51 26
0.69540501 -0.023456959 0.045982964 49 25
0.69021833 -0.11166134 0.030977976 33 24
0.70431048 -0.023965942 0.015551231 24 23
0.69091111 -0.11189947 0 90 22
0.69510692 -0.11271714 -0.031210894 13 20
0.70048773 -0.11397743 -0.060579214 89 18
0.70898008 -0.11563439 -0.094956025 62 16
0.6544044 -0.10829594 0.14542247 100 30
0.68495393 -0.024727577 0.12550279 90 29
0.67048264 -0.11079045 0.10083601 47 28
0.69204479 -0.025538126 0.08027935 46 27
0.68756163 -0.11368231 0.063275285 53 26
0.70279652 -0.026136208 0.046503525 50 25
0.68489927 -0.11323962 0.030745059 32 24
0.69422638 -0.026205283 0.015319123 35 23
0.68558598 -0.11347839 0 90 22
0.69222683 -0.11484762 -0.031094434 14 20
0.69763064 -0.11600579 -0.060355674 90 18
0.71833706 -0.11976711 -0.096332192 70 16
0.65640312 -0.11110829 0.14598612 100 30
0.67749929 -0.026971895 0.12408201 90 29
0.66520387 -0.11240801 0.10006332 37 28
0.69194663 -0.028074428 0.08027935 44 27
0.68223548 -0.11535611 0.062799536 58 26
0.69771159 -0.028525658 0.046156485 60 25
0.69432366 -0.11744595 0.031210894 27 24
0.70661843 -0.029099427 0.015609259 41 23
0.6876291 -0.11641552 0 90 22
0.70161319 -0.029155938 -0.015493204 12 21
0.69674349 -0.11811338 -0.031327356 19 20
0.70210761 -0.11941216 -0.06080275 87 18
0.70813453 -0.12070474 -0.094956025 77 16
0.65361267 -0.11297595 0.14542247 100 30
0.68721223 -0.029725559 0.1259764 90 29
0.67210525 -0.1160135 0.10122235 27 28
0.68192625 -0.03008778 0.079067588 38 27
0.67939806 -0.11718699 0.062561654 70 26
0.70757538 -0.031368263 0.046850573 69 25
0.69144994 -0.11943609 0.031094434 26 24
0.69902098 -0.031257056 0.015435177 45 23
0.68475646 -0.1183814 0 87 22
0.71150148 -0.031895824 -0.015725313 13 21
0.69632697 -0.12054475 -0.031327356 23 20
0.69925576 -0.12130654 -0.060579214 87 18
0.70529205 -0.12262064 -0.09461198 85 16
0.66761768 -0.11772814 0.14880438 99 30
0.68220502 -0.03179355 0.12502921 90 29
0.66442335 -0.11693327 0.10006332 23 28
0.68678111 -0.032566316 0.079673469 26 27
0.68143439 -0.11999723 0.062799536 90 26
0.69999272 -0.033384219 0.046330005 77 25
0.69105011 -0.12172836 0.031094434 24 24
0.69142294 -0.033241324 0.015261096 47 23
0.68682075 -0.12109334 0 83 22
0.70139849 -0.033930954 -0.015493204 32 21
0.69838125 -0.12329499 -0.031443812 19 20
0.69882804 -0.12374666 -0.060579214 85 18
0.70242298 -0.12464163 -0.094267935 90 16
0.66241127 -0.11917932 0.14767708 99 30
0.68944609 -0.034516461 0.12644999 90 29
0.65915191 -0.11836262 0.099290624 21 28
0.68914205 -0.035080764 0.07997641 13 27
0.68345946 -0.12282313 0.06303741 90 26
0.71232772 -0.036421385 0.047197614 79 25
0.68079501 -0.12234174 0.030628601 26 24
0.69379914 -0.035774555 0.015319123 50 23
0.68639386 -0.12349004 0 77 22
0.71375787 -0.036983009 -0.01578334 37 21
0.6954903 -0.12528166 -0.031327356 23 20
0.71730077 -0.037160527 -0.04730612 21 19
0.70084077 -0.12663563 -0.06080275 83 18
0.70441884 -0.12754148 -0.09461198 90 16
0.66436416 -0.12205442 0.14824073 98 30
0.68195999 -0.036674451 0.12502921 87 29
0.66842556 -0.12259178 0.10083601 22 28
0.68405211 -0.037353531 0.079370528 12 27
0.67811191 -0.12441342 0.062561654 93 26
0.7096988 -0.038904037 0.047024094 83 25
0.68034202 -0.12483617 0.030628601 33 24
0.69116729 -0.038188152 0.015261096 55 23
0.68347919 -0.12554553 0 74 22
0.70612967 -0.039209016 -0.015609259 40 21
0.69502646 -0.12782992 -0.031327356 29 20
0.70968783 -0.039400339 -0.046788171 27 19
0.69792461 -0.12874416 -0.060579214 82 18
0.70638019 -0.13058008 -0.094956025 90 16
0.65914905 -0.12345996 0.14711343 97 30
0.68427896 -0.039186176 0.12550279 85 29
0.66314077 -0.1240003 0.10006332 24 28
0.67648387 -0.039335892 0.078461707 10 27
0.67033935 -0.1253833 0.061848026 97 26
0.70706844 -0.041244499 0.046850573 85 25
0.68726176 -0.12861151 0.030977976 37 24
0.6960209 -0.040876091 0.01537715 62 23
0.68549263 -0.12839858 0 72 22
0.71846586 -0.042366855 -0.015899394 42 21
0.69702899 -0.13072318 -0.031443812 38 20
0.69709486 -0.041185614 -0.045924917 42 19
0.6999166 -0.13164744 -0.06080275 78 18
0.7059201 -0.13304502 -0.094956025 87 16
0.66110492 -0.12622482 0.14767708 96 30
0.68413806 -0.041574515 0.12550279 85 29
0.66755342 -0.12725525 0.10083601 27 28
0.68377465 -0.042128164 0.079370528 10 27
0.67724937 -0.12902626 0.062561654 97 26
0.70940989 -0.043857679 0.047024094 86 25
0.68680865 -0.13100971 0.030977976 33 24
0.69088393 -0.04301244 0.015261096 59 23
0.68994856 -0.13174379 0 68 22
0.71832144 -0.044749141 -0.015899394 42 21
0.69166559 -0.13220245 -0.031210894 41 20
0.7044161 -0.044059809 -0.04644287 46 19
0.69214404 -0.13253984 -0.060132135 73 18
0.72893685 -0.045514122 -0.079606406 10 17
0.70304459 -0.13491102 -0.09461198 88 16
0.66307199 -0.12888908 0.14824073 94 30
0.6766457 -0.043398537 0.12408201 81 29
0.66712779 -0.12946823 0.10083601 33 28
0.68363124 -0.044395413 0.079370528 12 27
0.67679489 -0.13138953 0.062561654 97 26
0.70677131 -0.046056371 0.046850573 87 25
0.68392044 -0.13280275 0.030861517 31 24
0.693232 -0.045458011 0.015319123 59 23
0.68460274 -0.13306156 0 51 22
0.7106775 -0.046789397 -0.015725313 45 21
0.68632382 -0.1335261 -0.030977976 44 20
0.7017768 -0.046240192 -0.046270214 49 19
0.69656193 -0.13592404 -0.060579214 72 18
0.72630292 -0.047776453 -0.079322092 10 17
0.70499814 -0.13784693 -0.094956025 88 16
0.65784281 -0.13024084 0.14711343 90 30
0.67649007 -0.045760199 0.12408201 78 29
0.65698576 -0.12984838 0.099290624 37 28
0.6834721 -0.046781458 0.079370528 14 27
0.67389226 -0.13326055 0.062323779 97 26
0.71158361 -0.048847668 0.047197614 86 25
0.68590093 -0.13568158 0.030977976 23 24
0.69056678 -0.047834635 0.015261096 58 23
0.6816833 -0.13495718 0 45 22
0.71549767 -0.0495985 -0.015841367 37 21
0.68827784 -0.13653433 -0.031094434 44 20
0.70161116 -0.048689567 -0.046270214 54 19
0.70096463 -0.1393407 -0.06102629 62 18
0.71620935 -0.049783185 -0.078184858 28 17
0.70693964 -0.14079814 -0.095300063 86 16
0.66451865 -0.13412035 0.14880438 90 30
0.67631781 -0.048239358 0.12408201 74 29
0.66618425 -0.13423873 0.10083601 42 28
0.67586869 -0.048777249 0.078461707 19 27
0.67827535 -0.13672872 0.062799536 96 26
0.70891178 -0.05128406 0.047024094 87 25
0.67561316 -0.13618945 0.030512143 21 24
0.69039559 -0.050244872 0.015261096 51 23
0.6885311 -0.13896157 0 36 22
0.71032447 -0.051873654 -0.015725313 35 21
0.69268972 -0.13994035 -0.031327356 49 20
0.70640409 -0.051606994 -0.046615519 65 19
0.68825477 -0.13939913 -0.059908591 59 18
0.71107572 -0.051938131 -0.077616245 35 17
0.70641887 -0.14338826 -0.095300063 85 16
0.65212566 -0.13394874 0.14598612 90 30
0.67614526 -0.050599851 0.12408201 72 29
0.65362185 -0.13404207 0.098904282 47 28
0.68064469 -0.051492751 0.079067588 26 27
0.67781824 -0.13897721 0.062799536 95 26
0.70375341 -0.053398214 0.046677049 86 25
0.68002307 -0.13956662 0.030745059 18 24
0.690216 -0.052654494 0.015261096 49 23
0.68804187 -0.14136414 0 29 22
0.70516306 -0.053865407 -0.015609259 31 21
0.6897524 -0.14184672 -0.031210894 67 20
0.70124477 -0.053708903 -0.046270214 77 19
0.69022602 -0.14219075 -0.060132135 55 18
0.72079873 -0.055144105 -0.078753479 38 17
0.70593947 -0.14573003 -0.095300063 86 16
0.65167785 -0.13611053 0.14598612 90 30
0.68576562 -0.053571124 0.1259764 67 29
0.65559006 -0.13672107 0.099290624 51 28
0.67552108 -0.053376578 0.078461707 29 27
0.68219805 -0.14237469 0.063275285 92 26
0.70357251 -0.055731647 0.046677049 87 25
0.68199956 -0.14233883 0.030861517 19 24
0.69003761 -0.05494304 0.015261096 45 23
0.694906 -0.14520177 0 26 22
0.71244693 -0.056897875 -0.01578334 19 21
0.68194979 -0.14257689 -0.030861517 79 20
0.70354962 -0.056224063 -0.04644287 78 19
0.68972546 -0.14459921 -0.060132135 55 18
0.71813536 -0.057344798 -0.078469172 41 17
0.70300472 -0.14767681 -0.094956025 85 16
0.65119874 -0.13838449 0.14598612 90 30
0.68312705 -0.055773679 0.12550279 67 29
0.65269434 -0.13848798 0.098904282 67 28
0.68522614 -0.056514796 0.079673469 33 27
0.67683148 -0.14370586 0.062799536 90 26
0.71083224 -0.05877817 0.047197614 85 25
0.67905736 -0.14419213 0.030745059 18 24
0.69481444 -0.057869196 0.01537715 42 23
0.69195116 -0.14709911 0 22 22
0.70975268 -0.0591853 -0.015725313 12 21
0.68386352 -0.14560312 -0.030977976 88 20
0.69837683 -0.058282126 -0.046097565 83 19
0.69408369 -0.14806002 -0.060579214 42 18
0.71296871 -0.059579849 -0.077900551 44 17
0.70490491 -0.15065484 -0.095300063 85 16
0.65782362 -0.14233936 0.14767708 82 30
0.68781126 -0.058676805 0.12644999 54 29
0.65459484 -0.14140885 0.099290624 70 28
0.67512178 -0.058209091 0.078461707 40 27
0.67630017 -0.14618561 0.062799536 90 26
0.70564115 -0.060970925 0.046850573 82 25
0.68584198 -0.14828624 0.031094434 23 24
0.69709891 -0.060501594 0.015435177 38 23
0.69384915 -0.15017067 0 23 22
0.71451217 -0.062202811 -0.015841367 9 21
0.68579012 -0.14852563 -0.031094434 90 20
0.7006439 -0.061049245 -0.046270214 83 19
0.70326281 -0.15274681 -0.06147337 31 18
0.71770662 -0.062482156 -0.078469172 38 17
0.70434803 -0.15323742 -0.095300063 87 16
0.6573227 -0.14463472 0.14767708 50 30
0.67537284 -0.060035381 0.12408201 49 29
0.65891862 -0.14476888 0.10006332 76 28
0.68480426 -0.061416682 0.079673469 43 27
0.670928 -0.14746135 0.062323779 90 26
0.69796985 -0.06278941 0.046330005 81 25
0.68288285 -0.15013546 0.030977976 26 24
0.69190353 -0.062502377 0.015319123 34 23
0.68600106 -0.15095693 0 25 22
0.71678066 -0.064913511 -0.015899394 9 21
0.68770462 -0.15146334 -0.031210894 90 20
0.7029112 -0.063711084 -0.04644287 88 19
0.70272535 -0.15520073 -0.06147337 17 18
0.70758659 -0.064124599 -0.077331938 37 17
0.70139271 -0.15515284 -0.094956025 88 16
0.6663143 -0.14908677 0.14993168 41 30
0.67760438 -0.062609434 0.12455561 45 29
0.6584093 -0.14706804 0.10006332 79 28
0.68458563 -0.06380672 0.079673469 45 27
0.67526317 -0.15090346 0.062799536 90 26
0.6977464 -0.065225393 0.046330005 75 25
0.68479002 -0.15307067 0.031094434 29 24
0.69417036 -0.065141968 0.01537715 30 23
0.68303192 -0.15279715 0 29 22
0.70908231 -0.066738188 -0.015725313 9 21
0.68473655 -0.1533097 -0.031094434 90 20
0.70268452 -0.066164307 -0.04644287 84 19
0.70217925 -0.15765275 -0.06147337 11 18
0.70983201 -0.066818386 -0.077616245 32 17
0.70567524 -0.15870164 -0.095644109 87 16
0.65632302 -0.14910559 0.14767708 32 30
0.67250419 -0.06440603 0.12360842 37 29
0.65551096 -0.14869624 0.099676974 90 28
0.68437034 -0.066076532 0.079673469 45 27
0.67718422 -0.15370044 0.06303741 85 26
0.70249271 -0.068002194 0.046677049 68 25
0.68671221 -0.15590116 0.031210894 35 24
0.69395053 -0.067443565 0.01537715 24 23
0.68252152 -0.15506133 0 26 22
0.71632218 -0.069790937 -0.015899394 10 21
0.68422437 -0.15557952 -0.031094434 90 20
0.70246124 -0.068494141 -0.04644287 86 19
0.69437474 -0.15829748 -0.06080275 9 18
0.7194981 -0.070101708 -0.078753479 21 17
0.70514506 -0.16104087 -0.095644109 82 16
0.65579861 -0.15139568 0.14767708 23 30
0.68693691 -0.068154536 0.12644999 24 29
0.65739298 -0.15154625 0.10006332 90 28
0.68907565 -0.068941593 0.08027935 50 27
0.66695076 -0.15379526 0.062085904 77 26
0.69976866 -0.070213601 0.046503525 64 25
0.68373227 -0.1577283 0.031094434 40 24
0.69618618 -0.070228718 0.015435177 23 23
0.68441027 -0.15801285 0 26 22
0.70861167 -0.071563177 -0.015725313 12 21
0.68608087 -0.15865652 -0.031210894 90 20
0.69228888 -0.069977462 -0.045752265 86 19
0.69381797 -0.16072033 -0.06080275 10 18
0.71923625 -0.072738327 -0.078753479 12 17
0.70216823 -0.16293417 -0.095300063 83 16
0.65997791 -0.15492719 0.14880438 22 30
0.67935431 -0.069944263 0.12502921 18 29
0.65202725 -0.15281157 0.099290624 95 28
0.68387997 -0.070972055 0.079673469 58 27
0.67364591 -0.15796641 0.062799536 73 26
0.6945436 -0.072279036 0.046156485 55 25
0.68072003 -0.15965535 0.030977976 46 24
0.68847668 -0.071905918 0.015261096 26 23
0.68382645 -0.16052027 0 27 22
0.70834458 -0.07415989 -0.015725313 12 21
0.68309361 -0.16047171 -0.031094434 90 20
0.69699031 -0.073016696 -0.046097565 83 19
0.70533365 -0.1661538 -0.061920449 10 18
0.7115646 -0.074498072 -0.077900551 8 17
0.69674975 -0.16435474 -0.09461198 85 16
0.66180044 -0.15780272 0.14936803 23 30
0.679106 -0.072315224 0.12502921 18 29
0.66349447 -0.1579864 0.10122235 98 28
0.67622304 -0.072590962 0.078764647 70 27
0.66828001 -0.15903157 0.062323779 62 26
0.69180655 -0.07444492 0.045982964 50 25
0.68744105 -0.16378966 0.031327356 49 24
0.69070733 -0.074568234 0.015319123 31 23
0.68326205 -0.16290632 0 24 22
0.69815165 -0.075468637 -0.015493204 12 21
0.68495649 -0.16344237 -0.031210894 90 20
0.69921172 -0.07570903 -0.046270214 81 19
0.69993889 -0.16731919 -0.06147337 12 18
0.71624064 -0.077498965 -0.078469172 8 17
0.69620091 -0.16666433 -0.09461198 85 16
0.65654266 -0.15883532 0.14824073 23 30
0.67886245 -0.074566819 0.12502921 18 29
0.65816891 -0.15900993 0.10044966 99 28
0.67351109 -0.07456886 0.078461707 81 27
0.67013794 -0.1619557 0.062561654 46 26
0.70395446 -0.078070216 0.046850573 42 25
0.68204308 -0.16487955 0.031094434 50 24
0.68051648 -0.075787261 0.015087015 35 23
0.68028998 -0.1645757 0 26 22
0.71030819 -0.079248302 -0.01578334 13 21
0.67713487 -0.16392709 -0.030861517 90 20
0.69895679 -0.078027286 -0.046270214 81 19
0.69693267 -0.16916662 -0.06124983 13 18
0.70857161 -0.079072826 -0.077616245 8 17
0.70523214 -0.17146285 -0.095988154 79 16
0.65362084 -0.16053732 0.14767708 28 30
0.68835843 -0.0780067 0.12692358 21 29
0.66240376 -0.16249898 0.10122235 100 28
0.67571324 -0.07719215 0.078764647 90 27
0.67681366 -0.16609633 0.063275285 37 26
0.70367765 -0.080527 0.046850573 38 25
0.67176968 -0.16484781 0.030628601 51 24
0.69016993 -0.079388425 0.015319123 37 23
0.68698931 -0.16876124 0 23 22
0.70257556 -0.080895372 -0.015609259 15 21
0.68379879 -0.16822025 -0.031210894 85 20
0.69868016 -0.080466628 -0.046270214 77 19
0.69875371 -0.17220156 -0.06147337 17 18
0.71074545 -0.081945337 -0.077900551 8 17
0.69742262 -0.17212136 -0.094956025 83 16
0.65775049 -0.16412683 0.14880438 29 30
0.68318969 -0.079975918 0.1259764 23 29
0.65940899 -0.16432065 0.10083601 99 28
0.67542577 -0.079668239 0.078764647 90 27
0.67137474 -0.16735657 0.062799536 27 26
0.69346678 -0.081969336 0.046156485 35 25
0.671161 -0.16730885 0.030628601 69 24
0.69237161 -0.082082614 0.01537715 40 23
0.67909491 -0.16943949 0 19 22
0.70475721 -0.08375629 -0.015667286 18 21
0.67594451 -0.16876833 -0.030861517 82 20
0.69838053 -0.083026879 -0.046270214 77 19
0.69570434 -0.17414939 -0.06124983 22 18
0.72032475 -0.085564271 -0.079037786 8 17
0.69918716 -0.17528591 -0.095300063 86 16
0.65717357 -0.1664218 0.14880438 33 30
0.68778259 -0.082930438 0.12692358 24 29
0.66122395 -0.16723484 0.10122235 99 28
0.67021453 -0.081444651 0.078158766 90 27
0.66355437 -0.16784491 0.062085904 22 26
0.69317645 -0.084389485 0.046156485 29 25
0.67057282 -0.16965061 0.030628601 88 24
0.68959886 -0.084204741 0.015319123 49 23
0.68092084 -0.17243026 0 17 22
0.70446056 -0.086215839 -0.015667286 19 21
0.68018889 -0.17236888 -0.031094434 73 20
0.70303971 -0.086053051 -0.046615519 68 19
0.69750363 -0.17719728 -0.06147337 18 18
0.72248805 -0.088371374 -0.079322092 10 17
0.70336676 -0.17896126 -0.095988154 86 16
0.65187466 -0.16748685 0.14767708 38 30
0.68261468 -0.084743492 0.1259764 31 29
0.65346485 -0.16767661 0.10006332 97 28
0.67238963 -0.084082633 0.078461707 90 27
0.67503721 -0.17317465 0.063275285 14 26
0.69782901 -0.087411299 0.046503525 21 25
0.66997659 -0.17199032 0.030628601 90 24
0.6917817 -0.086914249 0.01537715 55 23
0.68757308 -0.17669533 0 19 22
0.70417076 -0.088551447 -0.015667286 24 21
0.68683308 -0.17663062 -0.031443812 68 20
0.70521063 -0.088809684 -0.046788171 64 19
0.70414031 -0.18139479 -0.062143989 22 18
0.71724445 -0.090289116 -0.078753479 12 17
0.70995682 -0.18317027 -0.097020283 87 16
0.64896077 -0.16902587 0.14711343 44 30
0.68720216 -0.087610066 0.12692358 34 29
0.65051693 -0.16921297 0.099676974 96 28
0.67456961 -0.086619049 0.078764647 90 27
0.66480291 -0.1729921 0.062323779 14 26
0.70248473 -0.090344019 0.046850573 12 25
0.67664689 -0.17612107 0.030977976 90 24
0.68652982 -0.088585623 0.015261096 71 23
0.67973143 -0.17706111 0 41 22
0.69641799 -0.090073064 -0.015493204 38 21
0.68865818 -0.17954476 -0.031560272 64 20
0.7024377 -0.090836465 -0.046615519 64 19
0.69628131 -0.1819409 -0.06147337 32 18
0.71694106 -0.092667095 -0.078753479 13 17
0.69734508 -0.18247633 -0.095300063 89 16
0.65542501 -0.17318006 0.14880438 51 30
0.68445712 -0.089698114 0.12644999 38 29
0.6523084 -0.17212068 0.10006332 95 28
0.67672455 -0.089288965 0.079067588 90 27
0.67381179 -0.17788304 0.063275285 14 26
0.69474429 -0.091841027 0.046330005 12 25
0.6712029 -0.17719176 0.030745059 90 24
0.69363672 -0.092061803 0.015435177 78 23
0.67910922 -0.17943272 0 44 22
0.69609928 -0.092503473 -0.015493204 42 21
0.69040757 -0.18271397 -0.031676728 60 20
0.69716942 -0.092648022 -0.046270214 53 19
0.69804692 -0.18501554 -0.061696909 36 18
0.71413344 -0.094975151 -0.078469172 12 17
0.69909531 -0.18555197 -0.095644109 86 16
0.6618371 -0.17749694 0.15049534 55 30
0.67682207 -0.091248773 0.12502921 43 29
0.65405697 -0.17515711 0.10044966 90 28
0.67639273 -0.091768682 0.079067588 90 27
0.67075354 -0.17969984 0.06303741 20 26
0.69687545 -0.094714023 0.046503525 12 25
0.67536926 -0.18095849 0.030977976 90 24
0.68587834 -0.093496025 0.015261096 90 23
0.67362171 -0.18061046 0 46 22
0.70318812 -0.096043244 -0.015667286 46 21
0.67771596 -0.18184902 -0.031094434 50 20
0.69682515 -0.095202655 -0.046270214 51 19
0.69736409 -0.18757278 -0.061696909 38 18
0.71133548 -0.097139731 -0.078184858 14 17
0.70079947 -0.18876435 -0.095988154 87 16
0.65420002 -0.17775153 0.14880438 59 30
0.67408288 -0.093165487 0.12455561 45 29
0.65347248 -0.17732508 0.10044966 90 28
0.6760847 -0.09401118 0.079067588 90 27
0.67735279 -0.18390203 0.063751042 24 26
0.68667227 -0.095682628 0.045809444 12 25
0.6723575 -0.18253522 0.030861517 90 24
0.68556458 -0.095769964 0.015261096 90 23
0.67542952 -0.18350635 0 42 22
0.68800747 -0.096347168 -0.015319123 49 21
0.68433243 -0.18608364 -0.031443812 42 20
0.69650561 -0.097512886 -0.046270214 43 19
0.6943379 -0.18922222 -0.06147337 41 18
0.72085333 -0.10084127 -0.079322092 20 17
0.70016968 -0.19108725 -0.095988154 85 16
0.65357554 -0.18003404 0.14880438 64 30
0.67375356 -0.095517918 0.12455561 47 29
0.65284956 -0.17960505 0.10044966 90 28
0.67083651 -0.095687561 0.078461707 90 27
0.67430949 -0.18559732 0.063513167 28 26
0.68880427 -0.098423056 0.045982964 17 25
0.66690499 -0.18354045 0.030628601 90 24
0.68768412 -0.098628148 0.015319123 90 23
0.68441743 -0.18854877 0 32 22
0.6926173 -0.099441253 -0.015435177 51 21
0.68605113 -0.18926218 -0.031560272 34 20
0.70604086 -0.10132679 -0.04696082 39 19
0.68887711 -0.19030389 -0.06102629 47 18
0.71063995 -0.10210338 -0.078184858 28 17
0.69949836 -0.19353013 -0.095988154 84 16
0.65291131 -0.1824283 0.14880438 72 30
0.67096859 -0.097642101 0.12408201 46 29
0.65931755 -0.18401174 0.10160869 90 28
0.67539471 -0.098846689 0.079067588 90 27
0.67122984 -0.18739074 0.063275285 32 26
0.68597001 -0.10059386 0.045809444 21 25
0.6710341 -0.18734178 0.030861517 90 24
0.68733573 -0.10102803 0.015319123 90 23
0.67650473 -0.18901516 0 24 22
0.68977433 -0.10162355 -0.01537715 55 21
0.6829834 -0.19097583 -0.031443812 24 20
0.7007274 -0.10320416 -0.046615519 35 19
0.6929661 -0.19418593 -0.06147337 60 18
0.70782077 -0.10422995 -0.077900551 31 17
0.69640237 -0.19541633 -0.095644109 81 16
0.65461183 -0.18537763 0.14936803 90 30
0.68034047 -0.10139596 0.1259764 53 29
0.66104567 -0.18699205 0.10199504 90 28
0.67504549 -0.10120366 0.079067588 78 27
0.67538989 -0.19098502 0.063751042 35 26
0.69054985 -0.1037112 0.046156485 21 25
0.67277682 -0.19037049 0.030977976 90 24
0.68203336 -0.10269988 0.015203069 90 23
0.68064749 -0.19275281 0 18 22
0.69437897 -0.104638 -0.015493204 56 21
0.69191474 -0.1961121 -0.031909645 19 20
0.70529771 -0.10637648 -0.04696082 27 19
0.69231832 -0.19648279 -0.06147337 74 18
0.70990986 -0.10706205 -0.078184858 44 17
0.70288992 -0.19977719 -0.096676238 74 16
0.65633249 -0.18822648 0.14993168 90 30
0.67514443 -0.10292922 0.12502921 68 29
0.65093291 -0.18643171 0.10044966 90 28
0.67470622 -0.10344163 0.079067588 77 27
0.66754854 -0.19126223 0.06303741 40 26
0.69020212 -0.10600058 0.046156485 28 25
0.66254789 -0.18981859 0.030512143 90 24
0.68416059 -0.10533261 0.015261096 90 23
0.67760348 -0.19431221 0 15 22
0.70142376 -0.10817853 -0.015667286 51 21
0.68646413 -0.19701289 -0.031676728 18 20
0.70247489 -0.10834309 -0.046788171 17 19
0.68445563 -0.19681169 -0.06080275 82 18
0.714463 -0.11015587 -0.078753479 45 17
0.69743341 -0.20084451 -0.095988154 77 16
0.65567148 -0.19051637 0.14993168 92 30
0.67720771 -0.1056549 0.12550279 76 29
0.65027821 -0.18870276 0.10044966 88 28
0.67434102 -0.10579617 0.079067588 74 27
0.67165238 -0.19499405 0.063513167 45 26
0.68736285 -0.10803066 0.045982964 32 25
0.66427737 -0.192834 0.030628601 90 24
0.68625897 -0.10810034 0.015319123 90 23
0.68411672 -0.19879135 0 14 22
0.69363147 -0.10948308 -0.015493204 49 21
0.67858481 -0.19729389 -0.031327356 18 20
0.70209247 -0.11079453 -0.046788171 11 19
0.68854129 -0.20060742 -0.06124983 87 18
0.70670998 -0.11151305 -0.077900551 51 17
0.69910306 -0.20397857 -0.096332192 74 16
0.65500247 -0.19280392 0.14993168 96 30
0.67198396 -0.10726199 0.12455561 88 29
0.64724815 -0.1902671 0.10006332 67 28
0.67396766 -0.10814942 0.079067588 71 27
0.66619706 -0.1959179 0.06303741 46 26
0.69437283 -0.11159074 0.046503525 35 25
0.66360015 -0.19515158 0.030628601 90 24
0.67598283 -0.10905784 0.015087015 88 23
0.68102264 -0.20046479 0 14 22
0.70065147 -0.11307271 -0.015667286 42 21
0.68025035 -0.20049314 -0.031443812 18 20
0.69677436 -0.11246688 -0.04644287 11 19
0.68545091 -0.20229745 -0.06102629 90 18
0.71120316 -0.1148779 -0.078469172 55 17
0.70550436 -0.20854492 -0.097364321 71 16
0.69011104 -0.11208826 0.17724258 92 31
0.65195978 -0.19449937 0.14936803 97 30
0.67643434 -0.11049815 0.12550279 90 29
0.65837044 -0.19620347 0.10199504 45 28
0.68336743 -0.11219223 0.08027935 55 27
0.66547447 -0.19835833 0.06303741 49 26
0.68657225 -0.11294653 0.045982964 38 25
0.67005324 -0.19974536 0.030977976 84 24
0.68300033 -0.11261041 0.015261096 81 23
0.68267673 -0.20368166 0 17 22
0.69283032 -0.11444376 -0.015493204 38 21
0.67715567 -0.20214465 -0.031327356 20 20
0.69635743 -0.11501993 -0.04644287 11 19
0.68708819 -0.20552935 -0.06124983 90 18
0.70589393 -0.11656725 -0.077900551 68 17
0.69762552 -0.20897599 -0.096332192 71 16
0.6706413 -0.11140032 0.17208642 90 31
0.65127683 -0.19677395 0.14936803 97 30
0.67846721 -0.11325409 0.1259764 90 29
0.65059471 -0.19633645 0.10083601 35 28
0.67807412 -0.11377319 0.079673469 49 27
0.6648131 -0.20056404 0.06303741 47 26
0.6837129 -0.11493766 0.045809444 38 25
0.66935194 -0.20208307 0.030977976 72 24
0.68013704 -0.11458735 0.015203069 72 23
0.67957067 -0.20533291 0 24 22
0.69737899 -0.11755446 -0.015609259 33 21
0.68122226 -0.2059674 -0.031560272 19 20
0.7033338 -0.11866942 -0.04696082 10 19
0.69116467 -0.20926434 -0.061696909 86 18
0.70793319 -0.11943538 -0.078184858 70 17
0.69929618 -0.21201387 -0.096676238 64 16
0.67265117 -0.11401856 0.17273092 90 31
0.64829391 -0.19821274 0.14880438 97 30
0.67324525 -0.11469644 0.12502921 90 29
0.65701967 -0.20068029 0.10199504 28 28
0.67524564 -0.11561113 0.079370528 47 27
0.66886437 -0.20435277 0.063513167 59 26
0.68824703 -0.11803012 0.046156485 41 25
0.67345011 -0.20577605 0.031210894 68 24
0.68221807 -0.1172568 0.015261096 66 23
0.67410904 -0.20610842 0 26 22
0.68957067 -0.1187415 -0.015435177 30 21
0.67814976 -0.20748723 -0.031443812 18 20
0.69801772 -0.12017183 -0.046615519 11 19
0.6856733 -0.21020141 -0.06124983 87 18
0.70753324 -0.12178232 -0.078184858 77 17
0.69145709 -0.21225195 -0.095644109 68 16
0.66748595 -0.11555938 0.1714419 90 31
0.65689528 -0.20338628 0.151059 96 30
0.67526066 -0.1174577 0.12550279 90 29
0.65395784 -0.20223509 0.10160869 24 28
0.67483795 -0.11796747 0.079370528 43 27
0.67052215 -0.20742926 0.063751042 84 26
0.68537283 -0.12001035 0.045982964 51 25
0.6727277 -0.20812556 0.031210894 71 24
0.6842469 -0.12018016 0.015319123 60 23
0.68054312 -0.21070057 0 34 22
0.69654131 -0.12242018 -0.015609259 26 21
0.68215072 -0.21146497 -0.031676728 17 20
0.69267815 -0.12176118 -0.046270214 11 19
0.68493539 -0.21259357 -0.06124983 83 18
0.70708215 -0.12437473 -0.078184858 74 17
0.69543666 -0.21614856 -0.096332192 63 16
0.66705787 -0.11800505 0.1714419 91 31
0.65382379 -0.20505612 0.15049534 96 30
0.67724407 -0.12035265 0.1259764 90 29
0.66027606 -0.20686866 0.10276773 21 28
0.66706759 -0.11915755 0.078461707 38 27
0.66975743 -0.20988546 0.063751042 90 26
0.69229794 -0.12381306 0.046503525 59 25
0.67434114 -0.21134414 0.031327356 66 24
0.67889982 -0.12170332 0.015203069 53 23
0.67738324 -0.21243797 0 39 22
0.6960879 -0.12497232 -0.015609259 22 21
0.68140841 -0.21384482 -0.031676728 16 20
0.69959623 -0.12559585 -0.046788171 12 19
0.68177855 -0.21434841 -0.06102629 80 18
0.70908993 -0.12727261 -0.078469172 72 17
0.70407838 -0.22169916 -0.097708367 63 16
0.66664189 -0.12033281 0.1714419 90 31
0.64846593 -0.20584799 0.14936803 92 30
0.67923677 -0.12314516 0.12644999 90 29
0.65014201 -0.20615529 0.10122235 22 28
0.67153352 -0.12235741 0.079067588 32 27
0.66668779 -0.21134576 0.063513167 90 26
0.69186151 -0.12622887 0.046503525 68 25
0.66884321 -0.21217158 0.031094434 45 24
0.68339115 -0.12495413 0.015319123 47 23
0.67663753 -0.21480118 0 40 22
0.70304984 -0.12860385 -0.01578334 23 21
0.67590237 -0.21469526 -0.031443812 17 20
0.69669878 -0.12759633 -0.046615519 12 19
0.68580496 -0.21813211 -0.06147337 76 18
0.70619661 -0.12930803 -0.078184858 72 17
0.69391072 -0.2209983 -0.096332192 63 16
0.66386199 -0.12211465 0.17079738 90 31
0.65009636 -0.2087495 0.14993168 92 30
0.67640913 -0.12495968 0.1259764 90 29
0.6541537 -0.20983414 0.10199504 23 28
0.67844862 -0.12591603 0.07997641 29 27
0.66594595 -0.21367165 0.063513167 90 26
0.69143915 -0.12852249 0.046503525 82 25
0.67763782 -0.21747021 0.031560272 28 24
0.6805144 -0.12677063 0.015261096 41 23
0.6759215 -0.21704382 0 40 22
0.69522113 -0.1297075 -0.015609259 28 21
0.68231225 -0.21924934 -0.031793188 13 20
0.7036317 -0.13125277 -0.047133468 13 19
0.68267155 -0.21975441 -0.06124983 72 18
0.70332086 -0.13120207 -0.077900551 68 17
0.69548959 -0.22418599 -0.096676238 60 16
0.66343164 -0.12443122 0.17079738 91 31
0.64936376 -0.21101749 0.14993168 90 30
0.67596883 -0.12732002 0.1259764 90 29
0.65107048 -0.21134606 0.10160869 25 28
0.68044484 -0.12873614 0.08027935 29 27
0.66992515 -0.21754706 0.063988924 90 26
0.70079422 -0.13275838 0.047197614 87 25
0.66975629 -0.21749803 0.031210894 20 24
0.68250221 -0.12972203 0.015319123 37 23
0.67040932 -0.21784185 0 49 22
0.69476414 -0.13213348 -0.015609259 33 21
0.67201465 -0.2186287 -0.031327356 13 20
0.69581407 -0.13233562 -0.046615519 13 19
0.68190032 -0.22213604 -0.06124983 67 18
0.7028352 -0.13377899 -0.077900551 67 17
0.69940639 -0.22816244 -0.097364321 55 16
0.66059697 -0.12641682 0.17015286 91 31
0.65089703 -0.21416491 0.15049534 90 30
0.67308533 -0.12934221 0.12550279 90 29
0.65029144 -0.21373095 0.10160869 26 28
0.67996842 -0.13122924 0.08027935 29 27
0.66676158 -0.21921629 0.063751042 90 26
0.69540232 -0.13439651 0.046850573 90 25
0.67369437 -0.22152625 0.031443812 13 24
0.68204522 -0.13210361 0.015319123 29 23
0.6743511 -0.22187501 0 69 22
0.69673043 -0.13514651 -0.015667286 42 21
0.67361706 -0.22176139 -0.031443812 12 20
0.69532442 -0.13488501 -0.046615519 14 19
0.68580616 -0.22620824 -0.061696909 63 18
0.7072438 -0.13716064 -0.078469172 62 17
0.6938675 -0.22915703 -0.096676238 50 16
0.66252428 -0.12917541 0.17079738 93 31
0.64091182 -0.21332821 0.14824073 90 30
0.67021912 -0.13122801 0.12502921 90 29
0.65656513 -0.21836057 0.10276773 26 28
0.66975969 -0.13172156 0.079067588 31 27
0.66599232 -0.22154237 0.063751042 90 26
0.68758297 -0.13540316 0.046330005 90 25
0.67054987 -0.22308083 0.031327356 10 24
0.68157989 -0.13448359 0.015319123 19 23
0.67120296 -0.22343059 0 81 22
0.68398654 -0.13519755 -0.01537715 49 21
0.67757249 -0.22570446 -0.031676728 22 20
0.69974613 -0.13826138 -0.04696082 17 19
0.68973136 -0.23019163 -0.062143989 55 18
0.71163738 -0.14057469 -0.079037786 60 17
0.6860249 -0.22920214 -0.095644109 46 16
0.66444027 -0.13194898 0.1714419 90 31
0.64246899 -0.21634902 0.14880438 90 30
0.67216599 -0.13403805 0.12550279 90 29
0.6487835 -0.21826558 0.10160869 27 28
0.67416584 -0.13501588 0.079673469 31 27
0.665254 -0.22374967 0.063751042 90 26
0.69200021 -0.13876617 0.046677049 90 25
0.67449582 -0.22702804 0.031560272 13 24
0.68110639 -0.13686192 0.015319123 10 23
0.6727857 -0.22657742 0 85 22
0.68843842 -0.13843332 -0.015493204 50 21
0.67205244 -0.22645867 -0.031443812 40 20
0.70170581 -0.14118668 -0.047133468 19 19
0.68660736 -0.23167436 -0.061920449 56 18
0.70626897 -0.14209476 -0.078469172 60 17
0.70400941 -0.23787285 -0.098396458 33 16
0.65926027 -0.13321245 0.17015286 90 31
0.64405107 -0.2192709 0.14936803 90 30
0.66690284 -0.13530767 0.12455561 90 29
0.65272778 -0.22202165 0.10238139 27 28
0.6737144 -0.13725074 0.079673469 31 27
0.66211545 -0.22526146 0.063513167 90 26
0.69398159 -0.14155011 0.046850573 90 25
0.67373925 -0.2292635 0.031560272 13 24
0.68309921 -0.13961168 0.01537715 9 23
0.67203063 -0.2288072 0 87 22
0.69530183 -0.14231375 -0.015667286 59 21
0.6760205 -0.23031129 -0.031676728 41 20
0.69634366 -0.14252947 -0.046788171 38 19
0.6787324 -0.23163518 -0.06124983 50 18
0.70822895 -0.14492571 -0.078753479 51 17
0.70083404 -0.23952106 -0.098052412 23 16
0.66589445 -0.13694644 0.17208642 90 31
0.64328176 -0.22151773 0.14936803 90 30
0.66402072 -0.13714705 0.12408201 90 29
0.64494985 -0.22186555 0.10122235 34 28
0.67323112 -0.13960162 0.079673469 32 27
0.66602641 -0.22920573 0.063988924 90 26
0.69348323 -0.1439717 0.046850573 90 25
0.67765248 -0.23325399 0.031793188 13 24
0.68748015 -0.14311613 0.015493204 8 23
0.66886663 -0.2303303 0 90 22
0.69724935 -0.14524123 -0.015725313 70 21
0.68460536 -0.23607258 -0.032142565 35 20
0.69339859 -0.1444591 -0.046615519 45 19
0.68497324 -0.23646209 -0.061920449 38 18
0.7052598 -0.14702193 -0.078469172 50 17
0.66065615 -0.1384131 0.17079738 91 31
0.64935756 -0.22630104 0.151059 90 30
0.66591752 -0.14007641 0.12455561 90 29
0.64879233 -0.22586714 0.10199504 33 28
0.66542548 -0.14055595 0.078764647 35 27
0.66518188 -0.2316453 0.063988924 90 26
0.69539267 -0.14701994 0.047024094 84 25
0.67208147 -0.23407878 0.031560272 17 24
0.68452954 -0.1450056 0.015435177 9 23
0.66801798 -0.23278026 0 89 22
0.68937224 -0.14626506 -0.015551231 79 21
0.67435515 -0.23514286 -0.031676728 22 20
0.69774747 -0.14801788 -0.04696082 46 19
0.68175375 -0.23814273 -0.061696909 25 18
0.71203667 -0.15100408 -0.079322092 43 17
0.66489744 -0.14170794 0.17208642 90 31
0.64168012 -0.22611526 0.14936803 63 30
0.66782677 -0.14290497 0.12502921 82 29
0.65032709 -0.22895822 0.10238139 33 28
0.66978693 -0.14390297 0.079370528 37 27
0.66441005 -0.23384984 0.063988924 83 26
0.69731534 -0.14996238 0.047197614 83 25
0.67361307 -0.23726024 0.031676728 18 24
0.67912906 -0.14635831 0.015319123 9 23
0.66955656 -0.23594889 0 87 22
0.69621843 -0.15010537 -0.015725313 77 21
0.6829406 -0.24084625 -0.032142565 15 20
0.69234711 -0.14941721 -0.046615519 47 19
0.68096036 -0.24040221 -0.061696909 13 18
0.70664591 -0.15245752 -0.078753479 40 17
0.65733612 -0.14240417 0.17015286 90 31
0.64551038 -0.22989115 0.15049534 41 30
0.66494864 -0.14460589 0.12455561 74 29
0.65188861 -0.23194897 0.10276773 31 28
0.65717429 -0.14352024 0.077855825 41 27
0.66593164 -0.23700944 0.064226799 82 26
0.68706089 -0.15017767 0.046503525 78 25
0.67047256 -0.23864804 0.031560272 23 24
0.68105727 -0.1492545 0.01537715 10 23
0.66641796 -0.2373219 0 86 22
0.69080389 -0.15148093 -0.015609259 76 21
0.67739642 -0.24153684 -0.031909645 14 20
0.6918478 -0.15171228 -0.046615519 50 19
0.68714452 -0.24531056 -0.062367529 10 18
0.7061094 -0.15492325 -0.078753479 35 17
0.66625273 -0.14685759 0.17273092 90 31
0.64466345 -0.23225555 0.15049534 33 30
0.67880625 -0.15017216 0.12739719 63 29
0.64407021 -0.23180482 0.10160869 35 28
0.66634154 -0.14804593 0.079067588 42 27
0.66505855 -0.23944861 0.064226799 79 26
0.69137865 -0.15376088 0.046850573 70 25
0.67194033 -0.24195713 0.031676728 27 24
0.68053216 -0.15163091 0.01537715 10 23
0.66789305 -0.24061747 0 81 22
0.70000887 -0.1561552 -0.015841367 78 21
0.67889589 -0.24475405 -0.032026105 12 20
0.69372314 -0.15478173 -0.046788171 53 19
0.68858016 -0.24868028 -0.062591068 9 18
0.7128424 -0.15898462 -0.079606406 26 17
0.65394115 -0.14658476 0.16950834 90 31
0.64384872 -0.2345044 0.15049534 27 30
0.67588097 -0.15201065 0.12692358 60 29
0.64325714 -0.23405161 0.10160869 63 28
0.6706658 -0.15144691 0.079673469 45 27
0.65954685 -0.2400516 0.063751042 80 26
0.6859687 -0.1550903 0.046503525 72 25
0.67577964 -0.24602415 0.031909645 22 24
0.67999876 -0.1540055 0.01537715 12 23
0.66470265 -0.24208458 0 80 22
0.69214153 -0.15696466 -0.015667286 74 21
0.67803741 -0.24712235 -0.032026105 11 20
0.69074446 -0.15665911 -0.046615519 53 19
0.6877079 -0.25108233 -0.062591068 9 18
0.70985895 -0.16093095 -0.079322092 13 17
0.65578276 -0.14939432 0.17015286 90 31
0.65215784 -0.24014644 0.15274997 25 30
0.67055637 -0.15329218 0.1259764 53 29
0.64938229 -0.23887603 0.10276773 80 28
0.6604504 -0.1516014 0.078461707 43 27
0.66574633 -0.24483618 0.064464673 79 26
0.68785584 -0.15803383 0.046677049 66 25
0.67491674 -0.24838156 0.031909645 26 24
0.67701936 -0.15582618 0.015319123 16 23
0.6685403 -0.24614537 0 79 22
0.6964922 -0.1603639 -0.01578334 74 21
0.68185192 -0.25122857 -0.032259021 9 20
0.69019341 -0.15906931 -0.046615519 51 19
0.68920499 -0.25423023 -0.062814608 9 18
0.71655965 -0.16505614 -0.08017502 9 17
0.65763909 -0.15210369 0.17079738 90 31
0.64223766 -0.2388815 0.15049534 22 30
0.66525799 -0.15442228 0.12502921 51 29
0.64858657 -0.24102814 0.10276773 90 28
0.66961944 -0.15600844 0.079673469 39 27
0.66488761 -0.24715859 0.064464673 75 26
0.68489712 -0.15975592 0.046503525 64 25
0.66473705 -0.24710859 0.031443812 30 24
0.68380612 -0.1597507 0.015493204 18 23
0.67006087 -0.24923977 0 74 22
0.69349271 -0.1622332 -0.015725313 71 21
0.67633963 -0.25173184 -0.032026105 14 20
0.68966216 -0.16135719 -0.046615519 50 19
0.69297433 -0.25838825 -0.063261688 11 18
0.70874709 -0.16575904 -0.079322092 8 17
0.66181105 -0.15548591 0.17208642 90 31
0.64823109 -0.24371544 0.15218632 22 30
0.67667115 -0.15951703 0.12739719 50 29
0.6546697 -0.24591838 0.10392677 90 28
0.66907078 -0.15834489 0.079673469 36 27
0.65471315 -0.24594787 0.063513167 50 26
0.68433535 -0.16214567 0.046503525 60 25
0.66387045 -0.24942745 0.031443812 28 24
0.68808347 -0.16339396 0.015609259 22 23
0.67152411 -0.25246415 0 64 22
0.69535571 -0.16522239 -0.01578334 65 21
0.6847505 -0.25775623 -0.032491937 15 20
0.69152313 -0.16433184 -0.046788171 45 19
0.68275857 -0.25726551 -0.062367529 10 18
0.71297151 -0.16948828 -0.079890713 8 17
0.65653378 -0.15680572 0.17079738 90 31
0.6496073 -0.24696252 0.15274997 23 30
0.66652513 -0.15974224 0.12550279 56 29
0.65145773 -0.24743184 0.10354042 90 28
0.67331553 -0.16193955 0.08027935 32 27
0.65613097 -0.24923693 0.063751042 40 26
0.67888308 -0.16350195 0.046156485 46 25
0.6722787 -0.25543553 0.031909645 31 24
0.68021381 -0.16406226 0.015435177 27 23
0.67059427 -0.2549237 0 62 22
0.687451 -0.1660348 -0.015609259 65 21
0.68617803 -0.26103985 -0.032608397 18 20
0.69576877 -0.16801956 -0.047133468 40 19
0.6864593 -0.26155332 -0.062814608 10 18
0.70754278 -0.17082645 -0.079322092 10 17
0.65833199 -0.15965711 0.1714419 90 31
0.64419973 -0.24746698 0.15162265 24 30
0.67551237 -0.16435507 0.12739719 58 29
0.64598382 -0.24791953 0.10276773 90 28
0.67033339 -0.16370873 0.07997641 24 27
0.66226298 -0.25410759 0.064464673 33 26
0.6831575 -0.16703849 0.046503525 42 25
0.65974003 -0.25326931 0.031327356 45 24
0.67720741 -0.16584966 0.01537715 32 23
0.67669326 -0.25997394 0 56 22
0.68689662 -0.16831356 -0.015609259 62 21
0.68991917 -0.26523966 -0.032841314 26 20
0.69032949 -0.16927603 -0.046788171 33 19
0.68326706 -0.262927 -0.062591068 12 18
0.72142822 -0.17679437 -0.081027947 11 17
0.65779889 -0.16183934 0.1714419 90 31
0.64110756 -0.24871352 0.151059 24 30
0.67257822 -0.16601452 0.12692358 67 29
0.65435874 -0.25366047 0.10431311 90 28
0.66496509 -0.16475442 0.079370528 14 27
0.66368949 -0.25732461 0.064702556 24 26
0.67775446 -0.16811912 0.046156485 38 25
0.66354769 -0.2572757 0.031560272 62 24
0.67908132 -0.16868848 0.015435177 40 23
0.66185969 -0.25674823 0 51 22
0.68630499 -0.17071024 -0.015609259 58 21
0.67973477 -0.26388285 -0.032375481 21 20
0.69945377 -0.17393886 -0.047478769 27 19
0.68698108 -0.26712915 -0.063038148 12 18
0.71842557 -0.17859453 -0.080743633 10 17
0.65488434 -0.16355793 0.17079738 90 31
0.64023548 -0.25094992 0.151059 23 30
0.66246164 -0.16600911 0.12502921 77 29
0.64198428 -0.2514028 0.10238139 90 28
0.66920352 -0.16826771 0.07997641 12 27
0.66047287 -0.25872481 0.064464673 21 26
0.67958409 -0.1710843 0.046330005 33 25
0.66264564 -0.25959033 0.031560272 74 24
0.67603308 -0.17057337 0.01537715 46 23
0.66793376 -0.26181546 0 50 22
0.68327945 -0.17250147 -0.015551231 51 21
0.68108487 -0.26729172 -0.032491937 21 20
0.70126253 -0.17698145 -0.047651418 22 19
0.68604445 -0.26952556 -0.063038148 14 18
0.70812535 -0.17882635 -0.079606406 11 17
0.65896749 -0.16712745 0.17208642 90 31
0.63931143 -0.25329483 0.151059 25 30
0.65708655 -0.16724253 0.12408201 82 29
0.6410585 -0.25375408 0.10238139 83 28
0.66858232 -0.17071934 0.07997641 10 27
0.66876417 -0.26483747 0.065416187 19 26
0.67653406 -0.17296468 0.046156485 26 25
0.66400868 -0.26294389 0.031676728 79 24
0.68028027 -0.17415497 0.015493204 49 23
0.66929096 -0.26518983 0 31 22
0.68264264 -0.17500466 -0.015551231 49 21
0.68246639 -0.27059495 -0.032608397 22 20
0.69335508 -0.17771763 -0.047133468 18 19
0.6804291 -0.27018639 -0.062591068 14 18
0.70749682 -0.18129706 -0.079606406 12 17
0.65603864 -0.1688333 0.1714419 90 31
0.63164854 -0.25278768 0.14936803 26 30
0.66125679 -0.1707453 0.12502921 83 29
0.64474976 -0.25783917 0.10315407 74 28
0.67038673 -0.17366587 0.08027935 12 27
0.66322005 -0.26530731 0.06494043 17 26
0.68075871 -0.17656057 0.046503525 19 25
0.66077107 -0.26432544 0.031560272 82 24
0.66998327 -0.17404905 0.015261096 58 23
0.66372502 -0.26565224 0 14 22
0.68929064 -0.1792486 -0.015725313 40 21
0.68383312 -0.27391106 -0.032724857 32 20
0.69997817 -0.181995 -0.047651418 18 19
0.68871462 -0.27629575 -0.063485228 14 18
0.70685971 -0.18376561 -0.079606406 10 17
0.66012406 -0.17232531 0.17273092 86 31
0.63527244 -0.25683156 0.15049534 28 30
0.66303355 -0.17366585 0.12550279 81 29
0.64155859 -0.25915575 0.10276773 66 28
0.66016722 -0.1735162 0.079067588 12 27
0.66694599 -0.2693834 0.065416187 17 26
0.6825524 -0.17956193 0.046677049 16 25
0.66215688 -0.26757312 0.031676728 88 24
0.67904788 -0.17889991 0.015493204 71 23
0.66047883 -0.2670233 0 9 22
0.68627352 -0.18090464 -0.015667286 35 21
0.6759364 -0.27346566 -0.032375481 50 20
0.69692492 -0.18380944 -0.047478769 24 19
0.68087935 -0.27575323 -0.062814608 16 18
0.70621389 -0.18623188 -0.079606406 11 17
0.65253687 -0.17268559 0.17079738 88 31
0.64117342 -0.26172006 0.15218632 26 30
0.66245401 -0.17586359 0.12550279 80 29
0.64297974 -0.26222184 0.10315407 50 28
0.66438872 -0.17696472 0.079673469 12 27
0.65909743 -0.26886839 0.064702556 20 26
0.68677723 -0.18309264 0.047024094 13 25
0.66126591 -0.2697674 0.031676728 83 24
0.67845088 -0.18115075 0.015493204 76 23
0.66652477 -0.27206761 0 9 22
0.68563789 -0.18329909 -0.015667286 29 21
0.67271674 -0.27475441 -0.032259021 58 20
0.69148827 -0.18484786 -0.047133468 38 19
0.68221438 -0.27907792 -0.063038148 30 18
0.70799416 -0.18920596 -0.079890713 12 17
0.66124016 -0.17754745 0.17337546 76 31
0.64020985 -0.26406834 0.15218632 26 30
0.66180497 -0.17829041 0.12550279 76 29
0.64885628 -0.26742196 0.10431311 41 28
0.67332721 -0.18195435 0.080885231 13 27
0.65351182 -0.26937115 0.064226799 21 26
0.67405313 -0.1823937 0.046156485 17 25
0.66719031 -0.27506593 0.032026105 82 24
0.67053854 -0.18170062 0.015319123 78 23
0.66552311 -0.27450874 0 8 22
0.68979019 -0.1871029 -0.01578334 14 21
0.66248322 -0.27337945 -0.031793188 68 20
0.68598765 -0.18609175 -0.046788171 44 19
0.68118691 -0.28157648 -0.063038148 47 18
0.70489657 -0.19115761 -0.079606406 13 17
0.6606164 -0.17985454 0.17337546 83 31
0.63479346 -0.26441374 0.151059 24 30
0.66117859 -0.18059947 0.12550279 71 29
0.65247345 -0.27159795 0.10508581 34 28
0.66310537 -0.18171442 0.079673469 17 27
0.66174573 -0.27550507 0.065178305 24 26
0.68063468 -0.18669961 0.046677049 17 25
0.6570161 -0.27352548 0.031560272 83 24
0.6674878 -0.1833865 0.015261096 80 23
0.66686577 -0.27779856 0 8 22
0.68672079 -0.18885513 -0.015725313 9 21
0.663827 -0.276658 -0.031909645 79 20
0.68292683 -0.18783207 -0.046615519 47 19
0.68708473 -0.2868509 -0.06370876 53 18
0.70182794 -0.1929666 -0.079322092 18 17
0.65532297 -0.18089116 0.17208642 88 31
0.64059275 -0.26948306 0.15274997 37 30
0.65817612 -0.18225983 0.12502921 68 29
0.64469957 -0.27098098 0.10392677 33 28
0.67204052 -0.18665057 0.080885231 19 27
0.65395445 -0.27478442 0.064464673 28 26
0.68238395 -0.18973412 0.046850573 26 25
0.65835637 -0.27679217 0.031676728 74 24
0.67166376 -0.18703941 0.01537715 77 23
0.66589195 -0.28012466 0 9 22
0.68850064 -0.19179378 -0.01578334 8 21
0.66745478 -0.28092504 -0.032142565 76 20
0.68707645 -0.19153774 -0.04696082 50 19
0.68154627 -0.28718036 -0.063261688 56 18
0.71072936 -0.19805026 -0.080459327 37 17
0.65704811 -0.18370515 0.17273092 88 31
0.63297898 -0.26872849 0.151059 70 30
0.66703176 -0.18705878 0.12692358 55 29
0.65288043 -0.27700472 0.10547215 29 28
0.67141783 -0.18887813 0.080885231 23 27
0.65985513 -0.28000301 0.065178305 35 26
0.66973639 -0.18865722 0.045982964 32 25
0.65743494 -0.27897385 0.031676728 74 24
0.67826337 -0.19127576 0.015551231 72 23
0.66725749 -0.28331536 0 9 22
0.68782699 -0.19419594 -0.01578334 6 21
0.65963298 -0.28018671 -0.031793188 81 20
0.68884003 -0.19448453 -0.047133468 58 19
0.67138648 -0.28563082 -0.062367529 68 18
0.70289081 -0.19840598 -0.079606406 42 17
0.64942372 -0.18404762 0.17079738 90 31
0.63874358 -0.27383715 0.15274997 88 30
0.6616475 -0.18806084 0.1259764 49 29
0.64737481 -0.2773225 0.10469946 29 28
0.67075449 -0.19122066 0.080885231 26 27
0.65887368 -0.28230461 0.065178305 42 26
0.67147428 -0.19167002 0.046156485 36 25
0.66104198 -0.28324819 0.031909645 72 24
0.67515236 -0.19308159 0.015493204 68 23
0.66626447 -0.2856428 0 10 22
0.69195545 -0.19795424 -0.015899394 8 21
0.66776925 -0.28656963 -0.032259021 74 20
0.68815696 -0.19688785 -0.047133468 65 19
0.67267025 -0.2889623 -0.062591068 68 18
0.70454907 -0.20165631 -0.079890713 45 17
0.65106875 -0.18708515 0.1714419 90 31
0.62880784 -0.27227598 0.15049534 90 30
0.6680373 -0.19249843 0.12739719 42 29
0.65088147 -0.28166947 0.10547215 53 28
0.67243552 -0.1943585 0.081188172 28 27
0.64643025 -0.27973995 0.063988924 49 26
0.67556345 -0.19549963 0.046503525 40 25
0.65999937 -0.28566912 0.031909645 70 24
0.66966832 -0.19406268 0.01537715 69 23
0.66750425 -0.28908336 0 10 22
0.68882251 -0.19980097 -0.015841367 9 21
0.66905326 -0.28989863 -0.032375481 73 20
0.68263543 -0.19803552 -0.046788171 69 19
0.67388785 -0.2924239 -0.062814608 68 18
0.69190186 -0.20069546 -0.078469172 49 17
0.65273345 -0.19002326 0.17208642 90 31
0.63453925 -0.27741796 0.15218632 90 30
0.65792596 -0.1921111 0.12550279 29 29
0.64311349 -0.28095192 0.10431311 81 28
0.65983295 -0.19325951 0.079673469 32 27
0.65005416 -0.28388825 0.064464673 50 26
0.682064 -0.19993648 0.047024094 42 25
0.65671289 -0.28696427 0.031793188 68 24
0.67618853 -0.19848593 0.015551231 64 23
0.65962827 -0.28838623 0 12 22
0.69295698 -0.20347615 -0.015957421 9 21
0.65661269 -0.28719348 -0.031793188 65 20
0.68673044 -0.20180711 -0.047133468 68 19
0.67063653 -0.29365137 -0.062591068 67 18
0.69358242 -0.20380156 -0.078753479 59 17
0.64978021 -0.19151247 0.1714419 90 31
0.64251667 -0.28348172 0.15444092 90 30
0.66199839 -0.19566648 0.12644999 17 29
0.64443523 -0.28408647 0.10469946 90 28
0.66157025 -0.19614345 0.07997641 41 27
0.65133321 -0.28716666 0.064702556 50 26
0.67661047 -0.20079473 0.046677049 45 25
0.66260344 -0.29218405 0.032142565 62 24
0.67552662 -0.20072713 0.015551231 62 23
0.66552103 -0.29362017 0 13 22
0.6922425 -0.2058938 -0.015957421 9 21
0.66478288 -0.29343066 -0.032259021 65 20
0.68366462 -0.20338039 -0.04696082 67 19
0.67188179 -0.2970041 -0.062814608 65 18
0.69051975 -0.20540042 -0.078469172 64 17
0.65142488 -0.19446184 0.17208642 90 31
0.63707972 -0.28372675 0.15331362 90 30
0.66131139 -0.1979761 0.12644999 11 29
0.63893282 -0.28431162 0.10392677 90 28
0.66564 -0.199862 0.080582291 49 27
0.65259731 -0.29045746 0.06494043 43 26
0.67112356 -0.20173614 0.046330005 47 25
0.65474439 -0.29142767 0.031793188 64 24
0.66999507 -0.201777 0.015435177 58 23
0.65993071 -0.29389343 0 21 22
0.68912411 -0.20759615 -0.015899394 11 21
0.66370296 -0.29586524 -0.032259021 63 20
0.68773139 -0.2071881 -0.04730612 67 19
0.6685701 -0.29832613 -0.062591068 68 18
0.68976223 -0.20792991 -0.078469172 68 17
0.65302229 -0.19753902 0.17273092 90 31
0.63603556 -0.28605983 0.15331362 90 30
0.66058135 -0.20039859 0.12644999 9 29
0.63338697 -0.28461233 0.10315407 90 28
0.66727966 -0.20301428 0.080885231 53 27
0.65606195 -0.29490197 0.065416187 26 26
0.67754459 -0.20634961 0.046850573 45 25
0.66049564 -0.29691803 0.032142565 64 24
0.66928655 -0.2041145 0.015435177 53 23
0.66795665 -0.30043969 0 16 22
0.68357283 -0.20867741 -0.01578334 11 21
0.66494042 -0.29921183 -0.032375481 59 20
0.68935519 -0.21042737 -0.047478769 63 19
0.66293812 -0.29871491 -0.062143989 70 18
0.68903226 -0.21033636 -0.078469172 67 17
0.64770448 -0.19841936 0.1714419 90 31
0.62838942 -0.28523657 0.15162265 85 30
0.66927421 -0.2055527 0.12834437 11 29
0.63912821 -0.28990382 0.10431311 90 28
0.66656697 -0.20534229 0.080885231 66 27
0.64823908 -0.29408467 0.064702556 12 26
0.67682016 -0.20871341 0.046850573 41 25
0.66172618 -0.30026054 0.032259021 50 24
0.67096072 -0.20717856 0.015493204 51 23
0.66008407 -0.29964855 0 21 22
0.68762094 -0.21252206 -0.015899394 12 21
0.67070377 -0.3046498 -0.032724857 51 20
0.69100177 -0.21356075 -0.047651418 62 19
0.67320859 -0.30621576 -0.063261688 63 18
0.69066936 -0.21346562 -0.078753479 66 17
0.64931762 -0.20138611 0.17208642 90 31
0.63181198 -0.2894716 0.15274997 76 30
0.67089921 -0.2086082 0.12881798 11 29
0.63586974 -0.29109776 0.10392677 90 28
0.65873128 -0.20547625 0.07997641 76 27
0.64946806 -0.29738873 0.06494043 12 26
0.6689378 -0.20886971 0.046330005 37 25
0.66520864 -0.30466196 0.032491937 33 24
0.67023337 -0.20951939 0.015493204 51 23
0.67265183 -0.30824026 0 21 22
0.68687493 -0.21492101 -0.015899394 11 21
0.66283536 -0.30384666 -0.032375481 51 20
0.68786931 -0.21523482 -0.047478769 58 19
0.66987574 -0.30751821 -0.063038148 66 18
0.69703889 -0.21807614 -0.079606406 62 17
0.65095353 -0.20425288 0.17273092 90 31
0.63084859 -0.29156515 0.15274997 60 30
0.66082692 -0.20791847 0.12692358 12 29
0.63937914 -0.29529014 0.10469946 90 28
0.66041541 -0.20839791 0.08027935 80 27
0.65524644 -0.3026925 0.065654062 8 26
0.67776465 -0.21405841 0.047024094 28 25
0.65513933 -0.30264935 0.032026105 20 24
0.67188346 -0.21260341 0.015551231 45 23
0.66482759 -0.30730191 0 28 22
0.68615848 -0.21719758 -0.015899394 12 21
0.65950733 -0.30510315 -0.032259021 50 20
0.68239117 -0.21602555 -0.047133468 54 19
