# .PCD v0.7 - Point Cloud Data file format
VERSION 0.7
FIELDS x y z intensity ring
SIZE 4 4 4 4 2
TYPE F F F F U
COUNT 1 1 1 1 1
WIDTH 1222
HEIGHT 1
VIEWPOINT 0 0 0 1 0 0 0
POINTS 1222
DATA ascii
-1.598279 0.68923718 -0.079541199 76 20
-1.6481382 0.46830302 -0.1161935 76 19
-1.5979145 0.69006574 -0.15312457 76 18
-1.6630092 0.47251183 -0.19389845 72 17
-1.6071941 0.69474673 -0.23842219 70 16
-1.6541687 0.46940887 -0.29370472 64 15
-1.6041191 0.6960277 -0.49042633 56 13
-1.6488912 0.46762761 -0.38454834 65 14
-1.59619 0.69453013 -0.59003288 59 12
-1.6511302 0.46430427 -0.67956102 58 11
-1.5988076 0.70187843 -0.90870529 70 9
-1.6590889 0.4647001 -0.79290009 64 10
-1.5999622 0.70566249 -1.0358539 70 8
-0.79572093 0.22071722 -0.53527224 36 7
-0.66128206 0.29245961 -0.52405989 76 6
-0.61321372 0.16837454 -0.50882262 73 5
-0.25851619 0.11382077 -0.23667043 45 4
-0.25167251 0.069833532 -0.24016501 87 3
-0.22680379 0.10057046 -0.2518667 33 2
-0.29683828 0.080419905 -0.35796306 8 1
-0.30905175 0.13929005 -0.42794207 9 0
-1.6503885 0.47024092 0.44858482 58 31
-1.5885339 0.69156992 0.39286613 69 30
-1.6526445 0.47241387 0.3248865 70 29
-1.5880661 0.69072586 0.26541892 73 28
-1.6484724 0.47275829 0.20509103 73 27
-1.5976702 0.69459933 0.16318363 78 26
-1.6563771 0.47563222 0.11747347 76 25
-1.6029719 0.6972518 0.079890572 74 24
-1.6476841 0.4737654 0.038994133 81 23
-1.5976833 0.69527531 0 78 22
-1.6524071 0.47542828 -0.039110187 77 21
-1.5935748 0.69381213 -0.079424739 76 20
-1.6512886 0.4754265 -0.11653879 74 19
-1.5956172 0.69536084 -0.15312457 78 18
-1.6565739 0.47694632 -0.19332983 74 17
-1.6026132 0.69907969 -0.23807815 73 16
-1.654888 0.47585738 -0.29413414 62 15
-1.6016797 0.7016229 -0.49042633 58 13
-1.6496747 0.47376221 -0.38510644 65 14
-1.5959178 0.7010507 -0.59085011 58 12
-1.6540413 0.47103992 -0.6814357 58 11
-1.5984889 0.70807344 -0.90987778 70 9
-1.6552788 0.46987396 -0.79183722 65 10
-1.5956599 0.71009159 -1.0345607 68 8
-0.7949456 0.22349347 -0.53527224 35 7
-0.65486825 0.29220021 -0.51951599 70 6
-0.60713011 0.16889855 -0.5039767 54 5
-0.25978175 0.1154268 -0.23839796 46 4
-0.25143954 0.070667729 -0.24016501 87 3
-0.22206862 0.099292457 -0.24614246 32 2
-0.29803512 0.081789263 -0.35995173 8 1
-0.30596203 0.13909236 -0.42386642 9 0
-1.6464982 0.47504497 0.44794029 59 31
-1.5862317 0.69683397 0.39286613 68 30
-1.6510689 0.47789165 0.3248865 69 29
-1.5880272 0.69698381 0.26580524 73 28
-1.6421273 0.47684503 0.20448515 73 27
-1.599791 0.70217818 0.16365939 77 26
-1.6523948 0.48042941 0.11729994 76 25
-1.5983655 0.7015571 0.079774112 76 24
-1.6485047 0.47992191 0.039052162 77 23
-1.5976565 0.7015776 0 77 22
-1.6483371 0.48049733 -0.039052162 78 21
-1.5958354 0.70110762 -0.079657651 76 20
-1.649703 0.48089975 -0.11653879 74 19
-1.597736 0.7029376 -0.15357165 76 18
-1.6549832 0.4824371 -0.19332983 73 17
-1.6069579 0.70767206 -0.23911026 70 16
-1.653301 0.48134255 -0.29413414 62 15
-1.6015413 0.70790488 -0.49111417 56 13
-1.6480107 0.47951779 -0.38510644 65 14
-1.5957429 0.70729923 -0.59166729 58 12
-1.6523869 0.47681069 -0.6814357 58 11
-1.5960076 0.71364892 -0.90987778 70 9
-1.6537117 0.47536051 -0.79183722 65 10
-1.5970722 0.71741599 -1.037147 69 8
-0.79021376 0.22500786 -0.53246975 35 7
-0.65565491 0.29530758 -0.5210306 68 6
-0.60469794 0.17050754 -0.50236142 50 5
-0.2626608 0.11784318 -0.241853 47 4
-0.24788252 0.070644759 -0.23652615 83 3
-0.22464955 0.1014303 -0.24995862 33 2
-0.29335651 0.081657395 -0.3539857 8 1
-0.31334013 0.14385234 -0.43609333 9 0
-1.6471493 0.48146376 0.44858482 59 31
-1.586015 0.70335698 0.39342979 69 30
-1.6493907 0.48365206 0.3248865 69 29
-1.5878416 0.70352626 0.2661916 73 28
-1.6428347 0.48327115 0.20478809 73 27
-1.5950562 0.70674717 0.16342153 77 26
-1.6483145 0.48549327 0.11712643 74 25
-1.5981888 0.70814663 0.079890572 74 24
-1.6467346 0.48596081 0.039052162 77 23
-1.5974821 0.70816618 0 77 22
-1.6514457 0.48765701 -0.039168216 78 21
-1.593255 0.70695192 -0.079657651 76 20
-1.6480144 0.48665538 -0.11653879 76 19
-1.5952727 0.7085104 -0.15357165 76 18
-1.6579698 0.48990059 -0.19389845 72 17
-1.6044778 0.71327704 -0.23911026 73 16
-1.6467993 0.48601156 -0.29327536 62 15
-1.5989358 0.71377003 -0.49111417 58 13
-1.6439884 0.48458192 -0.38454834 65 14
-1.5931398 0.71314317 -0.59166729 59 12
-1.6461776 0.48156905 -0.67956102 58 11
-1.5975293 0.72103775 -0.91222286 70 9
-1.6519581 0.48141852 -0.79183722 64 10
-1.5963793 0.72415125 -1.0384402 68 8
-0.79336601 0.22903773 -0.53527224 35 7
-0.65095305 0.29604897 -0.51800138 70 6
-0.60774291 0.17375472 -0.50559199 44 5
-0.26058811 0.11804394 -0.24012548 49 4
-0.25423291 0.073377512 -0.24380386 79 3
-0.22429413 0.10221384 -0.24995862 32 2
-0.29451758 0.083127983 -0.35597438 8 1
-0.31019348 0.14375927 -0.43201771 9 0
-1.6476905 0.48818043 0.44922933 58 31
-1.5834264 0.70916528 0.39342979 68 30
-1.6476068 0.48969412 0.3248865 68 29
-1.5829991 0.70832956 0.26580524 73 28
-1.6434314 0.48999482 0.20509103 73 27
-1.5969957 0.71462739 0.16389728 77 26
-1.6513054 0.49295133 0.11747347 74 25
-1.5955825 0.71399957 0.079890572 73 24
-1.6498195 0.49313065 0.039168216 77 23
-1.5948758 0.71401656 0 77 22
-1.6472518 0.49299338 -0.039110187 78 21
-1.5930555 0.71353281 -0.079774112 77 20
-1.6414388 0.49126905 -0.1161935 76 19
-1.5903943 0.71333075 -0.1533481 74 18
-1.6538692 0.49497628 -0.19361414 73 17
-1.6041105 0.72017008 -0.23945431 69 16
-1.6450928 0.49175695 -0.29327536 62 15
-1.6030049 0.72231776 -0.49317768 56 13
-1.6468731 0.49199247 -0.38566458 65 14
-1.5906408 0.71869999 -0.59166729 60 12
-1.6467096 0.48796749 -0.68049836 56 11
-1.5928679 0.72596967 -0.91105038 69 9
-1.6502676 0.48718199 -0.79183722 64 10
-1.595786 0.73061264 -1.0397335 69 8
-0.79256165 0.23180571 -0.53527224 33 7
-0.65532959 0.30082786 -0.52254522 65 6
-0.59795684 0.17326301 -0.49751547 44 5
-0.25853813 0.11818598 -0.23839796 50 4
-0.24406837 0.071492866 -0.23288728 85 3
-0.22683704 0.10441943 -0.25377479 31 2
-0.2942256 0.084155537 -0.35597438 8 1
-0.31622213 0.14796536 -0.4422068 9 0
-1.643662 0.49323809 0.44858482 56 31
-1.5787231 0.71368194 0.39286613 68 30
-1.6458875 0.49544236 0.3248865 69 29
-1.5805169 0.71385092 0.26580524 72 28
-1.6440877 0.49644241 0.20539397 73 27
-1.596884 0.72094619 0.16413514 76 26
-1.6567395 0.50086749 0.11799403 73 25
-1.5953553 0.72059572 0.080007032 73 24
-1.6409086 0.49672449 0.038994133 74 23
-1.5923738 0.71957934 0 77 22
-1.6456081 0.49845311 -0.039110187 77 21
-1.5860065 0.717026 -0.079541199 74 20
-1.6444898 0.49843574 -0.11653879 76 19
-1.5902873 0.71963024 -0.15357165 74 18
-1.6545093 0.50146335 -0.19389845 72 17
-1.6017135 0.7254855 -0.23945431 70 16
-1.6480827 0.49891683 -0.29413414 62 15
-1.5982872 0.72691107 -0.49248984 56 13
-1.642899 0.4967491 -0.38510644 65 14
-1.5902708 0.72523117 -0.59248453 58 12
-1.6473032 0.49408799 -0.6814357 56 11
-1.5904516 0.7312479 -0.91105038 69 9
-1.652895 0.49422938 -0.79396296 63 10
-1.5914133 0.73500067 -1.0384402 67 8
-0.79174769 0.23457086 -0.53527224 35 7
-0.65072465 0.3013151 -0.51951599 69 6
-0.60287929 0.17683044 -0.50236142 40 5
-0.2581448 0.11904267 -0.23839796 51 4
-0.24547954 0.072769247 -0.23470671 85 3
-0.2192034 0.10168641 -0.24423438 33 2
-0.29832369 0.086348392 -0.36194041 8 1
-0.31051216 0.14649652 -0.43405554 9 0
-1.6397048 0.49798736 0.44794029 59 31
-1.5807773 0.72094029 0.39399344 65 30
-1.6442355 0.50089759 0.3248865 69 29
-1.58488 0.72216928 0.26696429 72 28
-1.6376839 0.50044805 0.20478809 73 27
-1.5943576 0.72651589 0.16413514 76 26
-1.6502976 0.50490612 0.11764698 74 25
-1.5929569 0.72588217 0.080007032 76 24
-1.6392524 0.50216317 0.038994133 77 23
-1.5922523 0.72589576 0 79 22
-1.643858 0.50419438 -0.039110187 78 21
-1.5881617 0.72435981 -0.079774112 74 20
-1.6452132 0.50461429 -0.11671145 74 19
-1.5900294 0.72621423 -0.15379518 76 18
-1.6504618 0.50622225 -0.19361414 73 17
-1.5991713 0.73107213 -0.23945431 70 16
-1.6464192 0.50437927 -0.29413414 64 15
-1.5958679 0.73220724 -0.49248984 56 13
-1.6434863 0.50319088 -0.38566458 65 14
-1.585712 0.72951037 -0.59166729 59 12
-1.6433499 0.49916491 -0.68049836 56 11
-1.5898911 0.73772722 -0.91222286 69 9
-1.6490802 0.49905574 -0.79290009 64 10
-1.5927138 0.74236447 -1.0410267 68 8
-0.7969209 0.23895919 -0.53947592 32 7
-0.64427215 0.30103946 -0.51497209 68 6
-0.59859514 0.17786402 -0.49913079 41 5
-0.25772768 0.11994304 -0.23839796 50 4
-0.24522403 0.073625684 -0.23470671 82 3
-0.22321147 0.104557 -0.24995862 29 2
-0.29510412 0.086567275 -0.35796306 8 1
-0.31260329 0.14884694 -0.43813115 8 0
-1.6425763 0.50512123 0.44922933 58 31
-1.5804625 0.72747511 0.39455709 68 30
-1.6448237 0.50735414 0.32536009 70 29
-1.5801066 0.72666228 0.26657793 74 28
-1.6382987 0.50689167 0.20509103 75 27
-1.5895524 0.73103422 0.16389728 77 26
-1.646142 0.50992912 0.11747347 76 25
-1.5926808 0.73248446 0.080123484 76 24
-1.6374896 0.50788218 0.038994133 79 23
-1.5919784 0.73249722 0 79 22
-1.6420881 0.50992942 -0.039110187 80 21
-1.5856236 0.72989911 -0.079774112 75 20
-1.641059 0.50961781 -0.11653879 77 19
-1.5920045 0.73385054 -0.15424226 77 18
-1.6486846 0.51198035 -0.19361414 74 17
-1.5943625 0.73560959 -0.23911026 72 16
-1.6422954 0.50939709 -0.29370472 70 15
-1.5933022 0.7377733 -0.49248984 58 13
-1.6417197 0.50892466 -0.38566458 66 14
-1.5874391 0.73703665 -0.59330177 60 12
-1.6438137 0.50557619 -0.6814357 58 11
-1.5873061 0.74327248 -0.91222286 70 9
-1.647328 0.50480902 -0.79290009 64 10
-1.5862432 0.7460928 -1.0384402 71 8
-0.79409885 0.24114454 -0.53807467 34 7
-0.6414215 0.30243185 -0.51345748 71 6
-0.59797066 0.17995243 -0.49913079 42 5
-0.25079402 0.11770725 -0.23148786 58 4
-0.24661183 0.074960142 -0.23652615 84 3
-0.21994048 0.10392134 -0.24614246 30 2
-0.2962569 0.088012904 -0.35995173 9 1
-0.31208178 0.14993721 -0.43813115 8 0
-1.6384069 0.51042312 0.44858482 60 31
-1.5799929 0.73429221 0.39512074 68 30
-1.6452973 0.51410806 0.32583368 67 29
-1.575194 0.73140574 0.2661916 72 28
-1.6387988 0.5136317 0.20539397 73 27
-1.5891182 0.73790628 0.16413514 76 26
-1.644262 0.51595914 0.11747347 74 25
-1.5922492 0.73937166 0.080239952 73 24
-1.6380026 0.51462626 0.039052162 77 23
-1.589283 0.73832715 0 77 22
-1.640208 0.51594454 -0.039110187 78 21
-1.585201 0.73676115 -0.079890572 74 20
-1.6391801 0.51562917 -0.11653879 76 19
-1.5893042 0.73968059 -0.15424226 76 18
-1.653908 0.52024543 -0.19446707 72 17
-1.5961423 0.74354517 -0.23979835 69 16
-1.6451185 0.51688266 -0.29456353 68 15
-1.5927635 0.74462879 -0.49317768 55 13
-1.6421695 0.51566517 -0.38622272 63 14
-1.582589 0.74184436 -0.59248453 60 12
-1.6419497 0.51159769 -0.6814357 56 11
-1.5845714 0.74908525 -0.91222286 69 9
-1.6433047 0.51017576 -0.79183722 65 10
-1.5892923 0.75466299 -1.0423198 68 8
-0.79519057 0.24465565 -0.53947592 33 7
-0.64389426 0.3065033 -0.5164867 67 6
-0.59547943 0.18159491 -0.49751547 40 5
-0.25198641 0.11941531 -0.23321539 42 4
-0.24633545 0.075863518 -0.23652615 83 3
-0.22390728 0.10686398 -0.2518667 27 2
-0.29593232 0.089098148 -0.35995173 8 1
-0.30374444 0.14722195 -0.42590424 8 0
-1.6389197 0.51686221 0.44922933 58 31
-1.5796239 0.74083996 0.39568439 65 30
-1.6388097 0.51837426 0.3248865 65 29
-1.5748664 0.73795056 0.26657793 72 28
-1.636996 0.5193491 0.20539397 72 27
-1.5866624 0.74317187 0.16413514 74 26
-1.6472069 0.52319872 0.11782051 74 25
-1.5873985 0.74386257 0.080123484 74 24
-1.6338133 0.51958674 0.038994133 77 23
-1.5889583 0.74493438 0 76 22
-1.6361054 0.52062643 -0.039052162 77 21
-1.5826195 0.74229002 -0.079890572 74 20
-1.6373703 0.52134782 -0.11653879 74 19
-1.5868427 0.74494678 -0.15424226 73 18
-1.6497145 0.52526528 -0.19418277 72 17
-1.591428 0.74777824 -0.23945431 70 16
-1.6433041 0.52262211 -0.29456353 68 15
-1.5901545 0.75018406 -0.49317768 56 13
-1.6404505 0.52110797 -0.38622272 65 14
-1.5821244 0.74837708 -0.59330177 59 12
-1.6424555 0.51773322 -0.68237299 56 11
-1.5840703 0.75528878 -0.9133954 68 9
-1.6458333 0.51725924 -0.79396296 64 10
-1.5887094 0.76085585 -1.0436131 67 8
-0.79433173 0.24742989 -0.53947592 32 7
-0.64466435 0.30950403 -0.51800138 69 6
-0.59669983 0.18412262 -0.49913079 41 5
-0.24996617 0.11945525 -0.23148786 41 4
-0.24608251 0.076679982 -0.23652615 83 3
-0.21920963 0.10545427 -0.24614246 28 2
-0.29563522 0.09007901 -0.35995173 8 1
-0.30455005 0.14887571 -0.42794207 8 0
-1.6371968 0.52229422 0.44922933 58 31
-1.5793588 0.74711841 0.39624804 65 30
-1.6394207 0.52455062 0.32536009 69 29
-1.5746424 0.74422729 0.26696429 72 28
-1.6376288 0.52552962 0.20569691 72 27
-1.5885559 0.75083846 0.16461091 76 26
-1.6430871 0.52789867 0.11764698 74 25
-1.5871795 0.75019252 0.080239952 72 24
-1.636842 0.52652568 0.039110187 76 23
-1.5864793 0.75019938 0 77 22
-1.6390383 0.52785981 -0.039168216 77 21
-1.5824056 0.74860495 -0.080007032 73 20
-1.6356324 0.52677464 -0.11653879 74 19
-1.5864816 0.75155026 -0.15446581 74 18
-1.6455982 0.529975 -0.19389845 72 17
-1.5910442 0.75439245 -0.23979835 69 16
-1.6439078 0.52881944 -0.29499292 68 15
-1.5898271 0.75648856 -0.49386552 56 13
-1.6363004 0.52608854 -0.38566458 65 14
-1.5817652 0.75463969 -0.59411901 58 12
-1.6384294 0.52276218 -0.6814357 56 11
-1.5794359 0.75985366 -0.91222286 68 9
-1.6419516 0.52203184 -0.79290009 65 10
-1.5860438 0.76639694 -1.0436131 68 8
-0.7974602 0.25129399 -0.54227841 32 7
-0.64715379 0.31349939 -0.5210306 69 6
-0.60334921 0.18844604 -0.50559199 41 5
-0.25440785 0.12272911 -0.23667043 42 4
-0.24253096 0.076546237 -0.23288728 74 3
-0.22317471 0.10838559 -0.2518667 24 2
-0.29241443 0.09024784 -0.35597438 9 1
-0.29756242 0.14667872 -0.41775298 8 0
-1.6376634 0.52874476 0.44987386 58 31
-1.5767412 0.7526269 0.39624804 67 30
-1.6375797 0.53026998 0.32536009 67 29
-1.5787193 0.75291747 0.26812333 73 28
-1.6310617 0.52971643 0.20509103 73 27
-1.5836804 0.75530481 0.16437303 76 26
-1.6459802 0.53516644 0.11799403 74 25
-1.5913094 0.75896186 0.080589324 74 24
-1.6349012 0.53252149 0.039110187 76 23
-1.5883609 0.75789154 0 76 22
-1.6395631 0.53434896 -0.039226241 77 21
-1.5819031 0.75547874 -0.080123484 73 20
-1.6337836 0.5324809 -0.11653879 76 19
-1.5883389 0.75923687 -0.15491289 76 18
-1.6483696 0.53753626 -0.19446707 72 17
-1.5928659 0.7620846 -0.24048644 69 16
-1.6419585 0.53484106 -0.29499292 68 15
-1.5870438 0.76231045 -0.49386552 56 13
-1.6367725 0.53254771 -0.38622272 64 14
-1.5789887 0.76043206 -0.59411901 58 12
-1.6387087 0.52947301 -0.68237299 56 11
-1.5807438 0.76729602 -0.91456789 68 9
-1.6400272 0.52804643 -0.79290009 65 10
-1.5832242 0.77220494 -1.0436131 68 8
-0.79061049 0.25234637 -0.53807467 32 7
-0.64243305 0.31410921 -0.51800138 69 6
-0.59901077 0.18952197 -0.50236142 41 5
-0.25719053 0.12527396 -0.24012548 42 4
-0.24552751 0.078438938 -0.23652615 78 3
-0.21991037 0.10770936 -0.24805054 24 2
-0.29498306 0.092192203 -0.35995173 8 1
-0.29960448 0.14908148 -0.42182863 6 0
-1.6334174 0.53399628 0.44922933 58 31
-1.5761651 0.75946099 0.39681172 65 30
-1.6332914 0.53550702 0.3248865 67 29
-1.5715007 0.75655025 0.26735064 70 28
-1.6291091 0.53569108 0.20509103 73 27
-1.5831424 0.76218659 0.16461091 74 26
-1.6416378 0.54041928 0.11782051 74 25
-1.5862682 0.76370311 0.080472864 72 24
-1.6330324 0.53822517 0.039110187 74 23
-1.5810704 0.76153278 0 77 22
-1.6328444 0.53879505 -0.039110187 77 21
-1.5815048 0.76208287 -0.080239952 73 20
-1.6341903 0.53924352 -0.11671145 74 19
-1.5855454 0.76505333 -0.15491289 74 18
-1.6464831 0.5432868 -0.19446707 72 17
-1.590062 0.76791769 -0.24048644 69 16
-1.6424217 0.54133695 -0.29542232 68 15
-1.5843731 0.76784569 -0.49386552 56 13
-1.6348096 0.53854322 -0.38622272 65 14
-1.580572 0.76800984 -0.59575343 58 12
-1.6390545 0.53590691 -0.68331033 56 11
-1.5759394 0.77211046 -0.9133954 68 9
-1.6403264 0.53446567 -0.79396296 63 10
-1.5805191 0.77772665 -1.0436131 65 8
-0.79169714 0.25573441 -0.53947592 32 7
-0.64133269 0.3163498 -0.51800138 68 6
-0.60198528 0.19275865 -0.50559199 40 5
-0.25352311 0.12454645 -0.23667043 44 4
-0.2354266 0.076248333 -0.22560956 76 3
-0.22527267 0.11144497 -0.25568286 31 2
-0.28886279 0.09145464 -0.35199699 8 1
-0.29521668 0.14814317 -0.41571516 6 0
-1.6292491 0.53893954 0.44858482 58 31
-1.5756935 0.7660259 0.39737535 65 30
-1.6360742 0.54274416 0.32583368 68 29
-1.5732911 0.7641952 0.26812333 70 28
-1.6319408 0.54293448 0.20569691 72 27
-1.5873183 0.77070165 0.16532454 76 26
-1.6373739 0.54536158 0.11764698 74 25
-1.5835927 0.76923561 0.080472864 70 24
-1.6287717 0.54313493 0.039052162 76 23
-1.5828968 0.76923811 0 73 22
-1.6405365 0.5473575 -0.039342295 77 21
-1.578835 0.76759875 -0.080239952 73 20
-1.6299314 0.54415834 -0.11653879 74 19
-1.5852374 0.77139932 -0.15513644 73 18
-1.6469338 0.54981405 -0.19475138 72 17
-1.5875068 0.77318627 -0.24048644 69 16
-1.640522 0.54706675 -0.29542232 68 15
-1.5816832 0.77337146 -0.49386552 56 13
-1.6330148 0.54396147 -0.38622272 63 14
-1.5736414 0.77143681 -0.59411901 59 12
-1.6372683 0.54133928 -0.68331033 56 11
-1.5793051 0.78027433 -0.91691291 65 9
-1.640601 0.54089355 -0.79502583 64 10
-1.581762 0.78487092 -1.0461996 68 8
-0.78685951 0.25722298 -0.53667343 32 7
-0.63672477 0.31669056 -0.51497209 72 6
-0.59588891 0.19301541 -0.50074607 40 5
-0.25794345 0.1278393 -0.241853 42 4
-0.24008018 0.078568481 -0.23106785 79 3
-0.22346467 0.11145404 -0.25377479 28 2
-0.29434872 0.094197944 -0.35995173 8 1
-0.2870059 0.14512929 -0.40348825 4 0
-1.6343285 0.54662788 0.45051837 58 31
-1.5709591 0.77017194 0.39681172 65 30
-1.6342653 0.54816657 0.32583368 67 29
-1.5729649 0.7704975 0.26850969 72 28
-1.6277783 0.54755545 0.20539397 73 27
-1.5846183 0.77623767 0.16532454 73 26
-1.6402857 0.55237341 0.11799403 73 25
-1.5810331 0.77448267 0.080472864 72 24
-1.629331 0.54932827 0.039110187 74 23
-1.5848244 0.77668899 0 76 22
-1.6338776 0.55148888 -0.039226241 76 21
-1.5785216 0.77393228 -0.080356404 73 20
-1.6352103 0.55194306 -0.11705674 73 19
-1.5803012 0.775828 -0.15491289 73 18
-1.642747 0.55448145 -0.19446707 72 17
-1.5870193 0.77981788 -0.2408305 69 16
-1.634029 0.55093688 -0.29456353 68 15
-1.5834185 0.7807436 -0.49524119 54 13
-1.6357268 0.55120814 -0.38733897 64 14
-1.5753078 0.7787506 -0.59575343 58 12
-1.6331697 0.54631913 -0.68237299 56 11
-1.5765717 0.78578234 -0.91691291 67 9
-1.6387982 0.54633093 -0.79502583 64 10
-1.5809244 0.7913478 -1.0474926 64 8
-0.79387391 0.26240376 -0.54227841 29 7
-0.63029194 0.31621626 -0.51042825 67 6
-0.59702742 0.19568008 -0.50236142 41 5
-0.24945207 0.12462279 -0.23321539 45 4
-0.24143857 0.079925038 -0.23288728 73 3
-0.22163965 0.11149102 -0.2518667 27 2
-0.28967974 0.09387026 -0.3539857 8 1
-0.28136161 0.14345095 -0.39533696 4 0
-1.6324104 0.55232942 0.45051837 58 31
-1.5704428 0.77673352 0.39737535 67 30
-1.6346678 0.55465329 0.3263073 65 29
-1.5702659 0.77598351 0.26850969 72 28
-1.6282074 0.55403012 0.20569691 72 27
-1.5796696 0.78065896 0.16508666 74 26
-1.635986 0.55729496 0.11782051 73 25
-1.5805576 0.781106 0.080589324 74 24
-1.6296732 0.55610019 0.039168216 74 23
-1.5821036 0.78221637 0 76 22
-1.6343091 0.55799299 -0.039284267 76 21
-1.5801483 0.78193355 -0.080589324 72 20
-1.6309124 0.55684519 -0.1168841 74 19
-1.5820433 0.78355533 -0.15535997 73 18
-1.6430553 0.56129837 -0.19475138 72 17
-1.5887219 0.78755796 -0.24151857 69 16
-1.6366628 0.55850631 -0.29542232 68 15
-1.5805464 0.78654188 -0.49524119 55 13
-1.6337928 0.55691451 -0.38733897 63 14
-1.572443 0.78451914 -0.59575343 59 12
-1.6311563 0.55230135 -0.68237299 56 11
-1.5738193 0.79128087 -0.91691291 67 9
-1.6346396 0.55161357 -0.79396296 64 10
-1.5741965 0.7952022 -1.0449063 64 8
-0.78701013 0.26336044 -0.53807467 29 7
-0.63444233 0.32123873 -0.51497209 70 6
-0.59267867 0.19668202 -0.49913079 40 5
-0.25059929 0.12636535 -0.23494291 44 4
-0.23787962 0.079759456 -0.22924842 76 3
-0.21838509 0.11076929 -0.24805054 27 2
-0.29222265 0.095845006 -0.35796306 8 1
-0.28339699 0.14583027 -0.3994126 4 0
-1.6280888 0.55752957 0.44987386 58 31
-1.5697634 0.78357482 0.39793903 65 30
-1.6326239 0.56064093 0.3263073 67 29
-1.5674112 0.78173357 0.26850969 70 28
-1.6214709 0.55838484 0.20509103 73 27
-1.5857 0.79089767 0.16603817 73 26
-1.6339324 0.56328744 0.11782051 73 25
-1.5799173 0.78801113 0.080705784 70 24
-1.6277221 0.5617854 0.039168216 74 23
-1.5792261 0.78800976 0 76 22
-1.6322529 0.56397933 -0.039284267 76 21
-1.5729432 0.78520805 -0.080356404 73 20
-1.6312189 0.5636301 -0.11705674 74 19
-1.5769349 0.78823256 -0.15513644 73 18
-1.6387372 0.56622243 -0.19446707 69 17
-1.5858246 0.79337561 -0.24151857 68 16
-1.6323742 0.56341583 -0.29499292 69 15
-1.5756447 0.79097319 -0.49455336 55 13
-1.6317407 0.56289887 -0.38733897 63 14
-1.5718039 0.79106808 -0.59657061 56 12
-1.6270249 0.55724418 -0.6814357 56 11
-1.5728762 0.79804558 -0.91808546 65 9
-1.6369894 0.55877155 -0.7960887 63 10
-1.5771261 0.80361432 -1.0487858 63 8
-0.78804928 0.2667633 -0.53947592 32 7
-0.62801301 0.32071841 -0.51042825 73 6
-0.59561187 0.19994728 -0.50236142 38 5
-0.25336224 0.12890877 -0.23839796 45 4
-0.23759976 0.080589324 -0.22924842 72 3
-0.22083616 0.11307418 -0.2518667 24 2
-0.2918863 0.096864462 -0.35796306 8 1
-0.2739321 0.14206564 -0.38514787 4 0
-1.6261327 0.56320924 0.44987386 58 31
-1.5670185 0.78904951 0.39793903 65 30
-1.6306568 0.56633645 0.3263073 67 29
-1.569083 0.78942591 0.26928237 72 28
-1.6242014 0.56566703 0.20569691 72 27
-1.5762645 0.79306406 0.16532454 73 26
-1.6366684 0.57062292 0.11816755 70 25
-1.577157 0.79352129 0.080705784 72 24
-1.6257513 0.56746376 0.039168216 74 23
-1.580929 0.79577106 0 74 22
-1.6302742 0.56967348 -0.039284267 76 21
-1.5746509 0.79294586 -0.080589324 70 20
-1.6292415 0.56932068 -0.11705674 73 19
-1.5786178 0.79597998 -0.15558352 72 18
-1.6390966 0.57275528 -0.19475138 72 17
-1.5808363 0.79778796 -0.24117453 68 16
-1.6303976 0.56911039 -0.29499292 67 15
-1.5771598 0.79864556 -0.49592903 54 13
-1.6297657 0.5685913 -0.38733897 63 14
-1.5711384 0.7976222 -0.59738785 56 12
-1.629452 0.56443071 -0.68331033 55 11
-1.570081 0.80353105 -0.91808546 65 9
-1.632889 0.56374717 -0.79502583 63 10
-1.576213 0.81009525 -1.0500791 62 8
-0.78515232 0.26884833 -0.53807467 32 7
-0.63041937 0.32474294 -0.51345748 77 6
-0.59310073 0.20142002 -0.50074607 42 5
-0.24651125 0.12643117 -0.23148786 45 4
-0.24057397 0.082490936 -0.23288728 77 3
-0.21330699 0.11005639 -0.2423263 22 2
-0.28866395 0.096948959 -0.3539857 8 1
-0.27854165 0.14575481 -0.39329916 4 0
-1.6241568 0.56888211 0.44987386 58 31
-1.5685951 0.79672617 0.39906633 64 30
-1.6286701 0.57202506 0.3263073 67 29
-1.568519 0.79601878 0.26966873 70 28
-1.6245588 0.57215416 0.20599985 72 27
-1.5780619 0.80054408 0.16580029 73 26
-1.6299599 0.57468063 0.11782051 74 25
-1.5766031 0.80015475 0.080822244 70 24
-1.6237606 0.57313526 0.039168216 74 23
-1.5781417 0.80128473 0 72 22
-1.6283762 0.57507658 -0.039284267 77 21
-1.5718734 0.7984376 -0.080589324 72 20
-1.6272444 0.5750044 -0.11705674 73 19
-1.5759695 0.80121046 -0.15558352 73 18
-1.6347444 0.57764906 -0.19446707 69 17
-1.5825932 0.80527723 -0.24186261 68 16
-1.6307244 0.57561445 -0.29542232 68 15
-1.5786405 0.80633807 -0.49730471 59 13
-1.625572 0.57318568 -0.38678083 63 14
-1.5725477 0.80526078 -0.59902233 59 12
-1.6253828 0.56906855 -0.68237299 56 11
-1.5713292 0.81076342 -0.92043054 64 9
-1.6330485 0.5701862 -0.7960887 63 10
-1.5754163 0.81630468 -1.0513723 63 8
-0.78420913 0.27158737 -0.53807467 32 7
-0.62581539 0.32498568 -0.51042825 74 6
-0.59423715 0.20399682 -0.50236142 42 5
-0.24609065 0.12724793 -0.23148786 44 4
-0.24355251 0.084371783 -0.23652615 72 3
-0.21578906 0.11228777 -0.24614246 22 2
-0.29553926 0.10026403 -0.36392909 8 1
-0.27805677 0.14667769 -0.39329916 4 0
-1.6268177 0.57587034 0.4511629 56 31
-1.5681108 0.80303633 0.39962995 64 30
-1.6267643 0.57742274 0.3263073 67 29
-1.5658706 0.80121577 0.26966873 69 28
-1.6203133 0.57670945 0.20569691 72 27
-1.5796859 0.80832046 0.16627604 73 26
-1.6350967 0.58258373 0.11834107 73 25
-1.5739409 0.80537856 0.080822244 69 24
-1.6242063 0.57935303 0.039226241 74 23
-1.5754759 0.80651361 0 72 22
-1.6240039 0.57991993 -0.039226241 76 21
-1.5736597 0.80592793 -0.080822244 69 20
-1.6229787 0.57956195 -0.1168841 73 19
-1.5753775 0.80784565 -0.15580705 72 18
-1.6351602 0.58389884 -0.19475138 72 17
-1.5841757 0.81306338 -0.2425507 67 16
-1.6288067 0.58101892 -0.29542232 67 15
-1.571687 0.80936229 -0.49592903 55 13
-1.6235613 0.57885647 -0.38678083 63 14
-1.5677707 0.80938458 -0.59820509 59 12
-1.6277581 0.57627916 -0.68424767 55 11
-1.5665324 0.81522149 -0.919258 65 9
-1.6311487 0.57559848 -0.7960887 63 10
-1.5706623 0.82080537 -1.0500791 62 8
-0.77939135 0.27283147 -0.53527224 31 7
-0.62995291 0.32995567 -0.51497209 74 6
-0.59352136 0.20606984 -0.50236142 41 5
-0.24405088 0.12725499 -0.22976033 47 4
-0.23513252 0.082484245 -0.22742899 74 3
-0.21255291 0.11150575 -0.2423263 19 2
-0.29087338 0.09986496 -0.35796306 8 1
-0.2839036 0.15110806 -0.40348825 4 0
-1.6247978 0.58154541 0.4511629 58 31
-1.5674608 0.80962569 0.40019363 63 30
-1.6270503 0.58392352 0.32678086 67 29
-1.5608708 0.80554128 0.26928237 70 28
-1.6229628 0.58403575 0.20630279 72 27
-1.5768547 0.81382966 0.16627604 70 26
-1.6330531 0.58828777 0.11834107 73 25
-1.5733377 0.81201577 0.080938697 69 24
-1.622072 0.58530217 0.039226241 74 23
-1.5748709 0.81315786 0 70 22
-1.6243217 0.58643067 -0.039284267 76 21
-1.5751295 0.8139888 -0.081055157 69 20
-1.6232927 0.58606732 -0.11705674 73 19
-1.5747582 0.81448644 -0.1560306 72 18
-1.6330091 0.5898881 -0.19475138 68 17
-1.5769328 0.81630605 -0.24186261 67 16
-1.6289841 0.58781761 -0.29585171 67 15
-1.5708413 0.81622833 -0.49661684 55 13
-1.6261182 0.58616638 -0.38789707 63 14
-1.5647936 0.81512529 -0.59820509 56 12
-1.6234521 0.58146304 -0.68331033 56 11
-1.5675845 0.82274228 -0.92160302 64 9
-1.6311606 0.5823307 -0.79715157 62 10
-1.5714258 0.82855755 -1.0526655 60 8
-0.78620178 0.2784248 -0.54087716 33 7
-0.62171865 0.32851997 -0.50891364 77 6
-0.59095901 0.2076198 -0.50074607 44 5
-0.24517378 0.12900564 -0.23148786 47 4
-0.2364514 0.08389888 -0.22924842 72 3
-0.20932487 0.11070253 -0.23851015 19 2
-0.29050541 0.10093039 -0.35796306 6 1
-0.2795392 0.15005724 -0.39737478 4 0
-1.6249276 0.58831573 0.45180741 56 31
-1.5687997 0.81762207 0.40132093 63 30
-1.6225907 0.5890488 0.3263073 67 29
-1.5622865 0.81354392 0.27005506 71 28
-1.6184782 0.58913475 0.20599985 74 27
-1.5738612 0.81960368 0.16627604 72 26
-1.626197 0.59256816 0.11799403 72 25
-1.574778 0.8200894 0.081171617 71 24
-1.620019 0.59096074 0.039226241 75 23
-1.5740957 0.82008243 0 74 22
-1.6221615 0.59238017 -0.039284267 77 21
-1.5722786 0.81948209 -0.081055157 70 20
-1.6234778 0.59286523 -0.11722939 75 19
-1.5761744 0.82256234 -0.15647767 72 18
-1.63094 0.59558481 -0.19475138 70 17
-1.578317 0.82437855 -0.2425507 68 16
-1.6269222 0.5935002 -0.29585171 68 15
-1.5701101 0.82282501 -0.49730471 58 13
-1.6239588 0.59212244 -0.38789707 63 14
-1.5640289 0.821684 -0.59902233 60 12
-1.6235929 0.58791226 -0.68424767 56 11
-1.5684583 0.83055401 -0.92394805 64 9
-1.6291178 0.58802092 -0.79715157 62 10
-1.5704117 0.83504492 -1.0539587 63 8
-0.77741903 0.27840164 -0.53527224 32 7
-0.62232006 0.33162987 -0.51042825 80 6
-0.58842969 0.20905101 -0.49913079 45 5
-0.24948591 0.13244836 -0.23667043 49 4
-0.23453626 0.084164687 -0.22742899 72 3
-0.21599728 0.1153562 -0.24805054 17 2
-0.29588962 0.10389172 -0.36591777 8 1
-0.2802808 0.15173332 -0.3994126 4 0
-1.6205946 0.59315723 0.4511629 58 31
-1.5637815 0.82195729 0.40075725 64 30
-1.625136 0.59639388 0.32725447 65 29
-1.5659932 0.82244599 0.2712141 69 28
-1.618742 0.59563434 0.20630279 72 27
-1.5709908 0.82509249 0.16627604 70 26
-1.6264603 0.59909981 0.11816755 73 25
-1.5741154 0.82674533 0.081288077 69 24
-1.6179464 0.59661204 0.039226241 73 23
-1.5712236 0.82557207 0 72 22
-1.6200838 0.59803897 -0.039284267 76 21
-1.5694085 0.82496536 -0.081055157 69 20
-1.6237392 0.5993889 -0.11740204 72 19
-1.5732936 0.8280592 -0.15647767 69 18
-1.6265198 0.60041738 -0.19446707 68 17
-1.5732405 0.82872611 -0.24220666 67 16
-1.6248407 0.59917563 -0.29585171 67 15
-1.5672283 0.82830071 -0.49730471 54 13
-1.6241699 0.59862703 -0.38845521 62 14
-1.5674101 0.83046502 -0.60147393 58 12
-1.6237084 0.59436953 -0.68518502 54 11
-1.5655496 0.83602393 -0.92394805 63 9
-1.6291821 0.59447646 -0.79821444 62 10
-1.5712557 0.84254897 -1.0565451 60 8
-0.78034067 0.28251016 -0.53807467 32 7
-0.61416435 0.33000886 -0.50436974 70 6
-0.59489137 0.2136502 -0.50559199 42 5
-0.24109727 0.12897792 -0.22803281 47 4
-0.23262216 0.084418163 -0.22560956 74 3
-0.21418011 0.1153271 -0.24614246 19 2
-0.2912266 0.103448 -0.35995173 8 1
-0.27848479 0.15200512 -0.39737478 4 0
-1.6185143 0.59881061 0.4511629 56 31
-1.5609028 0.82741088 0.40075725 65 30
-1.6207415 0.60121256 0.32678086 65 29
-1.5609313 0.82674843 0.27082774 69 28
-1.6166531 0.60128123 0.20630279 72 27
-1.5726421 0.83263195 0.1667518 70 26
-1.6266975 0.60564035 0.11834107 73 25
-1.5734252 0.83340651 0.08140453 69 24
-1.6205401 0.60399514 0.039342295 73 23
-1.5683321 0.83105171 0 70 22
-1.6204346 0.60427797 -0.039342295 74 21
-1.5621092 0.82809377 -0.080822244 69 20
-1.6216371 0.60505313 -0.11740204 73 19
-1.5749351 0.83561128 -0.15692475 69 18
-1.6290706 0.60782123 -0.19503568 68 17
-1.5748547 0.83626676 -0.24289475 65 16
-1.6273572 0.60655749 -0.29671049 67 15
-1.5664471 0.83489949 -0.49799252 56 13
-1.6198908 0.60316253 -0.38789707 62 14
-1.5645015 0.83593118 -0.60147393 58 12
-1.6217284 0.59975064 -0.68518502 55 11
-1.5627685 0.84121084 -0.92394805 63 9
-1.6249731 0.5993799 -0.79715157 60 10
-1.5684531 0.84775484 -1.0565451 62 8
-0.78129649 0.28593743 -0.53947592 32 7
-0.62004834 0.33585814 -0.51042825 70 6
-0.5869931 0.21305144 -0.49913079 42 5
-0.24066824 0.12977672 -0.22803281 47 4
-0.23395795 0.085759163 -0.22742899 73 3
-0.22226004 0.12075907 -0.25759095 17 2
-0.29660684 0.10640008 -0.36790645 8 1
-0.28302842 0.15576708 -0.40552607 4 0
-1.6165197 0.60417449 0.4511629 58 31
-1.5602974 0.83373308 0.40132093 64 30
-1.6233387 0.60829997 0.32772809 66 29
-1.5603586 0.83308619 0.2712141 71 28
-1.6169745 0.60750842 0.20660573 74 27
-1.5719199 0.83929133 0.16698968 72 26
-1.6246802 0.61103141 0.11834107 75 25
-1.5706527 0.83861965 0.08140453 71 24
-1.6161882 0.6084885 0.039284267 75 23
-1.5721786 0.83978963 0 71 22
-1.6183156 0.60993063 -0.039342295 76 21
-1.5659579 0.83680844 -0.081171617 71 20
-1.6149518 0.60867482 -0.11705674 74 19
-1.5720087 0.84110379 -0.15692475 71 18
-1.6293715 0.61409271 -0.19532 70 17
-1.5719261 0.84175897 -0.24289475 68 16
-1.6230308 0.61108619 -0.2962811 68 15
-1.5657856 0.84122962 -0.49868038 59 13
-1.6177754 0.60881341 -0.38789707 63 14
-1.561721 0.8411147 -0.60147393 59 12
-1.6239692 0.60702437 -0.68705964 55 11
-1.5637009 0.84877264 -0.92629313 63 9
-1.625098 0.60555208 -0.79821444 58 10
-1.5692387 0.85527748 -1.0591314 62 8
-0.77839965 0.28781518 -0.53807467 32 7
-0.61538798 0.33610108 -0.50739902 74 6
-0.58804023 0.215748 -0.50074607 46 5
-0.23863477 0.12973717 -0.22630529 49 4
-0.23688716 0.087726727 -0.23106785 71 3
-0.22183716 0.12153417 -0.25759095 17 2
-0.29337466 0.10643134 -0.36392909 8 1
-0.28122315 0.15603985 -0.40348825 4 0
-1.6189228 0.61151409 0.45245194 58 31
-1.5573776 0.83917451 0.40132093 64 30
-1.6212056 0.61396283 0.32772809 67 29
-1.5574412 0.8385278 0.2712141 69 28
-1.614844 0.61314905 0.20660573 72 27
-1.5733602 0.84713823 0.16746543 72 26
-1.6225374 0.61669886 0.11834107 70 25
-1.5699133 0.84528381 0.081520997 69 24
-1.616284 0.61529386 0.039342295 73 23
-1.5670382 0.8440842 0 69 22
-1.6138397 0.61468971 -0.039284267 74 21
-1.5650771 0.84373015 -0.081288077 69 20
-1.6151493 0.61519283 -0.11722939 72 19
-1.5690632 0.84658599 -0.15692475 69 18
-1.6271099 0.62006062 -0.19532 68 17
-1.5689782 0.84724081 -0.24289475 67 16
-1.6207801 0.6170308 -0.2962811 67 15
-1.5626919 0.84696287 -0.49868038 56 13
-1.6179196 0.61531973 -0.38845521 62 14
-1.5627767 0.84909421 -0.60310835 56 12
-1.6173953 0.61134005 -0.68518502 55 11
-1.5607285 0.85422581 -0.92629313 60 9
-1.6249862 0.61229891 -0.79927731 62 10
-1.56422 0.85998994 -1.0578382 62 8
-0.77345622 0.28922898 -0.53527224 29 7
-0.62110621 0.34221864 -0.51345748 73 6
-0.58724552 0.21790183 -0.50074607 42 5
-0.24130921 0.13238022 -0.22976033 49 4
-0.23495115 0.08801274 -0.22924842 69 3
-0.22422169 0.12390155 -0.26140711 15 2
-0.2972655 0.10902675 -0.36989516 8 1
-0.28316379 0.15850723 -0.40756389 4 0
-1.6189283 0.61830217 0.45309645 55 31
-1.5649836 0.85070658 0.40413919 60 30
-1.6166507 0.61902618 0.32725447 64 29
-1.5586954 0.84659368 0.27198678 68 28
-1.6149038 0.61994958 0.20690867 70 27
-1.565874 0.85051817 0.16698968 70 26
-1.6225954 0.62353289 0.11851459 70 25
-1.5689976 0.85222679 0.08163745 69 24
-1.6141263 0.62093198 0.039342295 73 23
-1.5683241 0.85221469 0 69 22
-1.6162432 0.62239033 -0.039400321 74 21
-1.5665076 0.85157901 -0.081520997 68 20
-1.6152122 0.62200147 -0.11740204 72 19
-1.5659497 0.85233128 -0.15692475 69 18
-1.6226162 0.62484723 -0.19503568 68 17
-1.5680355 0.85417295 -0.24323879 67 16
-1.6163166 0.62180358 -0.29585171 64 15
-1.5618335 0.85356784 -0.49936819 56 13
-1.6179291 0.62211692 -0.38901332 62 14
-1.5598034 0.85454422 -0.60310835 58 12
-1.6174177 0.61780584 -0.6861223 54 11
-1.5614502 0.86208004 -0.92863816 62 9
-1.6207231 0.61716545 -0.79821444 60 10
-1.5668181 0.86856449 -1.0617179 60 8
-0.78019851 0.29482871 -0.54087716 28 7
-0.61990786 0.34438464 -0.51345748 74 6
-0.58648133 0.21995038 -0.50074607 45 5
-0.24084565 0.13322175 -0.22976033 49 4
-0.23142083 0.087657839 -0.22560956 68 3
-0.21815753 0.1215144 -0.25377479 15 2
-0.29545724 0.10955182 -0.36790645 8 1
-0.28386346 0.16021791 -0.40960172 4 0
-1.6145055 0.62308311 0.45245194 58 31
-1.5577358 0.8538174 0.40301186 63 30
-1.6167705 0.62554812 0.32772809 64 29
-1.5492359 0.84846187 0.27082774 69 28
-1.6150448 0.62647706 0.20721161 70 27
-1.5695891 0.85929936 0.1677033 70 26
-1.6227353 0.6300925 0.11868811 70 25
-1.5638245 0.85649616 0.081520997 69 24
-1.6142801 0.62746483 0.039400321 72 23
-1.5653398 0.85768396 0 69 22
-1.616501 0.62864906 -0.039458349 74 21
-1.5613368 0.85583884 -0.08140453 67 20
-1.6130313 0.62763578 -0.11740204 73 19
-1.5652963 0.85871971 -0.15714829 68 18
-1.6250573 0.63230211 -0.19560429 68 17
-1.5673634 0.86056244 -0.24358284 67 16
-1.6210266 0.63010883 -0.29713988 65 15
-1.5609481 0.86017722 -0.50005603 55 13
-1.6135844 0.62659991 -0.38845521 62 14
-1.556811 0.85998368 -0.60310835 59 12
-1.61536 0.62316597 -0.6861223 55 11
-1.5585829 0.86725324 -0.92863816 60 9
-1.618559 0.62281907 -0.79821444 63 10
-1.567662 0.87584764 -1.0643042 62 8
-0.77335471 0.29535383 -0.53667343 31 7
-0.61529851 0.34448266 -0.51042825 70 6
-0.58038634 0.21989119 -0.49590015 46 5
-0.24197227 0.13491502 -0.23148786 50 4
-0.23434663 0.089609958 -0.22924842 65 3
-0.22195177 0.12465721 -0.25949904 17 2
-0.29224402 0.10949767 -0.36392909 8 1
-0.2820783 0.16043097 -0.40756389 4 0
-1.6124303 0.62843353 0.45245194 56 31
-1.5527655 0.85779792 0.40244824 64 30
-1.6146873 0.63090599 0.32772809 66 29
-1.5550575 0.85837996 0.27237311 71 28
-1.6106465 0.63092756 0.20690867 72 27
-1.5665802 0.86477304 0.1677033 72 26
-1.6206368 0.63547021 0.11868811 72 25
-1.5697149 0.86651552 0.08198683 70 24
-1.6145182 0.63372439 0.039458349 74 23
-1.5624871 0.8628701 0 71 22
-1.6142968 0.63428789 -0.039458349 76 21
-1.5584903 0.86101168 -0.08140453 70 20
-1.6132637 0.63389015 -0.1175747 72 19
-1.5688214 0.8678022 -0.1578189 70 18
-1.6206386 0.63678253 -0.19532 68 17
-1.562185 0.86482632 -0.24323879 68 16
-1.6189282 0.63548088 -0.29713988 63 15
-1.5601867 0.86651832 -0.50074387 58 13
-1.615927 0.63400209 -0.38957146 62 14
-1.5580763 0.86744541 -0.60474283 59 12
-1.6174963 0.63047785 -0.68799692 55 11
-1.5574704 0.87377131 -0.9298107 62 9
-1.6185951 0.62899935 -0.79927731 63 10
-1.5608697 0.87920928 -1.0617179 63 8
-0.77043688 0.29717812 -0.53527224 34 7
-0.61754942 0.34859622 -0.51345748 75 6
-0.58675575 0.22461112 -0.50236142 47 5
-0.23836668 0.13395719 -0.22803281 50 4
-0.23563921 0.091025628 -0.23106785 71 3
-0.22011866 0.12461965 -0.25759095 14 2
-0.29186004 0.11051712 -0.36392909 8 1
-0.28526577 0.16360989 -0.41367733 4 0
-1.6124758 0.63493991 0.45309645 58 31
-1.5540144 0.86558861 0.40357554 64 30
-1.6170443 0.63833457 0.32867527 64 29
-1.5498952 0.86259907 0.27198678 68 28
-1.6107433 0.6374557 0.20721161 68 27
-1.5635518 0.87023616 0.1677033 70 26
-1.6207286 0.6420387 0.11886163 69 25
-1.5644999 0.8707723 0.08187037 68 24
-1.6121845 0.63963765 0.039458349 72 23
-1.5572827 0.8671 0 69 22
-1.6143972 0.64083779 -0.039516374 74 21
-1.5596839 0.86915475 -0.08163745 69 20
-1.6110412 0.63951761 -0.1175747 69 19
-1.5614363 0.8708421 -0.15737183 69 18
-1.6229132 0.6445452 -0.19588861 67 17
-1.5613174 0.87148368 -0.24358284 67 16
-1.6188787 0.64231539 -0.29756927 62 15
-1.5570003 0.87223089 -0.50074387 56 13
-1.613704 0.6396389 -0.38957146 60 14
-1.5548865 0.87315023 -0.60474283 58 12
-1.6173322 0.63724852 -0.68893427 54 11
-1.5563313 0.8802923 -0.93098325 58 9
-1.6141714 0.63410348 -0.79821444 63 10
-1.5632132 0.88810247 -1.0655974 60 8
-0.76934254 0.29999992 -0.53527224 35 7
-0.61109281 0.3478865 -0.50891364 70 6
-0.58771122 0.22744057 -0.5039767 46 5
-0.24256393 0.13754965 -0.23321539 51 4
-0.23369941 0.091284603 -0.22924842 67 3
-0.21689472 0.12375439 -0.25377479 14 2
-0.28719178 0.11000559 -0.35796306 8 1
-0.27842897 0.1609727 -0.40348825 3 0
-1.6123831 0.64173561 0.45374098 55 31
-1.5550752 0.87366986 0.40470284 62 30
-1.6124125 0.64335066 0.32820165 65 29
-1.5510277 0.87069738 0.27275947 68 28
-1.6130067 0.64519185 0.20781749 68 27
-1.5625204 0.87718195 0.16794118 69 26
-1.6183646 0.64797467 0.11886163 69 25
-1.5612979 0.87650061 0.08187037 69 24
-1.6076208 0.64433479 0.039400321 70 23
-1.560629 0.87648255 0 68 22
-1.6120375 0.64675063 -0.039516374 74 21
-1.5588162 0.87581974 -0.08175391 68 20
-1.6110023 0.64634353 -0.11774734 69 19
-1.5625713 0.87900615 -0.1578189 69 18
-1.6183468 0.64928472 -0.19560429 68 17
-1.5602689 0.87841779 -0.24392687 65 16
-1.6143394 0.64704937 -0.29713988 62 15
-1.5602201 0.88121444 -0.50280738 55 13
-1.6090853 0.64464611 -0.38901332 62 14
-1.5538836 0.87973917 -0.60556006 56 12
-1.6129432 0.6420362 -0.68799692 54 11
-1.5530945 0.88599056 -0.93098325 58 9
-1.6182617 0.64222872 -0.80140305 63 10
-1.5582484 0.89248776 -1.0643042 54 8
-0.77214831 0.30418843 -0.53807467 32 7
-0.60987478 0.35001755 -0.50891364 74 6
-0.57801235 0.22605772 -0.49590015 49 5
-0.23740201 0.13565947 -0.22803281 55 4
-0.23337933 0.092099801 -0.22924842 65 3
-0.21783046 0.12537004 -0.25568286 13 2
-0.28680602 0.11100741 -0.35796306 8 1
-0.27537644 0.16046228 -0.3994126 3 0
-1.6101333 0.64735997 0.45374098 58 31
-1.5477806 0.87668663 0.40357554 64 30
-1.6124351 0.64988947 0.32867527 64 29
-1.5458308 0.87488693 0.27237311 70 28
-1.6107446 0.65081835 0.20781749 68 27
-1.5616132 0.88385934 0.16817905 70 26
-1.6160929 0.65361983 0.11886163 73 25
-1.5647444 0.88564354 0.082219742 68 24
-1.6099979 0.65181178 0.039516374 70 23
-1.55756 0.88192481 0 69 22
-1.6097702 0.65237367 -0.039516374 72 21
-1.5579208 0.88248909 -0.08187037 68 20
-1.6087363 0.65196306 -0.11774734 69 19
-1.5594935 0.8844552 -0.1578189 68 18
-1.6206771 0.65678912 -0.19617291 67 17
-1.5550412 0.88263386 -0.24358284 67 16
-1.6166393 0.65452254 -0.29799867 64 15
-1.5550474 0.8854633 -0.50211954 55 13
-1.6113458 0.65208071 -0.39012957 62 14
-1.5549041 0.88750553 -0.60719448 56 12
-1.6128439 0.64852399 -0.68893427 56 11
-1.5519048 0.89250976 -0.93215573 58 9
-1.61601 0.64787358 -0.80140305 63 10
-1.5588264 0.90006644 -1.0668907 62 8
-0.77108181 0.30688187 -0.53807467 31 7
-0.60521334 0.35013968 -0.50588435 70 6
-0.58433121 0.23084517 -0.50236142 46 5
-0.24004082 0.13832225 -0.23148786 59 4
-0.23465677 0.093529157 -0.23106785 67 3
-0.2160036 0.12530327 -0.25377479 10 2
-0.2892502 0.11308135 -0.36194041 8 1
-0.2735728 0.16067754 -0.39737478 3 0
-1.6079777 0.65269583 0.45374098 58 31
-1.5512062 0.8854447 0.40526652 63 30
-1.6102711 0.65523297 0.32867527 64 29
-1.5472091 0.88246107 0.27314579 68 28
-1.6062787 0.65522218 0.20751455 70 27
-1.5565135 0.88779736 0.16794118 69 26
-1.6162268 0.65991491 0.11903515 68 25
-1.559631 0.88958764 0.082103282 69 24
-1.6101424 0.65808946 0.039574403 70 23
-1.5589665 0.88956839 0 69 22
-1.6122271 0.6595946 -0.039632428 73 21
-1.5571532 0.88889128 -0.08198683 68 20
-1.6042559 0.65635306 -0.1175747 72 19
-1.5565521 0.88962173 -0.1578189 68 18
-1.6184902 0.66215986 -0.19617291 68 17
-1.5564015 0.89024991 -0.24427092 67 16
-1.6121788 0.65895128 -0.29756927 64 15
-1.5562689 0.89301294 -0.50349522 55 13
-1.6091746 0.65742058 -0.39012957 60 14
-1.5539992 0.89383745 -0.60801172 56 12
-1.6085356 0.65300012 -0.68799692 54 11
-1.5508456 0.89876086 -0.93332827 56 9
-1.6117539 0.65238309 -0.80034018 62 10
-1.5595288 0.90738761 -1.0694771 60 8
-0.76813626 0.30867165 -0.53667343 31 7
-0.61262202 0.35718456 -0.51345748 68 6
-0.58001137 0.23138423 -0.49913079 49 5
-0.23491925 0.13634965 -0.22630529 58 4
-0.23274703 0.093686216 -0.22924842 69 3
-0.21697204 0.12684985 -0.25568286 12 2
-0.28887364 0.11403991 -0.36194041 8 1
-0.25816569 0.15259431 -0.37292096 3 0
-1.6101621 0.66013086 0.45503002 58 31
-1.543887 0.88841915 0.40413919 63 30
-1.6079741 0.66084981 0.32867527 64 29
-1.5441194 0.88785642 0.27314579 68 28
-1.6062773 0.66176718 0.20781749 68 27
-1.557717 0.89571154 0.16841693 70 26
-1.6139134 0.66555256 0.11903515 69 25
-1.5586797 0.89627385 0.082219742 68 24
-1.6077194 0.66398644 0.039574403 70 23
-1.5558519 0.89500475 0 69 22
-1.6076035 0.66426706 -0.039574403 74 21
-1.551722 0.89334387 -0.08187037 67 20
-1.6065677 0.66384739 -0.11792 69 19
-1.557749 0.89754122 -0.15826598 68 18
-1.6137557 0.66714174 -0.19588861 68 17
-1.5532845 0.89567727 -0.24427092 67 16
-1.6120304 0.66579276 -0.29799867 64 15
-1.5550642 0.89991742 -0.50418305 54 13
-1.6046159 0.66210735 -0.38957146 62 14
-1.5527548 0.90071523 -0.6088289 56 12
-1.6082771 0.65976781 -0.68893427 53 11
-1.5496038 0.90528512 -0.93450081 56 9
-1.6114477 0.65913957 -0.80140305 60 10
-1.5561925 0.9130975 -1.0694771 60 8
-0.77084148 0.31303009 -0.53947592 32 7
-0.60446513 0.35537058 -0.50739902 69 6
-0.57738638 0.23280331 -0.49751547 54 5
-0.23596838 0.13813806 -0.22803281 59 4
-0.22921008 0.093285784 -0.22560956 64 3
-0.21376342 0.12593484 -0.2518667 10 2
-0.28986663 0.11564454 -0.36392909 8 1
-0.25760466 0.15353952 -0.37292096 3 0
-1.6077318 0.66602796 0.45503002 56 31
-1.5448304 0.8965221 0.40526652 60 30
-1.6078095 0.6676771 0.32914886 65 29
-1.54299 0.89475161 0.27353215 69 28
-1.6038411 0.66765004 0.20781749 67 27
-1.5565747 0.90266591 0.16865481 69 26
-1.6091596 0.67050737 0.11886163 68 25
-1.5553843 0.90198064 0.082219742 68 24
-1.605392 0.66959447 0.039574403 70 23
-1.5547221 0.90195841 0 67 22
-1.6074659 0.67111444 -0.039632428 73 21
-1.5507526 0.90001112 -0.08198683 65 20
-1.6041238 0.66973126 -0.11792 69 19
-1.554449 0.90324461 -0.15826598 68 18
-1.6205907 0.67658561 -0.19702585 65 17
-1.5478523 0.90011698 -0.24392687 67 16
-1.6096966 0.67141575 -0.29799867 64 15
-1.5498389 0.90412635 -0.50349522 54 13
-1.6066797 0.66985315 -0.3906877 60 14
-1.5475632 0.9049347 -0.60801172 56 12
-1.6102492 0.66714561 -0.69080895 55 11
-1.5481763 0.91208184 -0.93567336 56 9
-1.6112297 0.66562134 -0.80246586 63 10
-1.5548358 0.91961581 -1.0707703 59 8
-0.76590776 0.31416038 -0.53667343 35 7
-0.60322094 0.35747835 -0.50739902 69 6
-0.57834077 0.23552874 -0.49913079 58 5
-0.23393756 0.13802719 -0.22630529 59 4
-0.23207067 0.095349312 -0.22924842 62 3
-0.21605879 0.12839922 -0.25568286 9 2
-0.29228318 0.11775876 -0.36790645 8 1
-0.25583315 0.15367982 -0.37088314 3 0
-1.6053972 0.67163593 0.45503002 56 31
-1.5437924 0.90314162 0.40583014 62 30
-1.6077343 0.67423147 0.32962245 64 29
-1.5398573 0.90013224 0.27353215 69 28
-1.6015009 0.67324442 0.20781749 70 27
-1.5577081 0.91061103 0.16913056 69 26
-1.6114097 0.67804837 0.11920867 68 25
-1.5522263 0.90740448 0.082219742 68 24
-1.6030449 0.6751942 0.039574403 70 23
-1.5558771 0.90990931 0 68 22
-1.6051135 0.67672151 -0.039632428 70 21
-1.5519094 0.90794629 -0.082219742 67 20
-1.6063753 0.67725796 -0.11826529 68 19
-1.5555806 0.91118741 -0.15871306 65 18
-1.6159291 0.68127674 -0.19674155 67 17
-1.5511048 0.90927917 -0.24495901 65 16
-1.6050719 0.67607772 -0.29756927 63 15
-1.5528843 0.91319376 -0.50555873 54 13
-1.6065788 0.67639983 -0.39124581 60 14
-1.5484626 0.91273588 -0.60964614 55 12
-1.6057712 0.67187095 -0.68987161 53 11
-1.5449831 0.91748059 -0.93567336 56 9
-1.6068069 0.6703735 -0.80140305 60 10
-1.5516164 0.92503756 -1.0707703 58 8
-0.77055275 0.31918985 -0.54087716 37 7
-0.60367322 0.36060798 -0.50891364 68 6
-0.58281916 0.23969877 -0.5039767 60 5
-0.23345432 0.13884294 -0.22630529 62 4
-0.23491961 0.097433932 -0.23288728 65 3
-0.21423304 0.12830694 -0.25377479 9 2
-0.28764313 0.11710889 -0.36194041 8 1
nan nan nan 0 0
-1.6052693 0.67817253 0.4556745 55 31
-1.5448233 0.91100466 0.40695745 64 30
-1.605371 0.67983943 0.32962245 64 29
-1.5367059 0.90550184 0.27353215 67 28
-1.599141 0.67883062 0.20781749 68 27
-1.5503944 0.91324019 0.16865481 69 26
-1.609033 0.68366915 0.11920867 68 25
-1.5490494 0.91281718 0.082219742 67 24
-1.6006783 0.68078578 0.039574403 70 23
-1.5526915 0.91533482 0 67 22
-1.6074629 0.68399119 -0.039748482 73 21
-1.5508801 0.9146291 -0.082336202 67 20
-1.6017052 0.68188745 -0.11809264 68 19
-1.556836 0.91887742 -0.15916014 65 18
-1.6135411 0.68691325 -0.19674155 67 17
-1.548081 0.9144178 -0.24495901 65 16
-1.6095055 0.68455857 -0.29885745 63 15
-1.5476211 0.91738051 -0.50487089 55 13
-1.604327 0.68172371 -0.39124581 59 14
-1.5493265 0.92055428 -0.61128062 55 12
-1.607807 0.67898911 -0.69174623 55 11
-1.5438253 0.92373502 -0.93684584 55 9
-1.6086302 0.67772895 -0.80352879 64 10
-1.5522056 0.93238616 -1.0733567 59 8
-0.76560849 0.32029235 -0.53807467 41 7
-0.59737295 0.35951239 -0.50436974 65 6
-0.5784899 0.24018332 -0.50074607 67 5
-0.23607425 0.14150478 -0.22976033 60 4
-0.22982681 0.09628392 -0.22742899 67 3
-0.21792668 0.13156737 -0.25949904 8 2
-0.28866044 0.11862324 -0.36392909 8 1
-0.29533207 0.18070747 -0.43813115 6 0
-1.6007884 0.68254793 0.45503002 56 31
-1.5376092 0.91362888 0.40583014 62 30
-1.6053662 0.68612081 0.33009604 64 29
-1.5336946 0.91059285 0.27353215 68 28
-1.5991638 0.68510389 0.20812044 67 27
-1.5514739 0.92119282 0.16913056 68 26
-1.6113439 0.69096053 0.11955571 68 25
-1.5460138 0.91794902 0.082219742 68 24
-1.6007099 0.68707263 0.039632428 70 23
-1.5517955 0.92175812 0 67 22
-1.6027676 0.68861473 -0.039690454 73 21
-1.5456933 0.91848856 -0.082219742 65 20
-1.6017281 0.68817645 -0.11826529 68 19
-1.5514807 0.9230305 -0.15893659 67 18
-1.6112545 0.69226015 -0.19674155 65 17
-1.5491319 0.92235488 -0.2456471 64 16
-1.6049619 0.68892384 -0.29842806 63 15
-1.5486945 0.9249776 -0.50624651 54 13
-1.6041784 0.68827736 -0.39180395 59 14
-1.5442396 0.92447084 -0.61046338 56 12
-1.6054271 0.68459731 -0.69174623 54 11
-1.5424807 0.93026119 -0.93801838 55 9
-1.6084576 0.68394196 -0.8045916 63 10
-1.5489414 0.93779874 -1.0733567 58 8
-0.77027225 0.32522637 -0.54227841 41 7
-0.59950793 0.36367095 -0.50739902 67 6
-0.58117408 0.2436603 -0.5039767 69 5
-0.22942883 0.13852961 -0.22285026 67 4
-0.23425096 0.099030703 -0.23288728 67 3
-0.21472517 0.13061722 -0.25568286 8 2
-0.28964984 0.12019618 -0.36591777 6 1
-0.30083016 0.18559051 -0.4483203 6 0
-1.600616 0.68908346 0.4556745 58 31
-1.5364987 0.92024463 0.40639383 63 30
-1.6029614 0.69172031 0.33009604 64 29
-1.5326246 0.91721183 0.27391851 68 28
-1.6013205 0.69264573 0.20872632 67 27
-1.5525166 0.92916417 0.16960631 68 26
-1.6066324 0.69559324 0.11938219 67 25
-1.5470825 0.92591012 0.082452662 68 24
-1.6004753 0.69392592 0.039690454 70 23
-1.5507116 0.92845607 0 65 22
-1.6026486 0.69519669 -0.039748482 70 21
-1.5423164 0.92414773 -0.082219742 65 20
-1.6016054 0.69475257 -0.11843794 68 19
-1.5482492 0.92844045 -0.15893659 65 18
-1.610986 0.69914669 -0.19702585 64 17
-1.5459027 0.92775685 -0.2456471 64 16
-1.6046873 0.69577825 -0.29885745 63 15
