# .PCD v0.7 - Point Cloud Data file format
VERSION 0.7
FIELDS x y z intensity ring
SIZE 4 4 4 4 2
TYPE F F F F U
COUNT 1 1 1 1 1
WIDTH 1187
HEIGHT 1
VIEWPOINT 0 0 0 1 0 0 0
POINTS 1187
DATA ascii
0.69291586 -0.094906144 0.063513167 45 26
0.73816621 -0.0068327226 0.048932817 13 25
0.70508945 -0.096618854 0.031560272 24 24
0.70827663 -0.097191639 0 90 22
0.71989352 -0.098950289 -0.032259021 11 20
0.71783984 -0.099038661 -0.061920449 71 18
0.73609465 -0.10186975 -0.098396458 35 16
0.67853534 -0.09551625 0.15049534 97 30
0.70498949 -0.008265987 0.12929156 76 29
0.67541772 -0.094844915 0.10122235 51 28
0.70983106 -0.0089008529 0.082399942 43 27
0.69998753 -0.098264419 0.064226799 47 26
0.73564392 -0.0093858568 0.048759297 37 25
0.70474792 -0.099079475 0.031560272 26 24
0.70793307 -0.099663392 0 90 22
0.70718503 -0.099681661 -0.031676728 13 20
0.71257865 -0.10070654 -0.06147337 80 18
0.73330206 -0.10395528 -0.098052412 38 16
0.68062443 -0.098121203 0.151059 97 30
0.70250356 -0.010575494 0.12881798 75 29
0.67998677 -0.097803243 0.10199504 38 28
0.71724182 -0.01134694 0.083308764 46 27
0.68979162 -0.099258177 0.063275285 50 26
0.73311496 -0.011793514 0.048585776 41 25
0.71429825 -0.10287004 0.032026105 25 24
0.72961265 -0.011997534 0.016131502 16 23
0.71007198 -0.10237477 0 90 22
0.70685059 -0.10202622 -0.031676728 12 20
0.71222281 -0.1031933 -0.06147337 85 18
0.73538417 -0.1068778 -0.098396458 49 16
0.68027776 -0.10049643 0.151059 98 30
0.70000798 -0.012990782 0.12834437 76 29
0.68696839 -0.10128044 0.10315407 23 28
0.70727277 -0.013692864 0.082097001 41 27
0.68944097 -0.10166539 0.063275285 49 26
0.72309482 -0.014190574 0.047891695 45 25
0.71393478 -0.10536277 0.032026105 26 24
0.72456574 -0.014587867 0.016015448 17 23
0.69982219 -0.10336087 0 90 22
0.69659495 -0.10312253 -0.031210894 13 20
0.71924382 -0.10679838 -0.062143989 85 18
0.72031796 -0.10721217 -0.096332192 64 16
0.67990482 -0.10298911 0.151059 97 30
0.70486426 -0.01564803 0.12929156 79 29
0.67194647 -0.10153553 0.10083601 18 28
0.70721787 -0.016285056 0.082097001 39 27
0.7013613 -0.10609099 0.064464673 58 26
0.72054446 -0.016791135 0.047718175 51 25
0.70613968 -0.10683519 0.031676728 24 24
0.71951282 -0.017015791 0.015899394 35 23
0.70685059 -0.10707125 0 88 22
0.69869876 -0.10593554 -0.031327356 18 20
0.71146607 -0.10828717 -0.06147337 90 18
0.72726035 -0.11099442 -0.097364321 70 16
0.67472994 -0.10459975 0.14993168 96 30
0.70480531 -0.01810837 0.12929156 76 29
0.6764673 -0.10465152 0.10160869 15 28
0.71956128 -0.019039441 0.083611704 28 27
0.69361216 -0.10737319 0.063751042 85 26
0.72546804 -0.019422848 0.048065215 53 25
0.70082915 -0.10851984 0.031443812 22 24
0.72944349 -0.019764533 0.016131502 41 23
0.69906467 -0.10836601 0 83 22
0.74692678 -0.020440498 -0.016537691 10 21
0.7057243 -0.10954579 -0.031676728 21 20
0.71108377 -0.11076998 -0.06147337 85 18
0.72197765 -0.11275336 -0.096676238 81 16
0.68638229 -0.10890143 0.15274997 95 30
0.70228392 -0.020505518 0.12881798 79 29
0.67365956 -0.10661813 0.10122235 14 28
0.70956767 -0.021287756 0.082399942 14 27
0.69323313 -0.10979369 0.063751042 90 26
0.73038191 -0.022089133 0.048412256 62 25
0.70291138 -0.11136394 0.031560272 18 24
0.71437967 -0.021902401 0.01578334 46 23
0.69868213 -0.11080553 0 77 22
0.73685735 -0.022771982 -0.016305583 11 21
0.70533758 -0.11200856 -0.031676728 25 20
0.7156083 -0.11405024 -0.061920449 87 18
0.72157967 -0.11527284 -0.096676238 85 16
0.67878908 -0.11010327 0.151059 95 30
0.70220798 -0.02295682 0.12881798 76 29
0.68303096 -0.11057922 0.10276773 22 28
0.71693033 -0.023987934 0.083308764 9 27
0.69286525 -0.11209194 0.063751042 90 26
0.72780758 -0.024562782 0.048238736 64 25
0.70498228 -0.11422388 0.031676728 24 24
0.71679699 -0.024472676 0.015841367 47 23
0.69829106 -0.11324371 0 70 22
0.72428709 -0.024829373 -0.016015448 27 21
0.71479732 -0.11610145 -0.032142565 22 20
0.71031338 -0.11560758 -0.06147337 85 18
0.72363615 -0.1180712 -0.097020283 90 16
0.6808219 -0.11275939 0.15162265 91 30
0.69967461 -0.025205627 0.12834437 74 29
0.67778939 -0.11202236 0.10199504 27 28
0.70940626 -0.026117099 0.082399942 8 27
0.69983184 -0.11575106 0.064464673 90 26
0.7327072 -0.027144127 0.048585776 70 25
0.69967455 -0.11573071 0.031443812 42 24
0.71421403 -0.02676448 0.01578334 50 23
0.69791174 -0.11555871 0 68 22
0.73668528 -0.027787045 -0.016305583 36 21
0.70702124 -0.11722305 -0.031793188 27 20
0.71236044 -0.11850244 -0.061696909 81 18
0.71345466 -0.11893781 -0.095644109 83 16
0.68522447 -0.11596352 0.15274997 90 30
0.70203543 -0.027736031 0.12881798 70 29
0.67982835 -0.11480673 0.10238139 35 28
0.70435095 -0.028410496 0.081794061 9 27
0.69697094 -0.1177709 0.064226799 91 26
0.73260796 -0.029701589 0.048585776 69 25
0.69926631 -0.11817231 0.031443812 45 24
0.72410131 -0.029758826 0.016015448 51 23
0.70243144 -0.1188435 0 65 22
0.72909129 -0.030074481 -0.016131502 38 21
0.70904768 -0.12023868 -0.031909645 35 20
0.73758847 -0.030402552 -0.048687316 19 19
0.71439588 -0.12141299 -0.061920449 76 18
0.72523403 -0.1235434 -0.097364321 87 16
0.68479484 -0.11847422 0.15274997 90 30
0.70192909 -0.03030893 0.12881798 68 29
0.66724002 -0.11515738 0.10044966 28 28
0.70920122 -0.031192794 0.082399942 10 27
0.69408357 -0.11989334 0.063988924 92 26
0.72501856 -0.032081053 0.048065215 73 25
0.69144994 -0.11943609 0.031094434 44 24
0.72149587 -0.032183312 0.015957421 55 23
0.70691532 -0.12228462 0 56 22
0.7339704 -0.032954108 -0.016247556 40 21
0.69878626 -0.12097839 -0.031443812 40 20
0.73248845 -0.032898605 -0.048342019 36 19
0.70904231 -0.12316325 -0.06147337 73 18
0.71502352 -0.12447219 -0.095988154 82 16
0.67478853 -0.1191386 0.15049534 90 30
0.71162885 -0.033182096 0.13071236 62 29
0.67655832 -0.11923196 0.10199504 33 28
0.70908797 -0.033668179 0.082399942 12 27
0.69366091 -0.12231541 0.063988924 91 26
0.73486829 -0.035053741 0.048759297 69 25
0.69840276 -0.1231731 0.031443812 38 24
0.71888226 -0.034589976 0.015899394 56 23
0.69664192 -0.12298235 0 45 22
0.72386372 -0.035065919 -0.016015448 42 21
0.70573318 -0.12474358 -0.031793188 42 20
0.72738612 -0.035230733 -0.047996718 44 19
0.71350884 -0.12652194 -0.061920449 69 18
0.71945798 -0.1278486 -0.096676238 90 16
0.68155545 -0.12281238 0.15218632 90 30
0.70905662 -0.035551593 0.13023876 56 29
0.6737085 -0.12114783 0.10160869 41 28
0.70896614 -0.03614315 0.082399942 14 27
0.69567764 -0.12518439 0.064226799 90 26
0.72477692 -0.037141815 0.048065215 74 25
0.69059926 -0.12426036 0.031094434 31 24
0.71626073 -0.036978781 0.015841367 56 23
0.69866741 -0.12586419 0 37 22
0.7262333 -0.037713684 -0.016073475 40 21
0.69792467 -0.12585385 -0.031443812 44 20
0.72725868 -0.037769571 -0.047996718 46 19
0.71306288 -0.12901179 -0.061920449 63 18
0.75170118 -0.03896255 -0.082165174 9 17
0.71657223 -0.12991007 -0.096332192 90 16
0.67396194 -0.12372895 0.15049534 90 30
0.70893484 -0.037902713 0.13023876 55 29
0.66844696 -0.12247511 0.10083601 46 28
0.70636404 -0.038367987 0.082097001 19 27
0.68547291 -0.12566459 0.063275285 90 26
0.72963119 -0.039800018 0.048412256 73 25
0.69754815 -0.12792408 0.031443812 23 24
0.71613413 -0.039353788 0.015841367 54 23
0.70561868 -0.12955743 0 28 22
0.73359215 -0.040510245 -0.016247556 35 21
0.70486772 -0.12954442 -0.031793188 47 20
0.72712946 -0.040181041 -0.047996718 49 19
0.71507847 -0.13183457 -0.062143989 59 18
0.75652874 -0.041712455 -0.082733795 12 17
0.71613747 -0.13228558 -0.096332192 85 16
0.6711334 -0.12562479 0.14993168 87 30
0.70144451 -0.039984014 0.12881798 51 29
0.66316241 -0.12388456 0.10006332 58 28
0.70374787 -0.040698789 0.081794061 18 27
0.69236457 -0.12945174 0.063988924 90 26
0.72948778 -0.042346664 0.048412256 70 25
0.69955075 -0.13082486 0.031560272 21 24
0.71099412 -0.041702736 0.015725313 50 23
0.70270628 -0.13155212 0 23 22
0.73344624 -0.043070715 -0.016247556 31 21
0.7043882 -0.13212702 -0.031793188 60 20
0.72947496 -0.042856868 -0.048169367 56 19
0.71461385 -0.13432987 -0.062143989 54 18
0.73653114 -0.04338273 -0.080459327 33 17
0.71567142 -0.13478456 -0.096332192 86 16
0.67066842 -0.12808377 0.14993168 64 30
0.70374399 -0.042694688 0.12929156 50 29
0.66027915 -0.1258439 0.099676974 65 28
0.71102625 -0.043709025 0.082702883 22 27
0.69188553 -0.1319885 0.063988924 90 26
0.72434831 -0.044729486 0.048065215 70 25
0.69661498 -0.13291232 0.031443812 22 24
0.71333921 -0.044330798 0.01578334 49 23
0.70221937 -0.13412677 0 23 22
0.73827344 -0.04605335 -0.01636361 24 21
0.69901991 -0.13363197 -0.031560272 78 20
0.72931302 -0.045530237 -0.048169367 67 19
0.70922881 -0.13599537 -0.061696909 54 18
0.73637521 -0.045953438 -0.080459327 36 17
0.71274221 -0.13693212 -0.095988154 83 16
0.67499572 -0.13137023 0.151059 44 30
0.69869024 -0.044853806 0.12834437 46 29
0.66468203 -0.12910575 0.10044966 69 28
0.70343864 -0.045733619 0.081794061 28 27
0.6841194 -0.13283584 0.063275285 90 26
0.72169852 -0.047103666 0.047891695 67 25
0.70104653 -0.13631155 0.031676728 21 24
0.71068561 -0.046665356 0.015725313 46 23
0.69684196 -0.13560684 0 21 22
0.73063326 -0.048034415 -0.016189529 12 21
0.69364977 -0.13510109 -0.031327356 87 20
0.73163879 -0.048231475 -0.048342019 70 19
0.71365869 -0.1393155 -0.062143989 45 18
0.75356281 -0.049609233 -0.082449488 38 17
0.7195704 -0.1407429 -0.097020283 88 16
0.67216873 -0.13312685 0.15049534 33 30
0.70343709 -0.047483895 0.12929156 42 29
0.66182876 -0.13082226 0.10006332 72 28
0.70080674 -0.047905479 0.08149112 33 27
0.68853116 -0.1362043 0.063751042 90 26
0.72153831 -0.049496647 0.047891695 64 25
0.70059067 -0.13863555 0.031676728 23 24
0.72050285 -0.04967567 0.015957421 42 23
0.70129013 -0.13890348 0 22 22
0.74043679 -0.051241845 -0.016421637 9 21
0.69809413 -0.13838692 -0.031560272 90 20
0.73147482 -0.050657406 -0.048342019 69 19
0.71560872 -0.14229879 -0.062367529 32 18
0.73604536 -0.05096468 -0.080459327 41 17
0.71179366 -0.14178041 -0.095988154 86 16
0.66692799 -0.13449368 0.14936803 26 30
0.70081788 -0.049773809 0.12881798 37 29
0.66862744 -0.13461785 0.10122235 86 28
0.70311105 -0.050520681 0.081794061 37 27
0.68805158 -0.13860691 0.063751042 85 26
0.7238493 -0.052185919 0.048065215 63 25
0.69520938 -0.14007849 0.031443812 28 24
0.71532923 -0.051970907 0.015841367 40 23
0.69590276 -0.14034691 0 24 22
0.72280008 -0.052614871 -0.016015448 9 21
0.69513595 -0.14044249 -0.031443812 90 20
0.72880548 -0.053037751 -0.048169367 72 19
0.70779085 -0.14329126 -0.061696909 18 18
0.73337579 -0.053489685 -0.08017502 41 17
0.71614498 -0.14526336 -0.096676238 90 16
0.67358303 -0.13843143 0.151059 21 30
0.70307928 -0.05251633 0.12929156 26 29
0.6632936 -0.13605908 0.10044966 90 28
0.70044601 -0.052919082 0.08149112 41 27
0.68510264 -0.14061974 0.063513167 80 26
0.7161907 -0.054298457 0.047544654 63 25
0.69713598 -0.14313546 0.031560272 35 24
0.72012889 -0.054830164 0.015957421 35 23
0.70027816 -0.14391822 0 25 22
0.73257315 -0.055992413 -0.016247556 8 21
0.69219702 -0.14235742 -0.031327356 90 20
0.7261188 -0.055526808 -0.047996718 77 19
0.71700925 -0.14792635 -0.062591068 12 18
0.73813891 -0.056411404 -0.080743633 35 17
0.71560776 -0.14788719 -0.096676238 85 16
0.66594857 -0.13926265 0.14936803 21 30
0.6979959 -0.054604676 0.12834437 13 29
0.667647 -0.13939896 0.10122235 92 28
0.700257 -0.055363771 0.08149112 45 27
0.68704212 -0.1435269 0.063751042 76 26
0.7159968 -0.0567981 0.047544654 55 25
0.69174629 -0.14453131 0.031327356 41 24
0.70747268 -0.056393523 0.015667286 31 23
0.70466244 -0.14740047 0 23 22
0.72240508 -0.057785727 -0.016015448 9 21
0.69413853 -0.14529198 -0.031443812 90 20
0.72343379 -0.057870626 -0.04782407 72 19
0.71405321 -0.14990933 -0.062367529 8 18
0.73050797 -0.058418579 -0.079890713 29 17
0.71024382 -0.14935035 -0.095988154 86 16
0.66783893 -0.14210109 0.14993168 21 30
0.70514274 -0.057614744 0.12976517 12 29
0.66474199 -0.14120752 0.10083601 97 28
0.7050072 -0.058198914 0.082097001 50 27
0.69142789 -0.14685372 0.064226799 68 26
0.71828038 -0.059494462 0.047718175 51 25
0.6887964 -0.14641818 0.031210894 46 24
0.70727152 -0.058862716 0.015667286 28 23
0.69925642 -0.14880353 0 24 22
0.72220951 -0.060180992 -0.016015448 9 21
0.69606805 -0.14824183 -0.031560272 90 20
0.73068559 -0.060992986 -0.048342019 74 19
0.71355224 -0.15227638 -0.062367529 10 18
0.73277545 -0.061166506 -0.08017502 19 17
0.71700448 -0.15327969 -0.097020283 82 16
0.66974294 -0.14483754 0.15049534 24 30
0.69760799 -0.059354477 0.12834437 12 29
0.66909534 -0.14446935 0.10160869 100 28
0.70233715 -0.060332716 0.081794061 54 27
0.68361837 -0.14766695 0.063513167 54 26
0.71310818 -0.061464727 0.047371134 49 25
0.69562513 -0.15030646 0.031560272 49 24
0.71703541 -0.06203565 0.015899394 24 23
0.69143355 -0.14951357 0 24 22
0.72697645 -0.063117281 -0.016131502 10 21
0.69069439 -0.14947762 -0.031327356 90 20
0.7304793 -0.063415691 -0.048342019 74 19
0.70572114 -0.1531596 -0.061696909 10 18
0.73504382 -0.063802682 -0.080459327 10 17
0.70921087 -0.1541813 -0.095988154 79 16
0.66685623 -0.14664359 0.14993168 31 30
0.70228839 -0.062205158 0.12929156 13 29
0.66858691 -0.14680405 0.10160869 100 28
0.70212221 -0.062783964 0.081794061 64 27
0.68795681 -0.15113555 0.063988924 44 26
0.72282833 -0.06481088 0.048065215 42 25
0.69265878 -0.15219022 0.031443812 50 24
0.70933336 -0.064015023 0.015725313 26 23
0.69090742 -0.15192622 0 27 22
0.71928185 -0.06500493 -0.015957421 12 21
0.69257897 -0.15255289 -0.031443812 88 20
0.72528422 -0.065533012 -0.047996718 76 19
0.70275241 -0.15507807 -0.06147337 12 18
0.73480505 -0.066496328 -0.080459327 6 17
0.71108454 -0.15719785 -0.096332192 81 16
0.67581481 -0.15124524 0.15218632 32 30
0.70205569 -0.06477876 0.12929156 17 29
0.66804439 -0.14925355 0.10160869 100 28
0.70188737 -0.065356947 0.081794061 78 27
0.68982524 -0.15420654 0.064226799 36 26
0.71513402 -0.066789441 0.047544654 37 25
0.68966097 -0.15417552 0.031327356 51 24
0.70412713 -0.066041104 0.015609259 28 23
0.68546993 -0.15335059 0 24 22
0.72152787 -0.067866445 -0.016015448 12 21
0.68717176 -0.15386297 -0.031210894 87 20
0.72255528 -0.067965694 -0.04782407 72 19
0.70217925 -0.15765275 -0.06147337 13 18
0.74446291 -0.069957852 -0.081596561 6 17
0.7129178 -0.16035375 -0.096676238 83 16
0.67053622 -0.15250753 0.151059 41 30
0.70671397 -0.067679927 0.13023876 20 29
0.66992617 -0.15213934 0.10199504 100 28
0.69424224 -0.06711632 0.080885231 90 27
0.68688488 -0.15593468 0.063988924 32 26
0.71737963 -0.069517419 0.047718175 33 25
0.68911856 -0.15658195 0.031327356 72 24
0.70638072 -0.068732038 0.015667286 34 23
0.69467455 -0.15799022 0 24 22
0.72129887 -0.070258744 -0.016015448 12 21
0.68906385 -0.15682249 -0.031327356 89 20
0.72231364 -0.070487469 -0.04782407 70 19
0.70650458 -0.16110234 -0.061920449 16 18
0.73679566 -0.071857437 -0.080743633 7 17
0.70755738 -0.16159956 -0.095988154 81 16
0.66765547 -0.15417451 0.15049534 45 30
0.70159853 -0.069555961 0.12929156 23 29
0.664608 -0.15323454 0.10122235 99 28
0.70142633 -0.070133001 0.081794061 87 27
0.6863364 -0.15833139 0.063988924 22 26
0.7171452 -0.071895957 0.047718175 26 25
0.68130064 -0.15715931 0.030977976 90 24
0.70863658 -0.071315825 0.015725313 40 23
0.6892786 -0.15915291 0 17 22
0.72353679 -0.073018707 -0.016073475 13 21
0.69340283 -0.1602463 -0.031560272 73 20
0.72704047 -0.073366515 -0.048169367 65 19
0.70351386 -0.16299808 -0.061696909 23 18
0.73160923 -0.073818199 -0.08017502 6 17
0.71422017 -0.1657698 -0.097020283 77 16
0.66474372 -0.15594007 0.14993168 49 30
0.69890863 -0.071762472 0.12881798 31 29
0.66647208 -0.15612467 0.10160869 98 28
0.69623864 -0.072087198 0.081188172 88 27
0.68335831 -0.16015074 0.063751042 21 26
0.70944536 -0.07365182 0.047197614 17 25
0.68074787 -0.15953653 0.030977976 90 24
0.70588374 -0.073661782 0.015667286 47 23
0.69115096 -0.1621365 0 15 22
0.72576416 -0.075795151 -0.016131502 14 21
0.68795222 -0.1616292 -0.031327356 72 20
0.72677994 -0.075903907 -0.048169367 63 19
0.70536262 -0.16603069 -0.061920449 17 18
0.74121833 -0.077499732 -0.081312254 6 17
0.70641202 -0.16653526 -0.095988154 82 16
0.65943313 -0.15723 0.14880438 54 30
0.70352465 -0.074825719 0.12976517 35 29
0.66109359 -0.15740645 0.10083601 96 28
0.69843811 -0.07489451 0.08149112 87 27
0.6876049 -0.16382298 0.064226799 22 26
0.71413177 -0.076767758 0.047544654 10 25
0.68015856 -0.16203053 0.030977976 90 24
0.70313638 -0.075865813 0.015609259 51 23
0.68812209 -0.16408119 0 38 22
0.72796714 -0.078715079 -0.016189529 17 21
0.69223839 -0.16520405 -0.031560272 67 20
0.72649682 -0.078567185 -0.048169367 59 19
0.70716923 -0.16920164 -0.062143989 24 18
0.73600274 -0.079569072 -0.080743633 9 17
0.70339066 -0.16853893 -0.095644109 83 16
0.66124558 -0.16011187 0.14936803 73 30
0.69593626 -0.076502308 0.12834437 40 29
0.66054004 -0.15971313 0.10083601 94 28
0.69817239 -0.077332057 0.08149112 86 27
0.67977774 -0.16444381 0.063513167 24 26
0.70890015 -0.078726575 0.047197614 9 25
0.67958885 -0.16440374 0.030977976 91 24
0.7078371 -0.07885614 0.015725313 62 23
0.69240099 -0.16767399 0 44 22
0.7177487 -0.080179445 -0.015957421 27 21
0.70135832 -0.17000215 -0.032026105 60 20
0.72125906 -0.080565676 -0.04782407 56 19
0.71140993 -0.1728595 -0.062591068 32 18
0.74065924 -0.082672484 -0.081312254 10 17
0.70520222 -0.17158593 -0.095988154 86 16
0.65831941 -0.16182986 0.14880438 76 30
0.69078487 -0.078394935 0.12739719 42 29
0.66237533 -0.16261458 0.10122235 91 28
0.69789827 -0.079768665 0.08149112 83 27
0.67922872 -0.16669713 0.063513167 28 26
0.7135784 -0.081751429 0.047544654 9 25
0.67658752 -0.16617166 0.030861517 93 24
0.70755762 -0.08132647 0.015725313 74 23
0.68453395 -0.16827674 0 46 22
0.71499509 -0.082281858 -0.015899394 40 21
0.69106817 -0.17003272 -0.031560272 55 20
0.71849489 -0.082805708 -0.047651418 55 19
0.69875371 -0.17220156 -0.06147337 36 18
0.73049259 -0.084153362 -0.08017502 12 17
0.7046293 -0.17392354 -0.095988154 86 16
0.6601404 -0.16460909 0.14936803 78 30
0.68076444 -0.079580493 0.12550279 44 29
0.66183245 -0.16481021 0.10122235 90 28
0.70009547 -0.082363889 0.081794061 81 27
0.68588156 -0.17089473 0.064226799 33 26
0.71082562 -0.083833665 0.047371134 9 25
0.68087542 -0.16963705 0.031094434 92 24
0.70480102 -0.083387278 0.015667286 88 23
0.69366753 -0.17299552 0 44 22
0.71718633 -0.085063115 -0.015957421 42 21
0.69534272 -0.1735478 -0.031793188 46 20
0.7182163 -0.085187867 -0.047651418 49 19
0.700562 -0.17525128 -0.061696909 38 18
0.73020953 -0.0865753 -0.08017502 17 17
0.7088182 -0.17760031 -0.096676238 83 16
0.66192102 -0.16751771 0.14993168 87 30
0.69023532 -0.083095104 0.12739719 46 29
0.6636458 -0.16773243 0.10160869 90 28
0.69487453 -0.084227249 0.081188172 77 27
0.6804592 -0.17205258 0.063751042 36 26
0.72043586 -0.087483481 0.048065215 10 25
0.6778599 -0.17139293 0.030977976 90 24
0.71193641 -0.086852521 0.015841367 87 23
0.69063765 -0.17479493 0 35 22
0.70943934 -0.086682148 -0.01578334 47 21
0.70195842 -0.17795834 -0.032142565 40 20
0.71296126 -0.087106377 -0.04730612 46 19
0.69994605 -0.17769562 -0.061696909 41 18
0.72742093 -0.088957831 -0.079890713 13 17
0.71059191 -0.18069094 -0.097020283 82 16
0.65423167 -0.16810079 0.14824073 90 30
0.68748891 -0.085330747 0.12692358 49 29
0.66302663 -0.17016369 0.10160869 90 28
0.6920976 -0.086474538 0.080885231 74 27
0.67741555 -0.17391895 0.063513167 42 26
0.71763468 -0.089822076 0.047891695 12 25
0.67481029 -0.17324761 0.030861517 90 24
0.70170534 -0.088125683 0.015609259 90 23
0.69241184 -0.17795484 0 29 22
0.70911688 -0.089281797 -0.01578334 50 21
0.69408303 -0.17851909 -0.031793188 34 20
0.72501504 -0.091234334 -0.048169367 38 19
0.70410854 -0.18151768 -0.062143989 47 18
0.73450202 -0.092401966 -0.080743633 18 17
0.70273781 -0.18141536 -0.095988154 85 16
0.66306013 -0.17287214 0.15049534 94 30
0.69693118 -0.088938549 0.12881798 55 29
0.66959327 -0.17436737 0.10276773 90 28
0.69425392 -0.089197472 0.081188172 69 27
0.66958541 -0.17437789 0.062799536 45 26
0.71236748 -0.091706567 0.047544654 13 25
0.67178679 -0.17496501 0.030745059 90 24
0.70883292 -0.091509104 0.01578334 86 23
0.68695205 -0.17909431 0 23 22
0.71376044 -0.092381299 -0.015899394 51 21
0.69828451 -0.18221664 -0.032026105 26 20
0.71726865 -0.092829391 -0.047651418 33 19
0.69624954 -0.18206242 -0.06147337 65 18
0.73171073 -0.094654866 -0.080459327 28 17
0.70210022 -0.18386728 -0.095988154 79 16
0.66715801 -0.17644641 0.15162265 97 30
0.6941815 -0.091060124 0.12834437 65 29
0.67136657 -0.17734206 0.10315407 90 28
0.69147706 -0.091304153 0.080885231 63 27
0.67862022 -0.17916876 0.063751042 46 26
0.71451658 -0.094511263 0.047718175 19 25
0.67358434 -0.17795442 0.030861517 90 24
0.70107293 -0.093022324 0.015609259 88 23
0.68873763 -0.18213777 0 18 22
0.71097142 -0.094427101 -0.015841367 54 21
0.69523197 -0.18400666 -0.031909645 23 20
0.71446693 -0.095012203 -0.047478769 29 19
0.69323707 -0.18372495 -0.06124983 79 18
0.73137593 -0.097208433 -0.080459327 35 17
0.70626944 -0.18747965 -0.096676238 77 16
0.66421866 -0.1780196 0.151059 98 30
0.68413985 -0.092086762 0.12644999 76 29
0.65647143 -0.17568932 0.10083601 83 28
0.69117045 -0.09359666 0.080885231 56 27
0.67558867 -0.18088524 0.063513167 50 26
0.70183694 -0.095246054 0.046850573 27 25
0.67781109 -0.18149412 0.031094434 90 24
0.70076066 -0.095346659 0.015609259 86 23
0.68330437 -0.18311143 0 15 22
0.70320493 -0.095920518 -0.015667286 49 21
0.69220799 -0.18565677 -0.031793188 22 20
0.71414787 -0.097380929 -0.047478769 19 19
0.69739681 -0.18745106 -0.061696909 85 18
0.73597372 -0.10028763 -0.081027947 42 17
0.70083243 -0.18864202 -0.095988154 78 16
0.6635617 -0.1804529 0.151059 99 30
0.68623048 -0.094921276 0.12692358 85 29
0.66058606 -0.17940439 0.10160869 55 28
0.69328183 -0.096462652 0.081188172 54 27
0.67972028 -0.1846803 0.063988924 51 26
0.70642567 -0.098489538 0.047197614 29 25
0.67232567 -0.18265256 0.030861517 90 24
0.69793004 -0.097576953 0.015551231 79 23
0.68985969 -0.18760505 0 17 22
0.70780122 -0.099173911 -0.01578334 45 21
0.6915229 -0.18819261 -0.031793188 23 20
0.7187283 -0.100673 -0.04782407 12 19
0.6919046 -0.18868093 -0.06124983 90 18
0.72575754 -0.10163954 -0.079890713 47 17
0.7049098 -0.19252875 -0.096676238 76 16
0.65823591 -0.18145807 0.14993168 100 30
0.68589497 -0.097316079 0.12692358 90 29
0.6599558 -0.18170917 0.10160869 46 28
0.6855672 -0.097856261 0.08027935 49 27
0.67910415 -0.18693331 0.063988924 51 26
0.70113736 -0.10026581 0.046850573 33 25
0.67168391 -0.1849983 0.030861517 87 24
0.70006037 -0.10035871 0.015609259 74 23
0.67956847 -0.18732443 0 19 22
0.71241885 -0.10221361 -0.015899394 40 21
0.69567233 -0.19194846 -0.032026105 21 20
0.72331232 -0.1038737 -0.048169367 9 19
0.69846922 -0.19298567 -0.061920449 90 18
0.72539836 -0.10417229 -0.079890713 50 17
0.70426744 -0.19486526 -0.096676238 76 16
0.66231805 -0.1849654 0.151059 99 30
0.68799901 -0.09993425 0.12739719 90 29
0.66172659 -0.18456796 0.10199504 38 28
0.68769568 -0.10047923 0.080582291 45 27
0.67844748 -0.1893027 0.063988924 53 26
0.69833213 -0.10223761 0.046677049 36 25
0.68068004 -0.1899395 0.031327356 79 24
0.70467204 -0.10338828 0.015725313 69 23
0.68616092 -0.19161654 0 24 22
0.7046358 -0.10363425 -0.015725313 35 21
0.68782276 -0.1922157 -0.031676728 22 20
0.71555769 -0.10520843 -0.047651418 10 19
0.69539565 -0.19474378 -0.061696909 90 18
0.71767318 -0.1055183 -0.079037786 64 17
0.70834732 -0.1986742 -0.097364321 70 16
0.65464419 -0.18526337 0.14936803 98 30
0.69007528 -0.10268787 0.12787078 90 29
0.65870368 -0.18619712 0.10160869 33 28
0.6848852 -0.10252047 0.08027935 41 27
0.67299724 -0.1903003 0.063513167 79 26
0.705374 -0.10575856 0.047197614 37 25
0.68481469 -0.19368853 0.031560272 76 24
0.70676106 -0.1063337 0.01578334 62 23
0.6878913 -0.19469877 0 29 22
0.71168792 -0.1071847 -0.015899394 29 21
0.68711364 -0.19473541 -0.031676728 22 20
0.72012109 -0.10843164 -0.047996718 10 19
0.68992507 -0.19579563 -0.06124983 90 18
0.71728164 -0.10814799 -0.079037786 72 17
0.70764953 -0.20114559 -0.097364321 68 16
0.65396076 -0.18766151 0.14936803 97 30
0.68969423 -0.10521642 0.12787078 90 29
0.65564466 -0.18792187 0.10122235 32 28
0.6820507 -0.10466236 0.07997641 37 27
0.67229527 -0.1927657 0.063513167 90 26
0.7025153 -0.10797282 0.047024094 49 25
0.68649846 -0.19689308 0.031676728 76 24
0.7014426 -0.10805611 0.015667286 58 23
0.68957388 -0.19791578 0 38 22
0.71870434 -0.11091106 -0.016073475 25 21
0.68882793 -0.19782941 -0.031793188 22 20
0.71971875 -0.11107028 -0.047996718 11 19
0.69637501 -0.20041083 -0.061920449 90 18
0.72181171 -0.11139222 -0.079606406 76 17
0.71403944 -0.20581666 -0.098396458 68 16
0.65096515 -0.18925545 0.14880438 96 30
0.68689615 -0.10725324 0.12739719 90 29
0.65972418 -0.19160244 0.10199504 29 28
0.68658698 -0.10779496 0.080582291 26 27
0.67639369 -0.1965149 0.063988924 90 26
0.70706415 -0.11118232 0.047371134 51 25
0.68101513 -0.19787969 0.031443812 73 24
0.6936506 -0.10936202 0.015493204 51 23
0.67928517 -0.19749989 0 41 22
0.7183128 -0.11341913 -0.016073475 22 21
0.69052881 -0.20093775 -0.031909645 22 20
0.71193224 -0.11243982 -0.047478769 10 19
0.6932829 -0.20213613 -0.061696909 87 18
0.7214185 -0.11391114 -0.079606406 78 17
0.71806633 -0.20971029 -0.099084541 64 16
0.65730298 -0.19361408 0.15049534 95 30
0.68894291 -0.1100288 0.12787078 90 29
0.6566841 -0.19319934 0.10160869 34 28
0.68620652 -0.11019094 0.080582291 24 27
0.67812359 -0.19946657 0.064226799 90 26
0.70420808 -0.1132622 0.047197614 67 25
0.68032032 -0.20025569 0.031443812 50 24
0.69820231 -0.11256116 0.015609259 49 23
0.6809876 -0.20058364 0 42 22
0.72040153 -0.11619021 -0.016131502 22 21
0.69460958 -0.20477381 -0.032142565 21 20
0.71399891 -0.11531354 -0.047651418 12 19
0.69260883 -0.20443404 -0.061696909 87 18
0.72346985 -0.11681636 -0.079890713 74 17
0.71499443 -0.21138126 -0.098740496 66 16
0.65665728 -0.1957927 0.15049534 95 30
0.68857425 -0.11231281 0.12787078 90 29
0.65130997 -0.19395059 0.10083601 35 28
0.68338704 -0.11207296 0.08027935 19 27
0.67980599 -0.2025505 0.064464673 90 26
0.71367806 -0.11717974 0.047891695 72 25
0.68682575 -0.20467223 0.031793188 37 24
0.69533765 -0.11459978 0.015551231 40 23
0.67792517 -0.20211902 0 44 22
0.7224589 -0.11910247 -0.016189529 23 21
0.69628125 -0.20791899 -0.032259021 21 20
0.71607476 -0.11807807 -0.04782407 12 19
0.69189095 -0.20685044 -0.061696909 79 18
0.72060567 -0.11894478 -0.079606406 72 17
0.71425223 -0.21387574 -0.098740496 62 16
0.68733132 -0.11410949 0.17659806 90 31
0.66059369 -0.19962239 0.15162265 90 30
0.67604452 -0.11285866 0.12550279 87 29
0.6647684 -0.20066439 0.10315407 36 28
0.68297172 -0.11457696 0.08027935 21 27
0.67191851 -0.2028604 0.063751042 91 26
0.71570474 -0.12019946 0.048065215 79 25
0.67890567 -0.2050003 0.031443812 27 24
0.7023316 -0.11824571 0.015725313 35 23
0.6843524 -0.20679393 0 46 22
0.70475614 -0.11889821 -0.01578334 29 21
0.68599862 -0.20742767 -0.031793188 19 20
0.71809787 -0.1211083 -0.047996718 12 19
0.68874735 -0.20865571 -0.06147337 77 18
0.71773553 -0.12105463 -0.079322092 69 17
0.71346354 -0.21649218 -0.098740496 63 16
0.682163 -0.11571735 0.17530902 90 31
0.65756607 -0.20120683 0.151059 90 30
0.68291032 -0.11642946 0.12692358 85 29
0.65698463 -0.20079495 0.10199504 37 28
0.68501496 -0.11737071 0.080582291 22 27
0.67596155 -0.20667478 0.064226799 90 26
0.71282125 -0.12228367 0.047891695 89 25
0.68534356 -0.20958178 0.031793188 21 24
0.69452065 -0.11945133 0.015551231 30 23
0.67884982 -0.2077038 0 71 22
0.70926577 -0.12218945 -0.015899394 32 21
0.68527037 -0.209821 -0.031793188 16 20
0.71767074 -0.12361419 -0.047996718 13 19
0.68563664 -0.21032108 -0.06124983 72 18
0.71975774 -0.12397262 -0.079606406 68 17
0.71033865 -0.21824701 -0.098396458 64 16
0.68413639 -0.1185015 0.17595354 90 31
0.65453559 -0.20277259 0.15049534 90 30
0.67766005 -0.11798789 0.1259764 85 29
0.65863693 -0.20382483 0.10238139 38 28
0.68215519 -0.11934216 0.08027935 24 27
0.67289734 -0.20817223 0.063988924 90 26
0.70993209 -0.12434921 0.047718175 88 25
0.67745799 -0.20973492 0.031443812 14 24
0.70395207 -0.12356968 0.01578334 19 23
0.68050635 -0.21081933 0 78 22
0.7039305 -0.12369254 -0.01578334 45 21
0.68215072 -0.21146497 -0.031676728 14 20
0.71969265 -0.12654224 -0.048169367 13 19
0.68731117 -0.213339 -0.06147337 67 18
0.71687293 -0.12606238 -0.079322092 63 17
0.709611 -0.22060138 -0.098396458 51 16
0.6789794 -0.11994642 0.1746645 90 31
0.65850312 -0.20641412 0.15162265 90 30
0.67968357 -0.1206548 0.12644999 81 29
0.65560269 -0.20526221 0.10199504 39 28
0.68664473 -0.12245779 0.080885231 26 27
0.6674214 -0.20901731 0.063513167 90 26
0.71197242 -0.12713282 0.047891695 88 25
0.67675877 -0.2119803 0.031443812 14 24
0.70107675 -0.12547155 0.015725313 12 23
0.67265379 -0.21080953 0 90 22
0.69857132 -0.12528354 -0.015667286 49 21
0.68382627 -0.21448059 -0.031793188 30 20
0.71189994 -0.12763272 -0.047651418 14 19
0.6865623 -0.21573687 -0.06147337 66 18
0.7115584 -0.12757887 -0.078753479 64 17
0.70647687 -0.22232664 -0.098052412 49 16
0.67855656 -0.12231577 0.1746645 90 31
0.64850187 -0.20573482 0.14936803 90 30
0.6816752 -0.12345539 0.12692358 78 29
0.65017796 -0.2060418 0.10122235 38 28
0.68621314 -0.12485388 0.080885231 26 27
0.66905767 -0.2121053 0.063751042 90 26
0.70906925 -0.12917864 0.047718175 87 25
0.66412395 -0.2105305 0.030861517 17 24
0.70553243 -0.12892202 0.015841367 9 23
0.68143624 -0.2162099 0 90 22
0.70058984 -0.12816255 -0.015725313 55 21
0.67828012 -0.21545868 -0.031560272 41 20
0.70899528 -0.12967657 -0.047478769 19 19
0.69054604 -0.21965611 -0.061920449 58 18
0.71353066 -0.13062499 -0.079037786 56 17
0.70569646 -0.22479136 -0.098052412 42 16
0.67810363 -0.12480198 0.1746645 90 31
0.65237629 -0.20961562 0.15049534 90 30
0.67638731 -0.12507772 0.1259764 78 29
0.65881574 -0.2114732 0.10276773 41 28
0.68819237 -0.1278127 0.081188172 27 27
0.6635415 -0.21301967 0.063275285 90 26
0.70613754 -0.131329 0.047544654 86 25
0.67047381 -0.21527585 0.031210894 17 24
0.69770235 -0.13003562 0.015667286 8 23
0.67588359 -0.21716177 0 90 22
0.70503217 -0.13163011 -0.015841367 65 21
0.67752391 -0.21782501 -0.031560272 40 20
0.70851517 -0.1322743 -0.047478769 40 19
0.68263322 -0.21987353 -0.06124983 54 18
0.71551353 -0.13356239 -0.079322092 51 17
0.70251352 -0.22660911 -0.097708367 29 16
0.67528826 -0.12673137 0.17401998 90 31
0.64701307 -0.21037011 0.14936803 81 30
0.67836052 -0.12788409 0.12644999 72 29
0.66042018 -0.21454223 0.10315407 42 28
0.68774199 -0.13021415 0.081188172 28 27
0.66515833 -0.21611103 0.063513167 90 26
0.70812666 -0.13424928 0.047718175 83 25
0.66971827 -0.2176149 0.031210894 19 24
0.70461518 -0.13384439 0.015841367 9 23
0.68224669 -0.22186099 0 90 22
0.70456839 -0.13409033 -0.015841367 70 21
0.69099343 -0.2248686 -0.032259021 32 20
0.71050078 -0.1352046 -0.047651418 42 19
0.6936866 -0.22614977 -0.062367529 44 18
0.71992606 -0.13697128 -0.079890713 50 17
0.71112484 -0.23216182 -0.099084541 18 16
0.68196404 -0.13042328 0.17595354 90 31
0.64627481 -0.21262732 0.14936803 51 30
0.67790997 -0.13025123 0.12644999 59 29
0.6526354 -0.21450977 0.10199504 40 28
0.68484497 -0.13215242 0.080885231 29 27
0.66916168 -0.21988422 0.063988924 90 26
0.70275313 -0.13579077 0.047371134 79 25
0.68080407 -0.22388858 0.031793188 21 24
0.69677752 -0.1349033 0.015667286 9 23
0.67672342 -0.2226637 0 90 22
0.7139411 -0.13829419 -0.016073475 76 21
0.68546516 -0.22570273 -0.032026105 22 20
0.70267445 -0.13628444 -0.047133468 46 19
0.69293284 -0.22844888 -0.062367529 29 18
0.70968378 -0.1376252 -0.078753479 49 17
0.69625664 -0.22981918 -0.097020283 12 16
0.68152785 -0.13268402 0.17595354 90 31
0.65480042 -0.21787514 0.15162265 45 30
0.68470663 -0.13388602 0.12787078 50 29
0.65660322 -0.21824598 0.10276773 37 28
0.684403 -0.13442273 0.080885231 32 27
0.66131276 -0.21984103 0.063275285 90 26
0.70474774 -0.13859332 0.047544654 78 25
0.67769063 -0.22534966 0.031676728 23 24
0.68894112 -0.13590914 0.015493204 9 23
0.67598128 -0.22490658 0 90 22
0.71100032 -0.14030987 -0.016015448 81 21
0.68703997 -0.2288906 -0.032142565 17 20
0.70221865 -0.13861385 -0.047133468 47 19
0.68977153 -0.23007125 -0.062143989 19 18
0.7213906 -0.14246701 -0.08017502 40 17
0.6762951 -0.13425763 0.1746645 90 31
0.64477468 -0.21713394 0.14936803 37 30
0.67939317 -0.13545203 0.12692358 46 29
0.64644504 -0.21747042 0.10122235 49 28
0.67660081 -0.13549449 0.07997641 33 27
0.66285878 -0.22306459 0.063513167 87 26
0.69444716 -0.13924801 0.046850573 74 25
0.67922449 -0.22863598 0.031793188 27 24
0.69091463 -0.1387969 0.015551231 10 23
0.67041898 -0.22577216 0 88 22
0.71048129 -0.14291486 -0.016015448 76 21
0.67678052 -0.22806825 -0.031676728 14 20
0.70415252 -0.14167026 -0.04730612 50 19
0.69835049 -0.23581253 -0.063038148 13 18
0.71601558 -0.14402109 -0.079606406 36 17
0.67345297 -0.13614751 0.17401998 90 31
0.64631569 -0.22017628 0.14993168 33 30
0.68132371 -0.13830248 0.12739719 43 29
0.65035337 -0.22133225 0.10199504 83 28
0.68585688 -0.13980384 0.081188172 38 27
0.66913617 -0.22780526 0.064226799 89 26
0.70373791 -0.1436328 0.047544654 68 25
0.6736992 -0.22938108 0.031560272 33 24
0.68797553 -0.14071549 0.015493204 13 23
0.66962671 -0.22811098 0 90 22
0.70507777 -0.14440773 -0.015899394 81 21
0.67834157 -0.23124233 -0.031793188 13 20
0.70365375 -0.14412734 -0.04730612 51 19
0.69516927 -0.23743689 -0.062814608 12 18
0.72524828 -0.14847994 -0.080743633 28 17
0.67770898 -0.13945401 0.17530902 90 31
0.65244371 -0.22483401 0.15162265 32 30
0.6808368 -0.14067991 0.12739719 40 29
0.64957678 -0.22360107 0.10199504 90 28
0.67563844 -0.1402147 0.07997641 31 27
0.66602641 -0.22920573 0.063988924 87 26
0.69345808 -0.14409274 0.046850573 68 25
0.67289442 -0.23173136 0.031560272 40 24
0.68992883 -0.14361699 0.015551231 17 23
0.6688264 -0.23044702 0 85 22
0.70704347 -0.14724633 -0.015957421 79 21
0.67281353 -0.23196623 -0.031560272 13 20
0.70070308 -0.14608203 -0.047133468 50 19
0.69908041 -0.24138024 -0.063261688 10 18
0.72229236 -0.15051202 -0.080459327 18 17
0.67487675 -0.14121449 0.1746645 90 31
0.64939708 -0.22618771 0.151059 31 30
0.68036652 -0.14293687 0.12739719 41 29
0.65116191 -0.22657311 0.10238139 90 28
0.6873194 -0.14497271 0.08149112 29 27
0.66522229 -0.23152921 0.063988924 85 26
0.69541836 -0.14689857 0.047024094 67 25
0.67683411 -0.23561801 0.031793188 41 24
0.69678962 -0.14743099 0.015725313 22 23
0.6657002 -0.23183407 0 81 22
0.70897204 -0.1502233 -0.016015448 75 21
0.67675191 -0.23585425 -0.031793188 12 20
0.69777328 -0.14789611 -0.04696082 50 19
0.68414366 -0.23885164 -0.061920449 12 18
0.7217893 -0.1529064 -0.080459327 11 17
0.67201537 -0.14307502 0.17401998 90 31
0.6486035 -0.22845316 0.151059 33 30
0.67505872 -0.14430192 0.12644999 42 29
0.65036702 -0.22884472 0.10238139 90 28
0.68680918 -0.14737102 0.08149112 29 27
0.67144477 -0.23635063 0.064702556 56 26
0.69490135 -0.14932513 0.047024094 58 25
0.66188937 -0.23296022 0.031094434 44 24
0.68157411 -0.14687625 0.01537715 27 23
0.66959774 -0.23583201 0 76 22
0.70110834 -0.15114208 -0.015841367 70 21
0.67117769 -0.23665766 -0.031560272 15 20
0.70213234 -0.1513654 -0.04730612 44 19
0.69034201 -0.24374656 -0.062591068 12 18
0.71393496 -0.1540042 -0.079606406 8 17
0.67384893 -0.14604014 0.1746645 90 31
0.64776182 -0.23082887 0.151059 33 30
0.67692572 -0.14728846 0.12692358 45 29
0.64952391 -0.23122691 0.10238139 90 28
0.67898554 -0.14832421 0.080582291 31 27
0.65886486 -0.2345991 0.063513167 47 26
0.69191116 -0.15134658 0.046850573 45 25
0.66573101 -0.23707485 0.031327356 42 24
0.68838704 -0.15083389 0.015551231 29 23
0.66872895 -0.23828463 0 70 22
0.70054966 -0.15371075 -0.015841367 69 21
0.67974609 -0.24238276 -0.032026105 14 20
0.70401073 -0.15446404 -0.047478769 37 19
0.68944401 -0.24627514 -0.062591068 13 18
0.72067666 -0.15806746 -0.080459327 8 17
0.66861355 -0.14736888 0.17337546 90 31
0.64466345 -0.23225555 0.15049534 35 30
0.67640746 -0.14965047 0.12692358 49 29
0.65103412 -0.23433672 0.10276773 90 28
0.67846364 -0.1506934 0.080582291 31 27
0.66271967 -0.23859824 0.063988924 42 26
0.69137865 -0.15376088 0.046850573 41 25
0.66255236 -0.2385439 0.031210894 46 24
0.6829735 -0.15216589 0.015435177 33 23
0.66789305 -0.24061747 0 65 22
0.69756764 -0.15561935 -0.01578334 64 21
0.67420256 -0.24304581 -0.031793188 17 20
0.70103121 -0.15638584 -0.04730612 32 19
0.69325888 -0.25038597 -0.063038148 12 18
0.71041638 -0.15845211 -0.079322092 8 17
0.67519832 -0.15114258 0.17530902 90 31
0.65074766 -0.23691395 0.15218632 33 30
0.68549514 -0.1540112 0.12881798 50 29
0.65257192 -0.23734598 0.10315407 90 28
0.67553753 -0.1524049 0.08027935 24 27
0.66893291 -0.24336891 0.064702556 37 26
0.69573408 -0.15713488 0.047197614 37 25
0.66644603 -0.24246188 0.031443812 65 24
0.69222367 -0.15660223 0.015667286 38 23
0.66239834 -0.24110609 0 60 22
0.69460833 -0.15738779 -0.015725313 60 21
0.68042433 -0.2478659 -0.032142565 22 20
0.70781153 -0.16033803 -0.04782407 24 19
0.68775171 -0.25096232 -0.062591068 14 18
0.70746279 -0.16026649 -0.079037786 8 17
0.6723094 -0.15297121 0.1746645 90 31
0.6430676 -0.2366382 0.15049534 32 30
0.68255842 -0.15586512 0.12834437 58 29
0.64710844 -0.23790294 0.10238139 88 28
0.67984301 -0.15585402 0.080885231 19 27
0.66341329 -0.24396992 0.064226799 33 26
0.69031602 -0.15846333 0.046850573 32 25
0.6632545 -0.24391748 0.031327356 83 24
0.68433219 -0.15748224 0.015493204 46 23
0.67092681 -0.24689929 0 60 22
0.69892973 -0.16091634 -0.015841367 54 21
0.67717063 -0.24948762 -0.032026105 24 20
0.69508588 -0.16005141 -0.04696082 19 19
0.69387203 -0.25596774 -0.063261688 14 18
0.72140414 -0.166155 -0.080743633 9 17
0.66938895 -0.15489835 0.17401998 90 31
0.64675575 -0.24070752 0.15162265 33 30
0.67241025 -0.1561787 0.12644999 67 29
0.64854449 -0.24114133 0.10276773 76 28
0.67201096 -0.15668017 0.07997641 21 27
0.6601848 -0.24552502 0.063988924 33 26
0.69459188 -0.16210938 0.047197614 27 25
0.66001809 -0.24546893 0.031210894 90 24
0.6813426 -0.15930952 0.015435177 50 23
0.66299647 -0.24671914 0 47 22
0.69589978 -0.16291559 -0.01578334 51 21
0.67863327 -0.25272852 -0.032142565 28 20
0.70421576 -0.16483869 -0.047651418 17 19
0.68360794 -0.255 -0.062367529 17 18
0.7159791 -0.16755639 -0.08017502 9 17
0.66884422 -0.15723401 0.17401998 90 31
0.63452715 -0.23863907 0.14880438 33 30
0.67425209 -0.15908 0.12692358 73 29
0.64538956 -0.24252743 0.10238139 54 28
0.68112713 -0.16127814 0.081188172 18 27
0.66630399 -0.25047678 0.064702556 32 26
0.69645035 -0.1650999 0.047371134 26 25
0.65682238 -0.24688534 0.031094434 90 24
0.68564975 -0.16282493 0.015551231 63 23
0.66914284 -0.25169399 0 29 22
0.70019388 -0.16648351 -0.015899394 42 21
0.68008143 -0.25598264 -0.032259021 29 20
0.69635105 -0.16558984 -0.047133468 18 19
0.69202262 -0.2609264 -0.063261688 21 18
0.72022653 -0.17118725 -0.080743633 10 17
0.6612367 -0.15791053 0.17208642 90 31
0.64051181 -0.24347109 0.15049534 33 30
0.66891432 -0.16030571 0.1259764 78 29
0.644539 -0.24477878 0.10238139 45 28
0.67814517 -0.16308302 0.080885231 21 27
0.6631459 -0.25179431 0.064464673 32 26
0.6934433 -0.16695455 0.047197614 19 25
0.66295177 -0.25185901 0.031443812 90 24
0.67778218 -0.16348475 0.01537715 77 23
0.66125786 -0.25134164 0 14 22
0.70206946 -0.16938245 -0.015957421 37 21
0.68384653 -0.26014489 -0.032491937 36 20
0.70547414 -0.17032813 -0.04782407 21 19
0.67953211 -0.25875407 -0.062143989 22 18
0.71237552 -0.17197599 -0.079890713 10 17
0.66540873 -0.1612228 0.17337546 90 31
0.63970089 -0.24559377 0.15049534 31 30
0.66599172 -0.16195162 0.12550279 78 29
0.64602703 -0.24780677 0.10276773 35 28
0.67518771 -0.16475119 0.080582291 23 27
0.66690439 -0.25590506 0.06494043 33 26
0.69046104 -0.1686697 0.047024094 21 25
0.65745538 -0.25225228 0.031210894 90 24
0.67723632 -0.16573146 0.01537715 82 23
0.66508305 -0.25533956 0 10 22
0.69418532 -0.17007282 -0.01578334 32 21
0.67366642 -0.25880051 -0.032026105 49 20
0.69763219 -0.17091107 -0.04730612 24 19
0.68094587 -0.26202574 -0.062367529 22 18
0.7238735 -0.17725123 -0.081312254 12 17
0.66718966 -0.16411293 0.17401998 90 31
0.63883972 -0.24782522 0.15049534 29 30
0.66542232 -0.16427539 0.12550279 77 29
0.6474582 -0.25096035 0.10315407 35 28
0.67943031 -0.16828333 0.081188172 24 27
0.66368949 -0.25732461 0.064702556 37 26
0.69229078 -0.17167076 0.047197614 21 25
0.65657085 -0.25454572 0.031210894 90 24
0.68390709 -0.16999598 0.015551231 85 23
0.65487576 -0.25401407 0 9 22
0.70086992 -0.17427965 -0.015957421 24 21
0.67038828 -0.26035666 -0.031909645 65 20
0.70672083 -0.1757198 -0.047996718 40 19
0.68466312 -0.26621979 -0.062814608 23 18
0.71356988 -0.17753668 -0.08017502 12 17
0.67127478 -0.16771118 0.17530902 90 31
0.64698559 -0.25375155 0.15274997 31 30
0.66243261 -0.16612475 0.12502921 74 29
0.63734674 -0.24969792 0.10160869 38 28
0.68362641 -0.17196642 0.081794061 28 27
0.65811348 -0.25792477 0.064226799 42 26
0.69407731 -0.17480779 0.047371134 23 25
0.65331131 -0.25603193 0.031094434 90 24
0.68088406 -0.17177926 0.015493204 87 23
0.66323882 -0.26009226 0 10 22
0.69052529 -0.17443213 -0.015725313 12 21
0.66483146 -0.26085654 -0.031676728 78 20
0.70123172 -0.17710385 -0.047651418 45 19
0.67442417 -0.2650561 -0.061920449 42 18
0.70571518 -0.17822631 -0.079322092 14 17
0.66834176 -0.16946816 0.1746645 90 31
0.64383441 -0.25510389 0.15218632 47 30
0.66422981 -0.16903281 0.12550279 64 29
0.6456458 -0.25558701 0.10315407 38 28
0.67098886 -0.17132472 0.08027935 32 27
0.65489811 -0.25929704 0.063988924 47 26
0.68862617 -0.176011 0.047024094 28 25
0.6616897 -0.26201731 0.031560272 90 24
0.67543352 -0.17293215 0.01537715 82 23
0.66232687 -0.26240578 0 10 22
0.69475853 -0.17806596 -0.015841367 9 21
0.66391689 -0.26317567 -0.031676728 81 20
0.70786333 -0.18138339 -0.048169367 49 19
0.6804291 -0.27018639 -0.062591068 51 18
0.71231306 -0.18251397 -0.08017502 21 17
0.67008758 -0.17239344 0.17530902 90 31
0.63842338 -0.25552487 0.151059 78 30
0.67077273 -0.17316557 0.12692358 53 29
0.64016891 -0.25599027 0.10238139 41 28
0.67279118 -0.17427965 0.080582291 35 27
0.66095835 -0.2642605 0.064702556 55 26
0.68075871 -0.17656057 0.046503525 34 25
0.65845531 -0.26339075 0.031443812 90 24
0.67482579 -0.1752888 0.01537715 81 23
0.66836125 -0.26752448 0 11 22
0.69174308 -0.17974858 -0.01578334 8 21
0.66299415 -0.26549158 -0.031676728 89 20
0.69997817 -0.181995 -0.047651418 55 19
0.67491269 -0.27057415 -0.062143989 63 18
0.70685971 -0.18376561 -0.079606406 41 17
0.66951221 -0.17461459 0.17530902 90 31
0.63757253 -0.25764057 0.151059 89 30
0.66306382 -0.17355011 0.12550279 46 29
0.64846593 -0.26183999 0.10392677 38 28
0.66500241 -0.1746445 0.079673469 37 27
0.6577273 -0.26562697 0.064464673 60 26
0.6946547 -0.18257132 0.047544654 37 25
0.65526563 -0.26463047 0.031327356 83 24
0.68630511 -0.18078488 0.015667286 74 23
0.65821046 -0.26596421 0 10 22
0.69836825 -0.18404832 -0.015957421 6 21
0.66206342 -0.26780421 -0.031676728 85 20
0.70178467 -0.1849426 -0.04782407 62 19
0.67626917 -0.27386999 -0.062367529 69 18
0.71342528 -0.18810762 -0.080459327 41 17
0.66185588 -0.17523822 0.17337546 90 31
0.63662398 -0.25997564 0.151059 86 30
0.66954744 -0.17784421 0.12692358 37 29
0.6383661 -0.26045319 0.10238139 56 28
0.67155814 -0.17897233 0.080582291 40 27
0.66135174 -0.26993096 0.06494043 67 26
0.68915719 -0.18384704 0.047197614 41 25
0.65660042 -0.26798114 0.031443812 87 24
0.67841923 -0.18126915 0.015493204 72 23
0.66185421 -0.27027941 0 12 22
0.69285572 -0.18533155 -0.015841367 8 21
0.65881574 -0.269162 -0.031560272 85 20
0.69627905 -0.18624105 -0.047478769 69 19
0.67065763 -0.27444667 -0.061920449 70 18
0.70796114 -0.18932953 -0.079890713 46 17
0.66124016 -0.17754745 0.17337546 90 31
0.63796121 -0.2631323 0.15162265 82 30
0.67129517 -0.18081024 0.12739719 27 29
0.64657563 -0.26647356 0.10392677 90 28
0.6757251 -0.18259329 0.081188172 42 27
0.66270339 -0.27319348 0.065178305 68 26
0.68369192 -0.18496558 0.046850573 45 25
0.66257864 -0.27314815 0.031793188 78 24
0.68261164 -0.18492657 0.015609259 69 23
0.66321492 -0.27354839 0 12 22
0.69944775 -0.18968703 -0.016015448 8 21
0.65556663 -0.27050036 -0.031443812 85 20
0.69803399 -0.18931505 -0.047651418 72 19
0.66739726 -0.27582794 -0.061696909 73 18
0.70249718 -0.19051559 -0.079322092 50 17
0.66294938 -0.18048054 0.17401998 90 31
0.63254815 -0.2634699 0.15049534 72 30
0.67540056 -0.18442886 0.12834437 14 29
0.63653231 -0.26490346 0.10238139 90 28
0.67029232 -0.18365629 0.080582291 47 27
0.66179377 -0.27538955 0.065178305 68 26
0.68063468 -0.18669961 0.046677049 46 25
0.65931857 -0.27449241 0.031676728 73 24
0.67954957 -0.18665457 0.015551231 65 23
0.66917056 -0.27876696 0 14 22
0.68916595 -0.1893893 -0.01578334 9 21
0.65922272 -0.27472252 -0.031676728 81 20
0.69736892 -0.19175048 -0.047651418 72 19
0.67106909 -0.279971 -0.062143989 70 18
0.69223946 -0.19036506 -0.078184858 63 17
0.65768534 -0.18141049 0.17273092 90 31
0.63839763 -0.26841998 0.15218632 49 30
0.66531247 -0.18408321 0.12644999 13 29
0.63565034 -0.2670128 0.10238139 90 28
0.6672861 -0.1852228 0.08027935 55 27
0.65624577 -0.27575558 0.064702556 56 26
0.68241704 -0.18961501 0.046850573 47 25
0.65840471 -0.27667728 0.031676728 74 24
0.68374723 -0.19023024 0.015667286 62 23
0.6728456 -0.28293651 0 17 22
0.69091058 -0.19245625 -0.015841367 9 21
0.6560092 -0.27593172 -0.031560272 81 20
0.69672918 -0.19406198 -0.047651418 72 19
0.66550434 -0.28036436 -0.061696909 73 18
0.70118409 -0.19529289 -0.079322092 64 17
0.66170555 -0.18498889 0.17401998 90 31
0.63745672 -0.27064675 0.15218632 36 30
0.66466582 -0.18640444 0.12644999 12 29
0.63471437 -0.26923004 0.10238139 90 28
0.66902667 -0.18821454 0.080582291 68 27
0.65299135 -0.27706546 0.064464673 41 26
0.68655682 -0.19333144 0.047197614 45 25
0.66202664 -0.28093901 0.031909645 72 24
0.68304539 -0.19273502 0.015667286 59 23
0.66036296 -0.2803632 0 24 22
0.69504982 -0.19620851 -0.015957421 9 21
0.6641748 -0.28226942 -0.032026105 74 20
0.69124258 -0.19515398 -0.04730612 72 19
0.67367476 -0.28661251 -0.062591068 73 18
0.69807112 -0.19719444 -0.079037786 70 17
0.66102302 -0.18741292 0.17401998 90 31
0.63869578 -0.27394864 0.15274997 28 30
0.66161466 -0.18817629 0.1259764 13 29
0.6359905 -0.27253473 0.10276773 90 28
0.66833234 -0.19066536 0.080582291 83 27
0.65425575 -0.28044447 0.064702556 26 26
0.68104273 -0.1944934 0.046850573 40 25
0.66328472 -0.2843546 0.032026105 69 24
0.67996311 -0.19443926 0.015609259 55 23
0.66392004 -0.28476661 0 18 22
0.69192094 -0.198075 -0.015899394 10 21
0.65630978 -0.2816107 -0.031676728 68 20
0.69292265 -0.19836442 -0.047478769 69 19
0.67261976 -0.28907973 -0.062591068 69 18
0.69737852 -0.19962996 -0.079037786 70 17
0.65571672 -0.18840216 0.17273092 90 31
0.63550371 -0.27520132 0.15218632 22 30
0.6680373 -0.19249843 0.12739719 13 29
0.63050783 -0.27277693 0.10199504 90 28
0.66766274 -0.19299713 0.080582291 90 27
0.64871114 -0.28073549 0.064226799 15 26
0.67796159 -0.19618458 0.046677049 37 25
0.65542179 -0.28367114 0.031676728 56 24
0.67928028 -0.1968116 0.015609259 50 23
0.66292208 -0.2870824 0 18 22
0.69122529 -0.20048904 -0.015899394 12 21
0.66447639 -0.28789908 -0.032142565 59 20
0.69222599 -0.20078196 -0.047478769 67 19
0.66704422 -0.28942972 -0.062143989 70 18
0.69906527 -0.20274682 -0.079322092 65 17
0.65737683 -0.19135648 0.17337546 90 31
0.63676775 -0.27840084 0.15274997 21 30
0.66500247 -0.19414961 0.12692358 15 29
0.62729156 -0.27398026 0.10160869 90 28
0.66460097 -0.19463752 0.08027935 90 27
0.6546092 -0.28589442 0.06494043 12 26
0.68685526 -0.20132303 0.047371134 31 25
0.65214235 -0.28495032 0.031560272 40 24
0.67378795 -0.19779031 0.015493204 45 23
0.65734071 -0.28737777 0 21 22
0.68335527 -0.20069203 -0.015725313 12 21
0.66118252 -0.28920901 -0.032026105 56 20
0.69631141 -0.20458701 -0.04782407 64 19
0.67063653 -0.29365137 -0.062591068 68 18
0.69835323 -0.2051858 -0.079322092 67 17
0.66137761 -0.19488402 0.1746645 90 31
0.62916523 -0.27754006 0.151059 22 30
0.67142463 -0.19841576 0.12834437 15 29
0.62412262 -0.27505547 0.10122235 90 28
0.6687153 -0.19823417 0.080885231 90 27
0.64905924 -0.28615564 0.064464673 12 26
0.6813972 -0.20219719 0.047024094 24 25
0.66260344 -0.29218405 0.032142565 27 24
0.68272144 -0.20283785 0.015725313 40 23
0.6586684 -0.29057202 0 29 22
0.69464058 -0.20659821 -0.016015448 13 21
