# .PCD v0.7 - Point Cloud Data file format
VERSION 0.7
FIELDS x y z intensity ring
SIZE 4 4 4 4 2
TYPE F F F F U
COUNT 1 1 1 1 1
WIDTH 1205
HEIGHT 1
VIEWPOINT 0 0 0 1 0 0 0
POINTS 1205
DATA ascii
-1.7057726 0.14610668 0.26232815 69 28
-1.7751182 -0.080940895 0.21266456 64 27
-1.7184153 0.14721832 0.1615185 70 26
-1.7863284 -0.080848798 0.121985 68 25
-1.7217641 0.14751562 0.078958906 71 24
-1.7751377 -0.0797121 0.040444806 68 23
-1.7160999 0.14732483 0 73 22
-1.7801588 -0.079321824 -0.04056086 69 21
-1.7192247 0.14789943 -0.078842446 71 20
-1.7714784 -0.078917004 -0.12033709 68 19
-1.7191848 0.14879681 -0.15178333 74 18
-1.7841908 -0.079494834 -0.20043755 66 17
-1.7221508 0.14965694 -0.23532578 71 16
-1.7768012 -0.079758614 -0.30401018 65 15
-1.7202921 0.15187089 -0.48423582 60 13
-1.7754772 -0.079989567 -0.39905956 64 14
-1.7150171 0.15317802 -0.58349514 58 12
-0.599801 -0.026647026 -0.22870745 14 11
-1.7210592 0.15937695 -0.89932507 69 9
-1.7842176 -0.086197615 -0.82266039 11 10
-1.7175083 0.16201229 -1.0216286 68 8
-0.67378461 -0.033705782 -0.43298197 11 7
-0.69802916 0.06649527 -0.50739902 90 6
-0.61786121 -0.032910079 -0.49428487 93 5
-0.26864901 0.025052013 -0.22457777 63 4
-0.25742418 -0.013008221 -0.23652615 83 3
-0.2485638 0.02396873 -0.25377479 25 2
-0.28739423 -0.016115988 -0.33211017 13 1
-0.25806212 0.025748687 -0.315862 3 0
-1.7747575 -0.077771254 0.46469781 55 31
-1.7110882 0.15317185 0.38948423 63 30
-1.7761146 -0.076304048 0.33625278 60 29
-1.7052523 0.15206003 0.26232815 69 28
-1.7753899 -0.074744076 0.21266456 64 27
-1.7178909 0.1532158 0.1615185 73 26
-1.7816164 -0.074397899 0.12163796 68 25
-1.7212387 0.15352482 0.078958906 71 24
-1.777915 -0.073311761 0.040502835 66 23
-1.715575 0.15331423 0 74 22
-1.7779278 -0.073001459 -0.040502835 69 21
-1.7161841 0.15397339 -0.078725986 73 20
-1.7717431 -0.072732903 -0.12033709 68 19
-1.718655 0.15479696 -0.15178333 75 18
-1.7844701 -0.072954915 -0.20043755 66 17
-1.7216179 0.15566747 -0.23532578 71 16
-1.7844634 -0.073560327 -0.30529833 64 15
-1.7197241 0.15817507 -0.48423582 58 13
-1.773311 -0.073686905 -0.39850146 64 14
-1.7144442 0.15946282 -0.58349514 56 12
-0.60684049 -0.024761446 -0.23151942 15 11
-1.72269 0.1655979 -0.90049762 71 9
-1.7867819 -0.079761773 -0.82372332 13 10
-1.719032 0.16851795 -1.0229218 73 8
-0.6739037 -0.031236012 -0.43298197 10 7
-0.70173788 0.069459364 -0.51042825 90 6
-0.62940931 -0.031266399 -0.5039767 86 5
-0.27574277 0.026805872 -0.23148786 59 4
-0.25747013 -0.012064627 -0.23652615 86 3
-0.25008398 0.025015168 -0.25568286 23 2
-0.28745136 -0.015062527 -0.33211017 11 1
-0.2565273 0.026528912 -0.31382418 3 0
-1.7726172 -0.071165606 0.46405327 55 31
-1.7105154 0.15944226 0.38948423 63 30
-1.7739295 -0.069693953 0.33577919 61 29
-1.7096016 0.15877225 0.26310086 68 28
-1.768213 -0.067940265 0.21175572 66 27
-1.7222731 0.15997784 0.16199426 71 26
-1.7793852 -0.06776911 0.12146445 65 25
-1.718178 0.15959831 0.078842446 71 24
-1.7706678 -0.066812173 0.040328752 68 23
-1.7125126 0.15936626 0 74 22
-1.770691 -0.066194087 -0.040328752 69 21
-1.7131499 0.15972802 -0.078609534 71 20
-1.7695057 -0.066142038 -0.12016445 68 19
-1.7131184 0.16062386 -0.15133625 75 18
-1.7797501 -0.066533074 -0.19986893 66 17
-1.7210357 0.16197646 -0.23532578 71 16
-1.7797873 -0.067138411 -0.30443954 64 15
-1.7191614 0.16417705 -0.48423582 59 13
-1.7735691 -0.067186907 -0.39850146 63 14
-1.7162286 0.16567653 -0.58431232 56 12
nan nan nan 0 11
-1.7220715 0.17191078 -0.90049762 71 9
-1.782528 -0.07333158 -0.82159758 13 10
-1.716305 0.17429827 -1.0216286 73 8
-0.65953183 -0.028203284 -0.42317334 10 7
-0.69555759 0.071278542 -0.50588435 90 6
-0.62379777 -0.028778555 -0.49913079 49 5
-0.27385139 0.027569616 -0.22976033 56 4
-0.2592226 -0.011260627 -0.23834558 85 3
-0.24517652 0.025377151 -0.24995862 25 2
-0.2875022 -0.014059041 -0.33211017 11 1
-0.25499499 0.027253728 -0.31178638 3 0
-1.7728549 -0.064977586 0.46405327 56 31
-1.7051003 0.16493675 0.38835692 65 30
-1.7717091 -0.063410126 0.3353056 63 29
-1.7016622 0.16401841 0.26194182 69 28
-1.7709196 -0.061857708 0.21205868 66 27
-1.7142736 0.16526276 0.16128062 73 26
-1.7771184 -0.061467834 0.12129091 65 25
-1.7151251 0.16535206 0.078725986 73 24
-1.7733881 -0.060719952 0.040386781 66 23
-1.714434 0.16558661 0 73 22
-1.7759069 -0.060189012 -0.040444806 69 21
-1.7100966 0.16546337 -0.078493066 73 20
-1.7672333 -0.059876997 -0.11999179 69 19
-1.7125473 0.16660278 -0.15133625 74 18
-1.7824538 -0.060407732 -0.20015325 66 17
-1.7179958 0.16773923 -0.23498175 71 16
-1.7726271 -0.060662378 -0.3031514 65 15
-1.7209692 0.17041701 -0.48492366 58 13
-1.7713575 -0.060908414 -0.39794332 63 14
-1.7109386 0.17118958 -0.5826779 58 12
-1.7395006 -0.063634783 -0.68987161 4 11
-1.717069 0.1774608 -0.89815259 73 9
-1.7805119 -0.067020513 -0.82053465 15 10
-1.7199411 0.18074147 -1.024215 74 8
-0.66996843 -0.026350658 -0.43017951 11 7
-0.69728166 0.073922932 -0.50739902 90 6
-0.62580043 -0.026691135 -0.50074607 38 5
-0.27016255 0.028115598 -0.22630529 55 4
-0.25583583 -0.010178032 -0.23470671 88 3
-0.25150263 0.0269945 -0.25759095 26 2
-0.29057458 -0.013227161 -0.33608752 10 1
-0.25777337 0.028494636 -0.315862 3 0
-1.7682428 -0.05862185 0.46276423 55 31
-1.7093606 0.17137992 0.38948423 63 30
-1.7719197 -0.057225317 0.3353056 61 29
-1.7035367 0.17020607 0.26232815 73 28
-1.7661642 -0.055512846 0.2114528 66 27
-1.7161922 0.17119677 0.1615185 73 26
-1.7773222 -0.055264153 0.12129091 68 25
-1.7170221 0.17158946 0.078842446 71 24
-1.771091 -0.054449048 0.040328752 68 23
-1.7113583 0.17131788 0 74 22
-1.7735987 -0.054219753 -0.040386781 69 21
-1.7070241 0.17117935 -0.078376614 73 20
-1.7699243 -0.053787049 -0.12016445 68 19
-1.7119853 0.17228088 -0.15133625 75 18
-1.7776886 -0.054027673 -0.19958463 66 17
-1.7223568 0.17393932 -0.23566984 70 16
-1.7802126 -0.054711614 -0.30443954 65 15
-1.7179732 0.17617497 -0.48423582 59 13
-1.7691141 -0.054954953 -0.39738521 64 14
-1.71503 0.17765394 -0.58431232 56 12
-1.7744457 -0.059073236 -0.70393151 8 11
-1.7186661 0.18339114 -0.89932507 71 9
-1.7784737 -0.060724404 -0.81947184 13 10
-1.7150787 0.18597667 -1.0216286 75 8
-0.68040001 -0.024425507 -0.43718567 11 7
-0.69505632 0.076011367 -0.50588435 90 6
-0.63160408 -0.024867442 -0.50559199 31 5
-0.27006784 0.029011335 -0.22630529 51 4
-0.2575807 -0.0094127506 -0.23652615 89 3
-0.24660151 0.02724115 -0.2518667 31 2
-0.29666808 -0.012586995 -0.34404227 10 1
-0.2519297 0.028628273 -0.30771074 3 0
-1.7660131 -0.052682377 0.46211973 56 31
-1.7087828 0.17704743 0.38948423 63 30
-1.7745532 -0.051423639 0.33577919 61 29
-1.7054195 0.17611115 0.26271451 68 28
-1.7663385 -0.049655728 0.2114528 66 27
-1.7106339 0.17666869 0.16104275 74 26
-1.7725098 -0.049224671 0.12094387 65 25
-1.7139599 0.17702264 0.078725986 73 24
-1.7712705 -0.048266456 0.040328752 68 23
-1.7132673 0.17725247 0 73 22
-1.7687805 -0.047886223 -0.040270727 66 21
-1.7088997 0.17739797 -0.078493066 71 20
-1.7651069 -0.047775589 -0.11981915 69 19
-1.7113736 0.17825577 -0.15133625 74 18
-1.7778665 -0.047822058 -0.19958463 66 17
-1.7168143 0.17942929 -0.23498175 71 16
-1.7754693 -0.048356213 -0.30358076 64 15
-1.7149582 0.18191409 -0.48354799 59 13
-1.7692953 -0.048779257 -0.39738521 63 14
-1.7097017 0.18312991 -0.5826779 58 12
-1.7630676 -0.052209225 -0.69924492 10 11
-1.7114325 0.18865438 -0.89580756 70 9
-1.7628433 -0.054007415 -0.81203175 11 10
-1.7122599 0.19202003 -1.0203354 76 8
-0.69082624 -0.022427848 -0.44419184 11 7
-0.70267516 0.079481058 -0.51194286 90 6
-0.62406486 -0.022244701 -0.49913079 28 5
-0.26816568 0.029783573 -0.22457777 49 4
-0.25247502 -0.0082379673 -0.23106785 89 3
-0.24650492 0.028101783 -0.2518667 28 2
-0.29519916 -0.011424242 -0.34205356 8 1
-0.25182307 0.029551446 -0.30771074 3 0
-1.7710235 -0.046342466 0.46340877 54 31
-1.7105438 0.18357229 0.39004788 63 30
-1.7698221 -0.044788152 0.33483198 61 29
-1.702307 0.18209474 0.26232815 69 28
-1.7615471 -0.043053251 0.21084692 66 27
-1.7124491 0.18320519 0.16128062 73 26
-1.7701854 -0.04266423 0.12077036 65 25
-1.7157823 0.18357225 0.078842446 71 24
-1.7714281 -0.042083275 0.040328752 68 23
-1.7101206 0.18326116 0 75 22
-1.7689443 -0.041402996 -0.040270727 70 21
-1.7107528 0.18363176 -0.078609534 75 20
-1.7652701 -0.041305825 -0.11981915 69 19
-1.7107087 0.18452705 -0.15133625 75 18
-1.7755395 -0.041554298 -0.19930032 66 17
-1.7112222 0.18518138 -0.23429367 71 16
-1.7682412 -0.041972701 -0.30229262 65 15
-1.7143126 0.18789931 -0.48354799 58 13
-1.7670259 -0.042232469 -0.39682707 64 14
-1.7090521 0.18909676 -0.5826779 56 12
-1.7678727 -0.046182457 -0.70111954 9 11
-1.7173098 0.19568487 -0.89932507 71 9
-1.7879018 -0.048565976 -0.82372332 9 10
-1.7094541 0.19774687 -1.0190423 76 8
nan nan nan 0 7
-0.70041871 0.081695803 -0.51042825 90 6
-0.62604558 -0.020136425 -0.50074607 30 5
-0.27702621 0.031837843 -0.23321539 48 4
-0.2559284 -0.0074984161 -0.23470671 89 3
-0.2447983 0.028797876 -0.24995862 30 2
-0.3043173 -0.010814001 -0.3539857 8 1
-0.25028279 0.030239765 -0.30567291 3 0
-1.7687596 -0.040101983 0.46276423 55 31
-1.7050517 0.18899909 0.38892055 63 30
-1.7699677 -0.038610041 0.33483198 61 29
-1.6992062 0.18776132 0.26194182 70 28
-1.7666488 -0.037014909 0.2114528 64 27
-1.711799 0.18918163 0.16128062 73 26
-1.7703234 -0.036484867 0.12077036 65 25
-1.7151312 0.18956035 0.078842446 71 24
-1.7665668 -0.035791412 0.040212698 68 23
-1.7094704 0.18922946 0 74 22
-1.769078 -0.035227977 -0.040270727 69 21
-1.7076197 0.18932392 -0.078493066 73 20
-1.7629101 -0.035090532 -0.1196465 69 19
-1.70758 0.19021857 -0.15111272 75 18
-1.7731906 -0.035303377 -0.199016 68 17
-1.7105653 0.19115353 -0.23429367 71 16
-1.770839 -0.035853427 -0.30272198 65 15
-1.7112584 0.19360889 -0.48286018 58 13
-1.7647264 -0.036010981 -0.39626896 64 14
-1.7083815 0.19506133 -0.5826779 56 12
-1.772657 -0.040122781 -0.70299417 8 11
-1.7100388 0.2008962 -0.89580756 70 9
nan nan nan 0 10
-1.7151258 0.20448169 -1.0229218 74 8
-0.76546782 -0.019802613 -0.49463639 30 7
-0.70407706 0.084629133 -0.51345748 89 6
-0.62039101 -0.017760208 -0.49590015 28 5
-0.27332851 0.032344781 -0.22976033 48 4
-0.26109296 -0.0067997752 -0.24016501 90 3
-0.25110123 0.030503392 -0.25759095 31 2
-0.30283964 -0.0096869078 -0.35199699 8 1
-0.25161064 0.03130877 -0.30771074 3 0
-1.766474 -0.033877872 0.46211973 55 31
-1.7019621 0.19466974 0.38835692 63 30
-1.7700917 -0.032431472 0.33483198 61 29
-1.6985406 0.19369152 0.26194182 70 28
-1.7618049 -0.030754384 0.21084692 66 27
-1.70869 0.19457239 0.16104275 74 26
-1.7679465 -0.030258926 0.12059683 66 25
-1.7119781 0.19525996 0.078725986 71 24
-1.761683 -0.029533997 0.040096644 68 23
-1.7087996 0.19519548 0 74 22
-1.7616882 -0.029226523 -0.040096644 70 21
-1.7094291 0.1955705 -0.078609534 73 20
-1.7580346 -0.028847819 -0.11930119 68 19
-1.7069396 0.19588007 -0.15111272 73 18
-1.7708197 -0.029069355 -0.19873169 68 17
-1.7123815 0.19711122 -0.23463769 70 16
-1.7709533 -0.029671829 -0.30272198 65 15
-1.7105721 0.1995811 -0.48286018 59 13
-1.7672725 -0.030203817 -0.39682707 64 14
-1.7076904 0.2010235 -0.5826779 56 12
-1.7542433 -0.033859156 -0.69549555 3 11
-1.7071714 0.20629786 -0.89463496 70 9
nan nan nan 0 10
-1.712315 0.20990479 -1.0216286 74 8
-0.77174139 -0.017292017 -0.49884009 34 7
-0.70181948 0.086712465 -0.51194286 90 6
-0.61853927 -0.015645551 -0.49428487 31 5
-0.27142811 0.033015117 -0.22803281 50 4
-0.25426 -0.0056969682 -0.23288728 90 3
-0.24459662 0.030463483 -0.24995862 34 2
-0.30589765 -0.0088020843 -0.35597438 8 1
-0.2529397 0.032343272 -0.30974856 3 0
-1.7665768 -0.028019847 0.46211973 55 31
-1.7013073 0.20031257 0.38835692 64 30
-1.7652806 -0.026480913 0.33388481 61 29
-1.697889 0.19932303 0.26194182 71 28
-1.7594159 -0.024873313 0.21054396 64 27
-1.7080004 0.20053566 0.16104275 73 26
-1.7680371 -0.02439604 0.12059683 66 25
-1.7113211 0.200936 0.078725986 71 24
-1.7667694 -0.023766035 0.040212698 68 23
-1.7056603 0.20056584 0 74 22
-1.7642787 -0.023113111 -0.040154673 70 21
-1.7038116 0.20064758 -0.078376614 74 20
-1.7606144 -0.023053935 -0.11947385 69 19
-1.7087179 0.2021329 -0.15133625 76 18
-1.7758733 -0.023268903 -0.19930032 66 17
-1.711683 0.20308733 -0.23463769 70 16
-1.7636544 -0.023689365 -0.30143383 65 15
-1.7122869 0.20554206 -0.48354799 56 13
-1.7600573 -0.023924977 -0.39515272 64 14
-1.7070142 0.20668529 -0.5826779 56 12
nan nan nan 0 11
-1.7108225 0.21280691 -0.89698005 70 9
nan nan nan 0 10
-1.7073271 0.21533909 -1.0190423 74 8
-0.78421366 -0.015014566 -0.50724751 63 7
-0.70742893 0.089935414 -0.5164867 90 6
-0.61668271 -0.013435734 -0.49266955 38 5
-0.27489284 0.034446638 -0.23148786 46 4
-0.2542783 -0.0048094001 -0.23288728 89 3
-0.24288902 0.031093411 -0.24805054 35 2
-0.30138457 -0.0075708781 -0.35000831 8 1
-0.25282526 0.033225995 -0.30974856 3 0
-1.7594179 -0.021753261 0.46018615 56 31
-1.7030151 0.20654643 0.38892055 64 30
-1.7604533 -0.02025537 0.33293763 63 29
-1.694731 0.20494883 0.26155546 70 28
-1.7619733 -0.018761538 0.21084692 68 27
-1.7048197 0.20619448 0.16080487 74 26
-1.7656176 -0.018195126 0.12042332 66 25
-1.7106093 0.2069084 0.078725986 73 24
-1.7643455 -0.017262423 0.040154673 68 23
-1.7024684 0.20621468 0 74 22
-1.7618493 -0.016927006 -0.040096644 70 21
-1.7030648 0.20689102 -0.078376614 73 20
-1.7581902 -0.016880678 -0.11930119 70 19
-1.7030593 0.20748758 -0.15088919 75 18
-1.773463 -0.016732968 -0.199016 68 17
-1.7060486 0.20845403 -0.23394962 71 16
-1.7637293 -0.01722509 -0.30143383 65 15
-1.7115221 0.21181652 -0.48354799 56 13
-1.7601302 -0.017781083 -0.39515272 63 14
-1.7062453 0.21294042 -0.5826779 54 12
nan nan nan 0 11
-1.7078794 0.21849428 -0.89580756 71 9
nan nan nan 0 10
-1.7086478 0.22187385 -1.0203354 74 8
-0.78840345 -0.012218948 -0.51004994 95 7
-0.69920981 0.091467202 -0.51042825 90 6
-0.61482018 -0.011131768 -0.49105424 43 5
-0.2801345 0.036200009 -0.23667043 48 4
-0.25772205 -0.003971342 -0.23652615 90 3
-0.24118006 0.031711787 -0.24614246 38 2
-0.30746701 -0.0066618286 -0.35796306 8 1
-0.24983618 0.033731312 -0.30567291 3 0
-1.761901 -0.015328976 0.46083066 56 31
-1.6998303 0.21248163 0.38835692 65 30
-1.765425 -0.01384826 0.33388481 61 29
-1.6915179 0.21085021 0.26116911 70 28
-1.7545857 -0.012241089 0.20993808 65 27
-1.7065216 0.2127526 0.16104275 74 26
-1.7631785 -0.011703668 0.12024979 66 25
-1.7073619 0.21286458 0.078609534 73 24
-1.764395 -0.011103604 0.040154673 68 23
-1.701701 0.21245314 0 73 22
-1.7618996 -0.010469392 -0.040096644 70 21
-1.6998547 0.21252157 -0.078260154 73 20
-1.7557462 -0.010418195 -0.11912854 69 19
-1.7047575 0.21404158 -0.15111272 73 18
-1.7710267 -0.010524119 -0.19873169 68 17
-1.7101859 0.21533059 -0.23463769 70 16
-1.7687043 -0.011106245 -0.30229262 63 15
-1.7060045 0.21717624 -0.48217231 59 13
-1.7601836 -0.011329765 -0.39515272 63 14
-1.7031486 0.21859115 -0.58186066 56 12
-0.89934176 -0.0065239957 -0.34962246 33 11
-1.7048784 0.22446123 -0.89463496 71 9
nan nan nan 0 10
-1.707863 0.22783679 -1.0203354 76 8
-0.78016067 -0.0093381954 -0.50444502 110 7
-0.70479703 0.094723336 -0.51497209 90 6
-0.61867076 -0.0090595037 -0.49428487 41 5
-0.28358454 0.037687514 -0.24012548 49 4
-0.25944838 -0.0031126929 -0.23834558 90 3
-0.24266031 0.032830678 -0.24805054 34 2
-0.30143103 -0.0054140394 -0.35000831 8 1
-0.24828483 0.034387637 -0.30363509 3 0
-1.757113 -0.0091466606 0.45954162 56 31
-1.6966628 0.21810015 0.38779324 64 30
-1.7605532 -0.007657418 0.33293763 61 29
-1.6932212 0.2170707 0.26155546 69 28
-1.7546178 -0.0061163669 0.20993808 65 27
-1.7058067 0.21841048 0.16104275 75 26
-1.7657026 -0.0055602719 0.12042332 65 25
-1.7066085 0.21882308 0.078609534 71 24
-1.7569251 -0.0049132407 0.03998059 68 23
-1.7009491 0.2183919 0 74 22
-1.7619245 -0.0046266653 -0.040096644 70 21
-1.701579 0.21877551 -0.078376614 71 20
-1.7507839 -0.0042702807 -0.11878324 70 19
-1.7040383 0.21969359 -0.15111272 74 18
-1.7660854 -0.0043229442 -0.19816308 68 17
-1.7045517 0.22035931 -0.23394962 71 16
-1.7638067 -0.0049116155 -0.30143383 63 15
-1.7100016 0.22375995 -0.48354799 58 13
-1.7602113 -0.0054927245 -0.39515272 63 14
-1.7023752 0.22453491 -0.58186066 56 12
-0.88313526 -0.0034312066 -0.34306115 95 11
-1.7063123 0.2304121 -0.89580756 71 9
-0.86985296 -0.0040572891 -0.39219856 99 10
-1.7028593 0.23291309 -1.0177491 78 8
-0.78639925 -0.0066896672 -0.50864875 116 7
-0.70841777 0.09761706 -0.51800138 90 6
-0.6110661 -0.0068853209 -0.48782364 40 5
-0.28345799 0.03862771 -0.24012548 49 4
-0.25260055 -0.0021110803 -0.23106785 90 3
-0.2425501 0.033635188 -0.24805054 33 2
-0.30447626 -0.0044916286 -0.3539857 8 1
-0.25389481 0.036092013 -0.31178638 3 0
-1.7571337 -0.0033198136 0.45954162 56 31
-1.6959302 0.22372529 0.38779324 65 30
-1.7605689 -0.0018191708 0.33293763 63 29
-1.6900434 0.22235903 0.26116911 70 28
-1.7546284 -0.00029781135 0.20993808 68 27
-1.7025671 0.22403565 0.16080487 74 26
-1.7607234 0.00030113314 0.12007628 66 25
-1.7058735 0.2244812 0.078609534 73 24
-1.7594311 0.000910779 0.040038615 68 23
-1.7002156 0.22403125 0 74 22
-1.7644293 0.0015223189 -0.040154673 70 21
-1.6983687 0.22408709 -0.078260154 71 20
-1.7532825 0.0015342454 -0.1189559 69 19
-1.7007933 0.22531027 -0.15088919 75 18
-1.7685738 0.001532329 -0.19844739 68 17
-1.7086805 0.22696637 -0.23463769 70 16
-1.7638133 0.00093740516 -0.30143383 63 15
-1.7068685 0.22910641 -0.48286018 58 13
-1.7553461 0.00065669755 -0.39403647 61 14
-1.6992803 0.22985913 -0.58104342 56 12
-0.87618911 -0.00032541133 -0.34024918 104 11
-1.7076845 0.23667298 -0.89698005 73 9
-0.86081052 -0.0011332373 -0.38794708 111 10
-1.7041541 0.23915611 -1.0190423 74 8
-0.7802062 -0.0040276349 -0.50444502 122 7
-0.70216757 0.099233106 -0.51345748 90 6
-0.61871809 -0.0048481687 -0.49428487 41 5
-0.29225776 0.040952474 -0.24876307 49 4
-0.25432068 -0.0012586517 -0.23288728 90 3
-0.23764183 0.033743624 -0.2423263 34 2
-0.3060047 -0.0034620939 -0.35597438 8 1
-0.24804501 0.036076851 -0.30363509 3 0
-1.7595501 0.0028141695 0.46018615 55 31
-1.6951389 0.22964382 0.38779324 64 30
-1.7605646 0.0043263724 0.33293763 61 29
-1.6892569 0.22825705 0.26116911 70 28
-1.7546188 0.0058269864 0.20993808 65 27
-1.7017746 0.22997737 0.16080487 74 26
-1.7607117 0.0064472025 0.12007628 66 25
-1.702605 0.23009683 0.078493066 73 24
-1.7569166 0.0073524313 0.03998059 68 23
-1.6969463 0.22962633 0 75 22
-1.7619139 0.0076739015 -0.040096644 70 21
-1.6950618 0.22997153 -0.078143694 74 20
-1.7532665 0.0076543344 -0.1189559 69 19
-1.6975294 0.23090698 -0.15066564 75 18
-1.7660725 0.0080066631 -0.19816308 68 17
-1.705425 0.23259164 -0.23429367 70 16
-1.7588723 0.0073883422 -0.30057502 63 15
-1.7036366 0.23502925 -0.48217231 59 13
-1.7577699 0.0067899488 -0.39459458 63 14
-1.7031058 0.23674259 -0.5826779 56 12
-0.88081962 0.0028876022 -0.34212384 104 11
-1.7024767 0.24200492 -0.89463496 73 9
-0.8766486 0.0020107403 -0.39538717 111 10
-1.7032661 0.24540053 -1.0190423 74 8
-0.78021574 -0.0011680091 -0.50444502 123 7
-0.70573378 0.10239123 -0.5164867 90 6
-0.61109972 -0.0025124846 -0.48782364 48 5
-0.29567826 0.042570688 -0.25221813 49 4
-0.25260919 -0.0003034703 -0.23106785 90 3
-0.24550058 0.035830826 -0.2518667 38 2
-0.31207421 -0.0024515544 -0.36392909 8 1
-0.25220031 0.037677363 -0.30974856 3 0
-1.7571124 0.0092539489 0.45954162 56 31
-1.6942859 0.2358553 0.38779324 63 30
-1.7629915 0.010790702 0.33341122 61 29
-1.6908551 0.23478985 0.26155546 69 28
-1.7570671 0.012271807 0.21024103 68 27
-1.6984557 0.23586765 0.160567 74 26
-1.7606761 0.01290049 0.12007628 66 25
-1.699277 0.23598894 0.078376614 73 24
-1.7568802 0.013485169 0.03998059 69 23
-1.6985691 0.2361919 0 76 22
-1.7593747 0.01411501 -0.040038615 70 21
-1.6942488 0.23588699 -0.078143694 74 20
-1.7482388 0.014047245 -0.1186106 70 19
-1.6966717 0.2371272 -0.15066564 75 18
-1.7660339 0.014171356 -0.19816308 68 17
-1.704561 0.23884077 -0.23429367 70 16
-1.7588358 0.013527907 -0.30057502 65 15
-1.7028059 0.24097462 -0.48217231 58 13
-1.7552965 0.013217567 -0.39403647 64 14
-1.6975919 0.24201293 -0.58104342 56 12
-0.88080418 0.0059622191 -0.34212384 101 11
-1.6993939 0.24792136 -0.89346248 71 9
-0.87663621 0.0050708028 -0.39538717 103 10
-1.6981668 0.25071356 -1.0164558 75 8
-0.78435582 0.001548955 -0.50724751 119 7
-0.7053721 0.10485408 -0.5164867 90 6
-0.61873692 -0.00042062812 -0.49428487 58 5
-0.29552785 0.043602537 -0.25221813 49 4
-0.26118103 0.00049301912 -0.24016501 90 3
-0.24058361 0.035958122 -0.24614246 36 2
-0.30905128 -0.0013172484 -0.35995173 6 1
-0.25206727 0.038557474 -0.30974856 3 0
-1.7546539 0.015369654 0.45889711 55 31
-1.6910417 0.24142064 0.38722959 69 30
-1.7555792 0.016884217 0.33199042 63 29
-1.6851357 0.23998773 0.26078278 70 28
-1.7520508 0.018359998 0.20963515 68 27
-1.6976222 0.24179493 0.160567 74 26
-1.7581266 0.019022813 0.11990275 66 25
-1.700915 0.2422744 0.078493066 73 24
-1.7568225 0.019617744 0.03998059 69 23
-1.692785 0.24140731 0 75 22
-1.751817 0.020180389 -0.039864536 71 21
-1.6958867 0.24215576 -0.078260154 73 20
-1.745685 0.020124404 -0.11843794 70 19
-1.698298 0.24340467 -0.15088919 76 18
-1.7659736 0.020335879 -0.19816308 68 17
-1.6988157 0.24407871 -0.23360558 71 16
-1.7563151 0.019643236 -0.30014563 64 15
-1.6995764 0.24656886 -0.4814845 59 13
-1.7552396 0.019344613 -0.39403647 64 14
-1.6967368 0.24793716 -0.58104342 56 12
-0.87382531 0.008985796 -0.33931184 70 11
-1.7007015 0.25418127 -0.89463496 71 9
-0.87887591 0.0081450203 -0.39645004 49 10
-1.7015114 0.25728548 -1.0190423 76 8
-0.78641605 0.0042908331 -0.50864875 105 7
-0.70303655 0.10700931 -0.51497209 90 6
-0.62064272 0.0017355066 -0.49590015 76 5
-0.29715815 0.044919979 -0.25394562 49 4
-0.25603417 0.0014379238 -0.23470671 90 3
-0.24205039 0.037060678 -0.24805054 36 2
-0.30602419 -0.00020407746 -0.35597438 6 1
-0.25193113 0.039437123 -0.30974856 3 0
-1.7545897 0.021494444 0.45889711 55 31
-1.6925981 0.24767779 0.38779324 68 30
-1.7530551 0.022983525 0.33151683 63 29
-1.6867312 0.24622844 0.26116911 70 28
-1.7470131 0.024413316 0.20902926 68 27
-1.6968111 0.24742314 0.160567 74 26
-1.7580495 0.025159705 0.11990275 66 25
-1.6975882 0.24784628 0.078376614 73 24
-1.751745 0.025683776 0.039864536 69 23
-1.6919321 0.24731475 0 76 22
-1.7542396 0.026023099 -0.039922561 70 21
-1.6925608 0.24770923 -0.078143694 74 20
-1.7456042 0.026217859 -0.11843794 69 19
-1.6974815 0.24903511 -0.15088919 75 18
-1.7609247 0.026432531 -0.19759446 69 17
-1.7028959 0.25043774 -0.23429367 71 16
-1.7562358 0.025773799 -0.30014563 63 15
-1.6987052 0.25249997 -0.4814845 58 13
-1.7502923 0.025102146 -0.3929202 64 14
-1.6911887 0.25315258 -0.579409 58 12
-0.88306063 0.011982152 -0.34306115 20 11
-1.697667 0.25948295 -0.89346248 71 9
-0.87205398 0.011146473 -0.39326143 15 10
-1.7006489 0.26292649 -1.0190423 74 8
-0.79467767 0.0070807184 -0.51425368 90 7
-0.71053457 0.11059149 -0.5210306 90 6
-0.6206336 0.0037936221 -0.49590015 86 5
-0.28987411 0.044736996 -0.24703555 48 4
-0.25259894 0.0022977286 -0.23106785 90 3
-0.23874041 0.037326604 -0.24423438 38 2
-0.30450827 0.00082289916 -0.3539857 6 1
-0.25037169 0.040027086 -0.30771074 3 0
-1.7496781 0.027244462 0.45760807 58 31
-1.6917673 0.25328928 0.38779324 64 30
-1.7529691 0.02879674 0.33151683 64 29
-1.6834631 0.25145248 0.26078278 73 28
-1.7444414 0.030167075 0.20872632 65 27
-1.695937 0.2533446 0.160567 74 26
-1.7579564 0.03098947 0.11990275 66 25
-1.6942877 0.25310218 0.078260154 74 24
-1.7541436 0.031840228 0.039922561 69 23
-1.6935748 0.253297 0 76 22
-1.7516391 0.032104071 -0.039864536 71 21
-1.6916856 0.25361586 -0.078143694 74 20
-1.7480013 0.032048572 -0.1186106 69 19
-1.6941401 0.25458568 -0.15066564 75 18
-1.7608217 0.032579143 -0.19759446 68 17
-1.6971149 0.25563645 -0.23360558 71 16
-1.7561351 0.031904049 -0.30014563 63 15
-1.6978134 0.25842804 -0.4814845 58 13
-1.750194 0.031211654 -0.3929202 63 14
-1.6972996 0.26013753 -0.58186066 55 12
-0.88301086 0.015218651 -0.34306115 9 11
-1.6967509 0.26540732 -0.89346248 73 9
-0.87653506 0.014250469 -0.39538717 15 10
-1.697561 0.26882029 -1.0177491 76 8
-0.79671842 0.0098730465 -0.51565492 38 7
-0.70423537 0.11223483 -0.5164867 90 6
-0.61489129 0.0060393596 -0.49105424 88 5
-0.29861963 0.047291994 -0.25567317 48 4
-0.25601789 0.0032253303 -0.23470671 90 3
-0.24020058 0.038433567 -0.24614246 41 2
-0.29995835 0.0019588033 -0.34801963 6 1
-0.24879694 0.040693995 -0.30567291 3 0
-1.7543968 0.033743169 0.45889711 55 31
-1.6932347 0.25986084 0.38835692 68 30
-1.752852 0.035221498 0.33151683 63 29
-1.6849712 0.25799793 0.26116911 70 28
-1.7468001 0.036609076 0.20902926 65 27
-1.6999159 0.26031852 0.16104275 76 26
-1.7553374 0.037382871 0.11972923 66 25
-1.6982846 0.26007271 0.078493066 74 24
-1.751523 0.037912536 0.039864536 69 23
-1.6901643 0.25912055 0 76 22
-1.7490108 0.038472459 -0.039806508 71 21
-1.6883221 0.25913736 -0.078027233 74 20
-1.7478722 0.038455099 -0.1186106 70 19
-1.6931956 0.26079333 -0.15066564 75 18
-1.758214 0.038674209 -0.19731016 69 17
-1.7010602 0.2626169 -0.23429367 70 16
-1.7560132 0.03803391 -0.30014563 63 15
-1.6921524 0.26360679 -0.48010883 61 13
-1.7500679 0.037626222 -0.3929202 64 14
-1.6917138 0.26532227 -0.58022624 58 12
-0.86673146 0.018012041 -0.33649987 8 11
-1.6957667 0.27162448 -0.89346248 75 9
-0.87647998 0.017310061 -0.39538717 11 10
-1.6945008 0.27439925 -1.0164558 78 8
-0.80081958 0.012705363 -0.51845735 23 7
-0.70580125 0.11501928 -0.51800138 90 6
-0.62059045 0.008234648 -0.49590015 88 5
-0.29845271 0.048334084 -0.25567317 46 4
-0.25943413 0.0041327449 -0.23834558 90 3
-0.24642177 0.040432338 -0.25377479 34 2
-0.29843473 0.0030071633 -0.34603095 6 1
-0.24580237 0.041051287 -0.3015973 3 0
-1.7494385 0.039764091 0.45760807 56 31
-1.6875061 0.2650077 0.38722959 69 30
-1.750264 0.04128547 0.33104324 63 29
-1.6816207 0.26349252 0.26078278 70 28
-1.7441808 0.042649157 0.20872632 65 27
-1.6940806 0.26547387 0.160567 74 26
-1.752703 0.0434516 0.11955571 66 25
-1.6973665 0.26599929 0.078493066 74 24
-1.7488815 0.043966942 0.039806508 69 23
-1.6941881 0.26580003 0 79 22
-1.7438687 0.04445703 -0.039690454 71 21
-1.6898739 0.26541975 -0.078143694 76 20
-1.7402474 0.044375885 -0.11809264 70 19
-1.6922748 0.26670206 -0.15066564 75 18
-1.7555852 0.044751473 -0.19702585 69 17
-1.7001331 0.26855311 -0.23429367 71 16
-1.7509453 0.044046398 -0.29928684 63 15
-1.698341 0.27065599 -0.48217231 58 13
-1.7474897 0.04367746 -0.39236206 63 14
-1.6954421 0.27198049 -0.58186066 56 12
-0.88288307 0.021382809 -0.34306115 9 11
-1.6969867 0.27790201 -0.89463496 70 9
-0.88093883 0.02046106 -0.39751291 11 10
-1.6914223 0.2799601 -1.0151627 75 8
-0.79456002 0.015402025 -0.51425368 24 7
-0.71127766 0.11848354 -0.52254522 90 6
-0.61865002 0.010377884 -0.49428487 81 5
-0.30540279 0.05061961 -0.26258326 44 4
-0.26284713 0.0050640488 -0.24198443 90 3
-0.23991942 0.040151406 -0.24614246 36 2
-0.30296731 0.0040607755 -0.35199699 8 1
-0.24708216 0.042169485 -0.30363509 3 0
-1.7517037 0.045930386 0.45825258 56 31
-1.6865706 0.27089661 0.38722959 65 30
-1.7501093 0.047394782 0.33104324 63 29
-1.683129 0.26975489 0.26116911 71 28
-1.7440214 0.04873722 0.20872632 69 27
-1.6931911 0.27109018 0.160567 74 26
-1.7550336 0.049636431 0.11972923 68 25
-1.6939623 0.27152416 0.078376614 74 24
-1.7487173 0.050071411 0.039806508 69 23
-1.6932499 0.27171224 0 75 22
-1.7512069 0.050445095 -0.039864536 71 21
-1.6864719 0.27091762 -0.078027233 74 20
-1.7400818 0.050450213 -0.11809264 70 19
-1.6889234 0.27191341 -0.15044211 75 18
-1.7554183 0.050879333 -0.19702585 69 17
-1.696789 0.27379182 -0.23394962 71 16
-1.7507808 0.050158072 -0.29928684 64 15
-1.6950142 0.27619302 -0.4814845 60 13
-1.7448993 0.049406614 -0.39180395 63 14
-1.6921513 0.27751154 -0.58104342 56 12
-0.88744116 0.024424493 -0.3449358 10 11
-1.6917012 0.28279373 -0.89228994 73 9
-0.87633777 0.023428574 -0.39538717 13 10
-1.6925938 0.28592691 -1.0164558 74 8
-0.80071139 0.018295785 -0.51845735 23 7
-0.71480012 0.12152207 -0.52557451 90 6
-0.62624365 0.012546564 -0.50074607 83 5
-0.31057057 0.052582804 -0.26776582 43 4
-0.25254223 0.0058243368 -0.23106785 90 3
-0.24772981 0.042399213 -0.25568286 35 2
-0.29840732 0.0050384589 -0.34603095 6 1
-0.25405958 0.044314384 -0.31382418 3 0
-1.7467127 0.051603261 0.45696354 56 31
-1.685663 0.27648798 0.38722959 66 30
-1.7499424 0.053198095 0.33104324 63 29
-1.6797881 0.27493274 0.26078278 74 28
-1.7438501 0.054520339 0.20872632 69 27
-1.6922344 0.27699888 0.160567 74 26
-1.7548593 0.055456057 0.11972923 66 25
-1.6955166 0.27754664 0.078493066 74 24
-1.7435354 0.056021743 0.039690454 70 23
-1.6874065 0.27651086 0 75 22
-1.748522 0.056480441 -0.039806508 71 21
-1.6830521 0.27639499 -0.077910781 74 20
-1.7374122 0.056143217 -0.11792 71 19
-1.6928767 0.2786223 -0.15088919 76 18
-1.7527474 0.056929424 -0.19674155 69 17
-1.6909375 0.2789008 -0.23326153 71 16
-1.7481334 0.056193493 -0.29885745 64 15
-1.6964101 0.28250596 -0.48217231 58 13
-1.7447162 0.055497147 -0.39180395 63 14
-1.6888428 0.28302294 -0.58022624 56 12
-0.88734573 0.027676966 -0.3449358 13 11
-1.6928797 0.2890718 -0.89346248 75 9
-0.88982236 0.026857033 -0.40176439 25 10
-1.6873188 0.29139438 -1.0138694 73 8
-0.79236323 0.020901345 -0.51285243 39 7
-0.70847476 0.12309884 -0.5210306 90 6
-0.61856252 0.014696589 -0.49428487 76 5
-0.31748754 0.055014458 -0.27467591 49 4
-0.2576623 0.0068244198 -0.23652615 90 3
-0.24122851 0.042079575 -0.24805054 38 2
-0.30596137 0.0062048547 -0.35597438 6 1
-0.25674093 0.045786008 -0.31789982 3 0
-1.7465117 0.058004934 0.45696354 56 31
-1.6870397 0.28307056 0.38779324 65 30
-1.7497357 0.059611596 0.33104324 63 29
-1.6787692 0.28108764 0.26078278 70 28
-1.7386782 0.060745217 0.20812044 69 27
-1.6912078 0.28319937 0.160567 74 26
-1.7471668 0.061634287 0.11920867 68 25
-1.6920254 0.28334352 0.078376614 74 24
-1.7408315 0.062021997 0.039632428 69 23
-1.6839168 0.28227717 0 76 22
-1.7433075 0.062716007 -0.039690454 71 21
-1.6845394 0.28268474 -0.078027233 74 20
-1.7371947 0.062510774 -0.11792 71 19
-1.6869345 0.28399205 -0.15044211 76 18
-1.7500558 0.062961489 -0.19645722 69 17
-1.6972276 0.28634179 -0.23429367 71 16
-1.7479266 0.062295277 -0.29885745 64 15
-1.6906757 0.28761339 -0.48079664 63 13
-1.7371945 0.061642714 -0.39012957 64 14
-1.6878445 0.28891641 -0.58022624 58 12
nan nan nan 0 11
-1.6939834 0.29565725 -0.89463496 76 9
nan nan nan 0 10
-1.6862913 0.29728249 -1.0138694 73 8
-0.79849452 0.023830755 -0.51705611 70 7
-0.71391225 0.12663391 -0.52557451 90 6
-0.62232262 0.016941598 -0.49751547 84 5
-0.32617754 0.057770513 -0.28331351 49 4
-0.25935113 0.0077546081 -0.23834558 90 3
-0.24265951 0.043265287 -0.24995862 38 2
-0.30593789 0.0072728214 -0.35597438 6 1
-0.24947061 0.045305237 -0.30771074 3 0
-1.7462987 0.064101048 0.45696354 56 31
-1.6788412 0.28771403 0.38610229 65 30
-1.7470639 0.065630287 0.33056965 63 29
-1.6704755 0.28568724 0.25962374 71 28
-1.7359756 0.066722162 0.20781749 66 27
-1.6877563 0.28867832 0.16032912 74 26
-1.7494332 0.067825787 0.11938219 66 25
-1.688565 0.28882387 0.078260154 73 24
-1.7455995 0.068286657 0.039748482 69 23
-1.6853846 0.28857848 0 76 22
-1.7405807 0.068705834 -0.039632428 73 21
-1.6860033 0.28898823 -0.078143694 73 20
-1.736966 0.068574339 -0.11792 69 19
-1.6834794 0.28945372 -0.15021856 75 18
-1.7498254 0.069069944 -0.19645722 69 17
-1.6913383 0.29141727 -0.23360558 71 16
-1.7476985 0.068396293 -0.29885745 64 15
-1.6896615 0.29351318 -0.48079664 60 13
-1.7418391 0.067889124 -0.39124581 63 14
-1.6868258 0.2948063 -0.58022624 58 12
-1.6954819 0.062381841 -0.67206246 16 11
-1.6907679 0.30117828 -0.89346248 76 9
-1.6924407 0.060542669 -0.77908278 23 10
-1.681033 0.30240327 -1.011283 71 8
-0.78805912 0.026308967 -0.51004994 46 7
-0.70759809 0.12804189 -0.5210306 90 6
-0.62225968 0.019113805 -0.49751547 83 5
-0.32419828 0.058572911 -0.28158599 51 4
-0.25418004 0.0085494528 -0.23288728 90 3
-0.2409212 0.043804675 -0.24805054 39 2
-0.31045488 0.0084160538 -0.36194041 8 1
-0.25357339 0.047016673 -0.31382418 3 0
-1.7436508 0.070102811 0.45631903 58 31
-1.6802254 0.29399547 0.38666594 65 30
-1.7419186 0.071533814 0.32962245 64 29
-1.6767659 0.29280069 0.26078278 70 28
-1.7382116 0.072881907 0.20812044 69 27
-1.6867899 0.29427353 0.16032912 75 26
-1.7491859 0.073932037 0.11938219 70 25
-1.690006 0.29514909 0.078376614 73 24
-1.7403561 0.074173689 0.039632428 70 23
-1.6843671 0.29445985 0 76 22
-1.7428402 0.074580781 -0.039690454 73 21
-1.6825249 0.29443806 -0.078027233 78 20
-1.7342241 0.074533492 -0.11774734 70 19
-1.6825101 0.29503474 -0.15021856 75 18
-1.7446103 0.074971266 -0.19588861 69 17
-1.6903626 0.29702434 -0.23360558 71 16
-1.7449882 0.074395068 -0.29842806 64 15
-1.6886266 0.29940945 -0.48079664 60 13
-1.7391697 0.073565401 -0.3906877 63 14
-1.683461 0.30027464 -0.579409 58 12
-1.7161089 0.06880828 -0.68049836 38 11
-1.687588 0.30638599 -0.89228994 73 9
-1.6967416 0.066620588 -0.78120852 50 10
-1.6884366 0.3095313 -1.0164558 76 8
-0.79623938 0.029335665 -0.51565492 36 7
-0.71303368 0.13149039 -0.52557451 90 6
-0.62028563 0.021121249 -0.49590015 81 5
-0.32577673 0.059989378 -0.28331351 45 4
-0.2541503 0.0093922969 -0.23288728 90 3
-0.23918988 0.044290718 -0.24614246 38 2
-0.30436659 0.0093249483 -0.3539857 8 1
-0.25483596 0.048142299 -0.315862 3 0
-1.7409953 0.075783007 0.4556745 58 31
-1.6792412 0.29956567 0.38666594 66 30
-1.7392193 0.077204473 0.32914886 64 29
-1.6757858 0.29835945 0.26078278 70 28
-1.7330021 0.078428261 0.20751455 69 27
-1.688202 0.30059913 0.160567 76 26
-1.7464395 0.079622045 0.11920867 68 25
-1.6865599 0.30031079 0.078260154 75 24
-1.7425833 0.080359839 0.039690454 69 23
-1.6833812 0.30004376 0 76 22
-1.7400726 0.080551915 -0.039632428 73 21
-1.681487 0.30030939 -0.078027233 78 20
-1.7339673 0.080283977 -0.11774734 71 19
-1.68147 0.300906 -0.15021856 76 18
-1.7468191 0.081172436 -0.19617291 69 17
-1.6893156 0.30292299 -0.23360558 71 16
-1.7422576 0.080375761 -0.29799867 65 15
-1.6899358 0.30573303 -0.4814845 59 13
-1.7413366 0.079743773 -0.39124581 63 14
-1.6847264 0.3065753 -0.58022624 58 12
-1.7251074 0.075489111 -0.68424767 48 11
-1.6821671 0.31146485 -0.88994491 74 9
-1.7258903 0.073754244 -0.79502583 54 10
-1.6809833 0.31452814 -1.0125762 74 8
-0.78785628 0.031809971 -0.51004994 40 7
-0.70668703 0.13297869 -0.5210306 90 6
-0.62211108 0.023457495 -0.49751547 81 5
-0.33442095 0.062924102 -0.29195112 46 4
-0.25582802 0.010372512 -0.23470671 90 3
-0.23903382 0.045125376 -0.24614246 40 2
-0.30281579 0.010404753 -0.35199699 6 1
-0.26175192 0.050527051 -0.32605109 3 0
-1.7407058 0.082163565 0.4556745 56 31
-1.6805276 0.30615807 0.38722959 69 30
-1.7413769 0.083692864 0.32962245 64 29
-1.6722515 0.30405447 0.26039642 74 28
-1.7376606 0.085015036 0.20812044 66 27
-1.6846409 0.30633628 0.16032912 78 26
-1.746136 0.086022533 0.11920867 68 25
-1.6854479 0.3064903 0.078260154 74 24
-1.7422922 0.086442098 0.039690454 69 23
-1.6822702 0.30621165 0 76 22
-1.7422619 0.087050267 -0.039690454 73 21
-1.6804284 0.30617702 -0.078027233 76 20
-1.7336614 0.086638741 -0.11774734 71 19
-1.6803559 0.30706686 -0.15021856 75 18
-1.749006 0.087389953 -0.19645722 69 17
-1.6857587 0.30866349 -0.23326153 73 16
-1.7419665 0.08645688 -0.29799867 63 15
-1.6864952 0.31119087 -0.48079664 63 13
-1.7361645 0.085891731 -0.39012957 63 14
-1.6836461 0.31245419 -0.58022624 56 12
-1.7364095 0.082040116 -0.68893427 56 11
-1.6831834 0.31804121 -0.89111745 74 9
-1.7369251 0.080283619 -0.80034018 65 10
-1.6819763 0.3207978 -1.0138694 75 8
-0.78360295 0.034393013 -0.50724751 49 7
-0.71012253 0.13620779 -0.52405989 90 6
-0.62011862 0.025559342 -0.49590015 84 5
-0.33242726 0.063736662 -0.2902236 45 4
-0.25236291 0.01115595 -0.23106785 90 3
-0.24044929 0.046325147 -0.24805054 40 2
-0.30429205 0.011502692 -0.3539857 6 1
-0.26157397 0.051440429 -0.32605109 3 0
-1.7379959 0.088120423 0.45503002 59 31
-1.6746606 0.31112626 0.38610229 66 30
-1.7410741 0.089770898 0.32962245 63 29
-1.668752 0.30943638 0.26001009 71 28
-1.7323965 0.090827256 0.20751455 66 27
-1.688454 0.3131288 0.16080487 76 26
-1.7433343 0.091989242 0.11903515 69 25
-1.6868227 0.3128303 0.078376614 73 24
-1.7369879 0.092265189 0.039574403 69 23
-1.6811912 0.31208202 0 76 22
-1.7419475 0.093131363 -0.039690454 69 21
-1.6793495 0.31204095 -0.078027233 74 20
-1.7333485 0.09268982 -0.11774734 70 19
-1.6792737 0.31293055 -0.15021856 76 18
-1.7462099 0.093365453 -0.19617291 69 17
-1.6846709 0.31454599 -0.23326153 71 16
-1.741654 0.092536949 -0.29799867 65 15
-1.6830374 0.31662849 -0.48010883 64 13
-1.735854 0.091951549 -0.39012957 61 14
-1.684866 0.31877163 -0.58104342 56 12
-1.7361126 0.088100813 -0.68893427 59 11
-1.686398 0.32475573 -0.89346248 73 9
-1.734374 0.086237162 -0.79927731 68 10
-1.6787466 0.32625583 -1.0125762 75 8
-0.78347814 0.037128083 -0.50724751 51 7
-0.70964277 0.13868573 -0.52405989 90 6
-0.6257453 0.027952529 -0.50074607 86 5
-0.33751503 0.06597843 -0.29540616 46 4
-0.2608898 0.012340463 -0.24016501 90 3
-0.24028613 0.047164187 -0.24805054 44 2
-0.29819301 0.01237974 -0.34603095 8 1
-0.25714254 0.051452853 -0.31993765 3 0
-1.7304412 0.093804851 0.45309645 60 31
-1.6759566 0.31742638 0.38666594 65 30
-1.7382988 0.095716357 0.32914886 64 29
-1.6773671 0.31710741 0.26155546 73 28
-1.7295911 0.096738815 0.20721161 66 27
-1.6825167 0.31779611 0.16032912 76 26
-1.7380221 0.097800836 0.11868811 69 25
-1.6832672 0.3182494 0.078260154 75 24
-1.7366554 0.098327845 0.039574403 69 23
-1.6800916 0.31794855 0 79 22
-1.7391336 0.098769166 -0.039632428 73 21
-1.6782498 0.31790107 -0.078027233 78 20
-1.728034 0.098463073 -0.11740204 71 19
-1.6806726 0.31896493 -0.15044211 76 18
-1.7433934 0.09932252 -0.19588861 69 17
-1.6836187 0.32013083 -0.23326153 71 16
-1.7413205 0.098615892 -0.29799867 63 15
-1.6866416 0.32341293 -0.4814845 63 13
-1.7355396 0.097707339 -0.39012957 61 14
-1.6814237 0.32420057 -0.58022624 55 12
-1.7381253 0.093979187 -0.68987161 59 11
-1.6831456 0.32991853 -0.89228994 73 9
-1.7408417 0.092641279 -0.80246586 68 10
-1.6755573 0.33140284 -1.011283 78 8
-0.78541183 0.039960597 -0.50864875 54 7
-0.70722961 0.14064342 -0.52254522 90 6
-0.62183654 0.029862292 -0.49751547 85 5
-0.33198571 0.065997928 -0.2902236 44 4
-0.25913417 0.013139121 -0.23834558 90 3
-0.2401284 0.047960751 -0.24805054 40 2
-0.30269262 0.013522375 -0.35199699 8 1
-0.25697049 0.052305289 -0.31993765 3 0
-1.7349441 0.099813201 0.45438549 55 31
-1.6772859 0.32344663 0.38722959 69 30
-1.7379718 0.10148025 0.32914886 64 29
-1.6690319 0.32125798 0.26039642 74 28
-1.7292607 0.10247383 0.20721161 66 27
-1.6838403 0.32414085 0.160567 76 26
-1.7376882 0.10356379 0.11868811 71 25
-1.6822026 0.32382956 0.078260154 75 24
-1.7338246 0.10394022 0.039516374 70 23
-1.6765738 0.32304204 0 76 22
-1.7337883 0.10454542 -0.039516374 70 21
-1.6722835 0.32251242 -0.077794321 78 20
-1.727698 0.1041929 -0.11740204 70 19
-1.6795491 0.32482964 -0.15044211 76 18
-1.7430546 0.10510328 -0.19588861 65 17
-1.6824908 0.32600582 -0.23326153 74 16
-1.7385253 0.10424587 -0.29756927 64 15
-1.6855599 0.32900423 -0.4814845 59 13
-1.7303226 0.10348096 -0.38901332 63 14
-1.6780214 0.32931647 -0.579409 58 12
-1.7377867 0.1000458 -0.68987161 59 11
-1.6798191 0.3353565 -0.89111745 78 9
-1.740525 0.098413616 -0.80246586 66 10
-1.6722934 0.33682418 -1.0099899 79 8
-0.78941047 0.042774394 -0.51145118 54 7
-0.70478636 0.14270961 -0.5210306 90 6
-0.62363452 0.032121941 -0.49913079 85 5
-0.33528987 0.067901641 -0.29367864 44 4
-0.25223467 0.013754006 -0.23106785 90 3
-0.23680139 0.048118155 -0.24423438 41 2
-0.3026436 0.014578886 -0.35199699 8 1
-0.25254226 0.052272722 -0.31382418 3 0
-1.7297627 0.10558133 0.45309645 56 31
-1.671368 0.32835418 0.38610229 66 30
-1.7351568 0.10739813 0.32867527 64 29
-1.6679002 0.32708201 0.26039642 71 28
-1.7264155 0.10835752 0.20690867 66 27
-1.6802572 0.32953441 0.16032912 79 26
-1.7398055 0.10978238 0.11886163 68 25
-1.681062 0.32969961 0.078260154 75 24
-1.7309375 0.1101391 0.039458349 69 23
-1.6754359 0.32889244 0 79 22
-1.7359072 0.11075246 -0.039574403 73 21
-1.6759897 0.32960963 -0.078027233 76 20
-1.7273238 0.11022305 -0.11740204 70 19
-1.6759624 0.33020586 -0.15021856 76 18
-1.7426575 0.11149119 -0.19588861 69 17
-1.6813427 0.33187681 -0.23326153 73 16
-1.7356733 0.11046425 -0.29713988 65 15
-1.6819859 0.33470768 -0.48079664 60 13
-1.7299507 0.10952029 -0.38901332 63 14
-1.6814355 0.33639771 -0.58104342 56 12
-1.7350949 0.10627618 -0.68893427 58 11
-1.6808014 0.34166098 -0.89228994 76 9
-1.7401527 0.10479229 -0.80246586 64 10
-1.6668571 0.34208488 -1.0074035 79 8
-0.79131567 0.045779765 -0.51285243 50 7
-0.70620507 0.14570059 -0.52254522 90 6
-0.6330409 0.034888476 -0.50720733 90 5
-0.33503875 0.069130093 -0.29367864 44 4
-0.25732076 0.014914421 -0.23652615 90 3
-0.23505412 0.048598692 -0.2423263 44 2
-0.30410179 0.015750153 -0.3539857 8 1
-0.25376251 0.053512912 -0.315862 3 0
-1.729364 0.11192052 0.45309645 56 31
-1.6677656 0.33399642 0.38553864 70 30
-1.7323016 0.11359995 0.32820165 64 29
-1.6666902 0.33319297 0.26039642 74 28
-1.7260067 0.11468442 0.20690867 66 27
-1.6814778 0.33618176 0.160567 76 26
-1.7369027 0.11599566 0.11868811 69 25
-1.6773942 0.33536604 0.078143694 73 24
-1.7355304 0.11650833 0.039574403 69 23
-1.6742194 0.335031 0 76 22
-1.7329957 0.11694937 -0.039516374 70 21
-1.6723809 0.33496431 -0.077910781 74 20
-1.7244196 0.11638885 -0.11722939 70 19
-1.6771817 0.33683982 -0.15044211 76 18
-1.7397794 0.11740977 -0.19560429 66 17
-1.680115 0.33803701 -0.23326153 74 16
-1.7377348 0.11668372 -0.29756927 65 15
-1.6831625 0.3410573 -0.4814845 58 13
-1.7295378 0.11586013 -0.38901332 63 14
-1.6779366 0.34179029 -0.58022624 56 12
-1.7347133 0.11233215 -0.68893427 58 11
-1.6730535 0.34646684 -0.88877243 79 9
-1.737518 0.11072543 -0.80140305 65 10
-1.665653 0.34790123 -1.0074035 83 8
-0.79321802 0.048661236 -0.51425368 51 7
-0.70180207 0.1473337 -0.51951599 90 6
-0.62529397 0.036686573 -0.50074607 89 5
-0.33656096 0.070684448 -0.29540616 43 4
-0.25555471 0.015727894 -0.23470671 90 3
-0.24275737 0.051217597 -0.2518667 45 2
-0.30555844 0.016878974 -0.35597438 8 1
-0.27052343 0.058236718 -0.34031585 3 0
-1.7241426 0.11763459 0.45180741 56 31
-1.6689756 0.34030575 0.38610229 68 30
-1.7367929 0.11997747 0.32914886 64 29
-1.6630973 0.33851299 0.26001009 74 28
-1.7305474 0.12104791 0.20751455 66 27
-1.6779156 0.34125674 0.16032912 76 26
-1.7389753 0.12222925 0.11886163 69 25
-1.6811061 0.34222177 0.078376614 74 24
-1.7276331 0.12204795 0.039400321 70 23
-1.6730396 0.34087303 0 80 22
-1.7325984 0.12269555 -0.039516374 73 21
-1.6712015 0.34079996 -0.077910781 78 20
-1.7240028 0.12240749 -0.11722939 70 19
-1.6760554 0.34239969 -0.15044211 76 18
-1.7368813 0.12330962 -0.19532 66 17
-1.6765596 0.34310701 -0.23291749 71 16
-1.737317 0.12274884 -0.29756927 64 15
-1.677255 0.34595332 -0.48010883 55 13
-1.7267128 0.12142741 -0.38845521 61 14
-1.6744204 0.34716254 -0.579409 58 12
-1.7320186 0.11793003 -0.68799692 58 11
-1.6762153 0.35292882 -0.89111745 78 9
-1.7371209 0.11678983 -0.80140305 68 10
-1.6519367 0.35073844 -0.99964428 88 8
-0.79510981 0.051556539 -0.51565492 50 7
-0.70519692 0.15050417 -0.52254522 85 6
-0.63088375 0.039087433 -0.50559199 90 5
-0.33456042 0.071409009 -0.29367864 43 4
-0.25036466 0.016304269 -0.22924842 90 3
-0.23943536 0.051308792 -0.24805054 45 2
-0.29793459 0.017530043 -0.34603095 8 1
-0.26891744 0.058808941 -0.33827803 4 0
-1.7333814 0.12402707 0.45438549 58 31
-1.6678379 0.34583837 0.38610229 66 30
-1.7290398 0.12521483 0.32772809 65 29
-1.6668017 0.34503379 0.26078278 74 28
-1.7251862 0.12643023 0.20690867 66 27
-1.6767142 0.34711167 0.16032912 78 26
-1.7360729 0.12781562 0.11868811 71 25
-1.6775173 0.34728521 0.078260154 75 24
-1.7297117 0.12795718 0.039458349 70 23
-1.6718999 0.34641919 0 80 22
-1.7271742 0.12837923 -0.039400321 73 21
-1.6700621 0.34634 -0.077910781 78 20
-1.7210999 0.12794246 -0.11705674 70 19
-1.6724126 0.34773806 -0.15021856 76 18
-1.7315083 0.12870744 -0.19475138 66 17
-1.6826222 0.35048139 -0.23394962 71 16
-1.7344438 0.12833107 -0.29713988 65 15
-1.6760986 0.35151339 -0.48010883 59 13
-1.7287091 0.12762995 -0.38901332 61 14
-1.67326 0.35271323 -0.579409 58 12
-1.7315964 0.12397519 -0.68799692 59 11
-1.6771314 0.35924321 -0.89228994 79 9
-1.7322091 0.12223792 -0.79927731 68 10
-1.640249 0.35422918 -0.99317825 81 8
-0.79286849 0.054059327 -0.51425368 50 7
-0.70078295 0.15210727 -0.51951599 81 6
-0.62693441 0.041057754 -0.50236142 88 5
-0.35017529 0.076151989 -0.30922633 41 4
-0.25544173 0.017467022 -0.23470671 90 3
-0.23610647 0.051419728 -0.24423438 48 2
-0.29484564 0.018414514 -0.34205356 8 1
-0.28281283 0.063041963 -0.35865623 4 0
-1.725711 0.12954497 0.45245194 56 31
-1.6594729 0.35014015 0.38441133 69 30
-1.7285923 0.13124955 0.32772809 65 29
-1.6583384 0.34931311 0.25962374 74 28
-1.7197852 0.13207848 0.20630279 70 27
-1.6779269 0.35347852 0.160567 76 26
-1.7331293 0.13368656 0.11851459 71 25
-1.6762948 0.35313872 0.078260154 75 24
-1.726739 0.13410604 0.039400321 70 23
-1.6706805 0.35225311 0 76 22
-1.7242234 0.13421695 -0.039342295 73 21
-1.6687815 0.35245875 -0.077910781 75 20
-1.7181561 0.13375941 -0.1168841 70 19
-1.6687534 0.35305524 -0.14999503 76 18
-1.7384545 0.13562192 -0.19560429 70 17
-1.676545 0.35531965 -0.23326153 73 16
-1.7339619 0.13468727 -0.29713988 65 15
-1.6771487 0.35815927 -0.48079664 60 13
-1.725823 0.13347909 -0.38845521 63 14
-1.6719559 0.35884365 -0.579409 58 12
-1.7288191 0.13015044 -0.68705964 59 11
-1.6780239 0.36556831 -0.89346248 76 9
-1.7317494 0.12858596 -0.79927731 69 10
-1.6201388 0.35607746 -0.98153943 45 8
-0.79886168 0.057388511 -0.51845735 50 7
-0.70022076 0.15467474 -0.51951599 75 6
-0.63058794 0.043600902 -0.50559199 90 5
-0.34637094 0.076627441 -0.30577129 43 4
-0.25195304 0.018197987 -0.23106785 90 3
-0.23749843 0.052611344 -0.24614246 46 2
-0.30082688 0.019828046 -0.35000831 6 1
-0.28257987 0.0640781 -0.35865623 4 0
-1.7228162 0.13568297 0.45180741 56 31
-1.6677011 0.35827893 0.38666594 66 30
-1.7305467 0.1377756 0.32820165 64 29
-1.6594614 0.35591 0.26001009 71 28
-1.7192895 0.13838093 0.20630279 68 27
-1.6717547 0.35857591 0.16009125 78 26
-1.7351139 0.14023532 0.11868811 69 25
-1.6749891 0.35928029 0.078260154 75 24
-1.7212775 0.13973525 0.039284267 71 23
-1.6693783 0.35837409 0 80 22
-1.7262113 0.14073522 -0.039400321 73 21
-1.6651002 0.35775399 -0.077794321 75 20
-1.7176542 0.14005585 -0.1168841 70 19
-1.6698816 0.3596966 -0.15021856 76 18
-1.7330188 0.14129278 -0.19503568 68 17
-1.6752315 0.36146215 -0.23326153 71 16
-1.7310261 0.1405433 -0.29671049 65 15
-1.6735404 0.36349818 -0.48010883 59 13
-1.722893 0.13961034 -0.38789707 61 14
-1.6730008 0.36518463 -0.58022624 58 12
-1.7283543 0.13618435 -0.68705964 59 11
-1.6766728 0.37171614 -0.89346248 76 9
-1.73129 0.13463011 -0.79927731 66 10
-1.6084491 0.35938242 -0.97507346 39 8
-0.79865652 0.060176708 -0.51845735 53 7
-0.70743281 0.15888874 -0.52557451 71 6
-0.63614297 0.046190139 -0.51043797 90 5
-0.34786135 0.07824593 -0.30749881 41 4
-0.25702128 0.019403014 -0.23652615 90 3
-0.23258942 0.0523609 -0.24041823 46 2
-0.29319394 0.020435369 -0.34006488 8 1
-0.28376231 0.065403648 -0.36069405 6 0
-1.7223321 0.14169592 0.45180741 56 31
-1.6640614 0.3635751 0.38610229 70 30
-1.7227154 0.14321591 0.32678086 66 29
-1.6582088 0.36170045 0.26001009 74 28
-1.7212692 0.14458573 0.20660573 66 27
-1.6705564 0.36411768 0.16009125 78 26
-1.7296429 0.14587896 0.11834107 69 25
-1.6712857 0.36458951 0.078143694 75 24
-1.7282513 0.14636497 0.039458349 70 23
-1.6681172 0.3641991 0 76 22
-1.7232444 0.14625095 -0.039342295 74 21
-1.6662803 0.36410037 -0.077910781 78 20
-1.7221256 0.14646639 -0.11722939 70 19
-1.6662478 0.36469665 -0.14999503 79 18
-1.7300398 0.1471343 -0.19475138 66 17
-1.6740236 0.36701539 -0.23326153 74 16
-1.7280706 0.14638047 -0.2962811 65 15
-1.6746074 0.36985913 -0.48079664 58 13
-1.7248492 0.14552425 -0.38845521 63 14
-1.66941 0.37050724 -0.579409 56 12
-1.725583 0.14172876 -0.6861223 60 11
-1.6711242 0.37629807 -0.89111745 73 9
-1.7262983 0.14031282 -0.79715157 61 10
-1.6093342 0.36519077 -0.97636658 35 8
