# .PCD v0.7 - Point Cloud Data file format
VERSION 0.7
FIELDS x y z intensity ring
SIZE 4 4 4 4 2
TYPE F F F F U
COUNT 1 1 1 1 1
WIDTH 1185
HEIGHT 1
VIEWPOINT 0 0 0 1 0 0 0
POINTS 1185
DATA ascii
0.68851238 -0.094503045 0.15274997 97 30
0.71728748 -0.0058629019 0.13165954 74 29
0.68308276 -0.093515389 0.10238139 37 28
0.71978396 -0.0064784642 0.083611704 43 27
0.71016783 -0.09732461 0.065178305 47 26
0.74564797 -0.006877121 0.049453378 37 25
0.70756251 -0.096965536 0.031676728 24 24
0.70827663 -0.097191639 0 89 22
0.72236651 -0.099297851 -0.032375481 11 20
0.72523654 -0.10008214 -0.062591068 79 18
0.73609465 -0.10186975 -0.098396458 42 16
0.68576765 -0.096558437 0.15218632 97 30
0.71480811 -0.0083465306 0.13118595 75 29
0.69497645 -0.097656399 0.10431311 22 28
0.72471982 -0.0090359831 0.084217586 43 27
0.69998753 -0.098264419 0.064226799 49 26
0.73564392 -0.0093858568 0.048759297 42 25
0.70969164 -0.099790119 0.031793188 24 24
0.73464674 -0.0096268402 0.016247556 12 23
0.70793307 -0.099663392 0 89 22
0.72201556 -0.10181877 -0.032375481 12 20
0.71750748 -0.10141855 -0.061920449 85 18
0.73575276 -0.10431017 -0.098396458 51 16
0.68544364 -0.098831989 0.15218632 96 30
0.7098673 -0.010660322 0.13023876 76 29
0.69220513 -0.099600956 0.10392677 17 28
0.71227902 -0.011285439 0.082702883 39 27
0.70702672 -0.10179401 0.06494043 54 26
0.73311496 -0.011793514 0.048585776 46 25
0.70688617 -0.10177948 0.031676728 22 24
0.73211169 -0.012030248 0.016189529 14 23
0.70512533 -0.10164608 0 87 22
0.71920335 -0.10384811 -0.032259021 13 20
0.71961224 -0.10428711 -0.062143989 87 18
0.74028295 -0.10760468 -0.099084541 64 16
0.68268615 -0.10086023 0.15162265 95 30
0.71228021 -0.013175 0.13071236 75 29
0.68696839 -0.10128044 0.10315407 13 28
0.71471655 -0.0138111 0.083005823 34 27
0.70174539 -0.10351967 0.064464673 80 26
0.73556298 -0.01439297 0.048759297 50 25
0.70899594 -0.1046185 0.031793188 20 24
0.73456168 -0.014755365 0.016247556 37 23
0.70723832 -0.10447979 0 84 22
0.71634871 -0.10611 -0.032142565 16 20
0.71924382 -0.10679838 -0.062143989 88 18
0.73011041 -0.10870013 -0.097708367 75 16
0.68471885 -0.10373436 0.15218632 95 30
0.71222711 -0.015785549 0.13071236 73 29
0.67926949 -0.10266657 0.10199504 18 28
0.71962339 -0.016527586 0.083611704 21 27
0.69644225 -0.10533125 0.063988924 90 26
0.73799878 -0.017138466 0.048932817 54 25
0.71354377 -0.10797876 0.032026105 19 24
0.73450565 -0.017319374 0.016247556 41 23
0.70685059 -0.10707125 0 74 22
0.7444948 -0.017781643 -0.016479664 10 21
0.71597391 -0.10860988 -0.032142565 21 20
0.71884751 -0.10943383 -0.062143989 85 18
0.73704726 -0.11251827 -0.098740496 78 16
0.68916392 -0.10688587 0.15331362 92 30
0.71216768 -0.01827159 0.13071236 72 29
0.68378633 -0.10580812 0.10276773 21 28
0.71956128 -0.019039441 0.083611704 10 27
0.69852853 -0.10815011 0.064226799 90 26
0.73544121 -0.019656135 0.048759297 60 25
0.69836247 -0.10813005 0.031327356 22 24
0.72444624 -0.019645892 0.016015448 45 23
0.70400327 -0.10914732 0 72 22
0.74192953 -0.020320116 -0.016421637 10 21
0.70819086 -0.10993645 -0.031793188 27 20
0.71846116 -0.1119424 -0.062143989 83 18
0.73175925 -0.11431136 -0.098052412 88 16
0.68878657 -0.10929085 0.15331362 90 30
0.71209955 -0.020757409 0.13071236 70 29
0.68585116 -0.10858838 0.10315407 24 28
0.71452904 -0.02141941 0.083005823 8 27
0.70062292 -0.11086252 0.064464673 90 26
0.73038191 -0.022089133 0.048412256 63 25
0.70044607 -0.11096553 0.031443812 41 24
0.72187483 -0.022106521 0.015957421 47 23
0.70608586 -0.11200335 0 69 22
0.74185807 -0.022780329 -0.016421637 32 21
0.71273309 -0.11320637 -0.032026105 22 20
0.7205438 -0.11472325 -0.062367529 79 18
0.72648799 -0.11594211 -0.097364321 90 16
0.68361437 -0.11077958 0.15218632 90 30
0.71202683 -0.023118701 0.13071236 67 29
0.67817628 -0.10965575 0.10199504 32 28
0.71941501 -0.02393686 0.083611704 8 27
0.70268703 -0.11371265 0.064702556 90 26
0.7327975 -0.024586339 0.048585776 67 25
0.69514626 -0.11247451 0.031210894 47 24
0.72929209 -0.024729202 0.016131502 50 23
0.70077747 -0.11352929 0 68 22
0.73927587 -0.02529256 -0.01636361 37 21
0.7024985 -0.11393949 -0.031560272 32 20
0.71522617 -0.11642265 -0.061920449 78 18
0.72119343 -0.11766506 -0.096676238 85 16
0.68562514 -0.11357093 0.15274997 90 30
0.71930212 -0.025843019 0.13213314 64 29
0.67778939 -0.11202236 0.10199504 26 28
0.71188647 -0.026199808 0.082702883 8 27
0.70228583 -0.1161648 0.064702556 90 26
0.74267745 -0.027480101 0.049279857 68 25
0.70213711 -0.11614589 0.031560272 49 24
0.72669864 -0.027316542 0.016073475 54 23
0.70777225 -0.11722296 0 60 22
0.75417018 -0.028388465 -0.016711771 38 21
0.70946306 -0.11776292 -0.031909645 39 20
0.75513804 -0.028427849 -0.049895868 20 19
0.71972531 -0.11975076 -0.062367529 77 18
0.72810209 -0.12142575 -0.097708367 90 16
0.68040401 -0.11525396 0.15162265 90 30
0.72165561 -0.028567884 0.13260673 62 29
0.67980826 -0.11492538 0.10238139 30 28
0.71178567 -0.028808828 0.082702883 11 27
0.69940293 -0.11831528 0.064464673 90 26
0.74007952 -0.030108839 0.049106337 67 25
0.69432366 -0.11744595 0.031210894 45 24
0.72659886 -0.029853027 0.016073475 54 23
0.69994712 -0.118541 0 47 22
0.74157351 -0.030677088 -0.016421637 41 21
0.70904768 -0.12023868 -0.031909645 42 20
0.74007541 -0.030626155 -0.048859969 38 19
0.71682817 -0.12196279 -0.062143989 71 18
0.72765213 -0.12409357 -0.097708367 90 16
0.68239623 -0.11805127 0.15218632 90 30
0.71909875 -0.030989531 0.13213314 55 29
0.67453784 -0.11644156 0.10160869 38 28
0.70672166 -0.031092338 0.082097001 10 27
0.69898564 -0.12075593 0.064464673 90 26
0.73498613 -0.032488361 0.048759297 68 25
0.70866644 -0.12246563 0.031909645 37 24
0.73148465 -0.032594986 0.016189529 53 23
0.69952905 -0.12098355 0 40 22
0.7339704 -0.032954108 -0.016247556 42 21
0.71108299 -0.12314665 -0.032026105 42 20
0.73498029 -0.033002175 -0.048514668 44 19
0.72375387 -0.12576523 -0.062814608 64 18
0.72477639 -0.12620068 -0.097364321 83 16
0.68198001 -0.12043256 0.15218632 90 30
0.71162885 -0.033182096 0.13071236 53 29
0.67655832 -0.11923196 0.10199504 45 28
0.71404636 -0.033886399 0.083005823 13 27
0.68878305 -0.12131549 0.063513167 90 26
0.73237675 -0.034943216 0.048585776 74 25
0.70086074 -0.12361448 0.031560272 26 24
0.72387594 -0.034813244 0.016015448 54 23
0.70894474 -0.12519374 0 30 22
0.74134749 -0.03572407 -0.016421637 37 21
0.70081753 -0.12385911 -0.031560272 46 20
0.73236912 -0.035455268 -0.048342019 47 19
0.71843189 -0.12728101 -0.062367529 60 18
0.74438882 -0.036002968 -0.081312254 11 17
0.71460676 -0.12684262 -0.095988154 84 16
0.67678541 -0.12181488 0.151059 83 30
0.70661068 -0.035313915 0.12976517 53 29
0.67372966 -0.12103025 0.10160869 53 28
0.71393007 -0.036254074 0.083005823 18 27
0.69080347 -0.12416703 0.063751042 90 26
0.73474795 -0.037490457 0.048759297 70 25
0.70781648 -0.12728649 0.031909645 22 24
0.72375649 -0.037213512 0.016015448 54 23
0.7036075 -0.12664312 0 25 22
0.7312327 -0.037828498 -0.016189529 33 21
0.70531565 -0.12708318 -0.031793188 53 20
0.72726524 -0.037642639 -0.047996718 51 19
0.72288108 -0.13068873 -0.062814608 56 18
0.75170797 -0.038831353 -0.082165174 12 17
0.72390056 -0.1311311 -0.097364321 87 16
0.68112266 -0.12519071 0.15218632 51 30
0.71628314 -0.03839517 0.13165954 49 29
0.68056542 -0.1248593 0.10276773 58 28
0.71874911 -0.039123349 0.083611704 17 27
0.68789732 -0.12624118 0.063513167 90 26
0.73709631 -0.040311113 0.048932817 69 25
0.70734519 -0.12987991 0.031909645 21 24
0.72361523 -0.039865956 0.016015448 50 23
0.70805347 -0.13014002 0 19 22
0.73358506 -0.040638279 -0.016247556 27 21
0.6974811 -0.1282893 -0.031443812 70 20
0.74206638 -0.041085891 -0.049032617 59 19
0.71260816 -0.13150007 -0.061920449 53 18
0.74163884 -0.041069739 -0.081027947 35 17
0.71854794 -0.13286822 -0.096676238 85 16
0.67350394 -0.12619831 0.15049534 38 30
0.71124232 -0.0406323 0.13071236 46 29
0.67041993 -0.12538624 0.10122235 66 28
0.70621866 -0.04095668 0.082097001 24 27
0.69723153 -0.13050354 0.064464673 90 26
0.73695111 -0.04288381 0.048932817 71 25
0.70688748 -0.13234821 0.031909645 21 24
0.71598512 -0.041978285 0.015841367 50 23
0.71005064 -0.13307883 0 18 22
0.74092513 -0.043614659 -0.016421637 16 21
0.69948208 -0.13119112 -0.031560272 85 20
0.74191839 -0.04367594 -0.049032617 66 19
0.71703613 -0.13492243 -0.062367529 49 18
0.75637078 -0.044484992 -0.082733795 38 17
0.72294372 -0.13630784 -0.097364321 88 16
0.67545015 -0.12901324 0.151059 29 30
0.70864546 -0.042974729 0.13023876 42 29
0.67482769 -0.12866656 0.10199504 68 28
0.71598107 -0.043996453 0.083308764 29 27
0.69190848 -0.13186775 0.063988924 89 26
0.72932774 -0.045020085 0.048412256 64 25
0.70396972 -0.13433927 0.031793188 24 24
0.7258144 -0.04506322 0.016073475 47 23
0.70467347 -0.13460337 0 22 22
0.73329145 -0.045630656 -0.016247556 11 21
0.69901991 -0.13363197 -0.031560272 89 20
0.74176145 -0.046265453 -0.049032617 67 19
0.71658474 -0.13729948 -0.062367529 38 18
0.75373143 -0.046978507 -0.082449488 39 17
0.71519649 -0.13728191 -0.096332192 88 16
0.68218672 -0.13267042 0.15274997 22 30
0.71339953 -0.045620747 0.13118595 36 29
0.68166679 -0.13233912 0.10315407 87 28
0.71087742 -0.046066631 0.082702883 33 27
0.69388551 -0.13476427 0.064226799 82 26
0.73166364 -0.047591932 0.048585776 62 25
0.70597029 -0.13715674 0.031909645 26 24
0.72316641 -0.047315098 0.016015448 42 23
0.70912838 -0.13790888 0 21 22
0.73562223 -0.048345674 -0.016305583 8 21
0.69857293 -0.13594927 -0.031560272 90 20
0.74658227 -0.049035564 -0.049377918 69 19
0.71365869 -0.1393155 -0.062143989 23 18
0.74365562 -0.048859067 -0.081312254 41 17
0.71714169 -0.14026023 -0.096676238 90 16
0.67455637 -0.13360786 0.151059 19 30
0.71568567 -0.048267391 0.13165954 23 29
0.67393619 -0.13325696 0.10199504 90 28
0.71566498 -0.048868924 0.083308764 38 27
0.68853116 -0.1362043 0.063751042 78 26
0.72900438 -0.049983378 0.048412256 60 25
0.69814241 -0.13814323 0.031560272 33 24
0.72797602 -0.050293125 0.016131502 37 23
0.70619184 -0.13989006 0 24 22
0.73046112 -0.050584503 -0.016189529 8 21
0.70296597 -0.13949598 -0.031793188 90 20
0.73645204 -0.050985374 -0.048687316 73 19
0.71316803 -0.14180578 -0.062143989 13 18
0.74099314 -0.051420629 -0.081027947 40 17
0.72635573 -0.14472722 -0.098052412 82 16
0.68121994 -0.13754861 0.15274997 19 30
0.72040224 -0.051221542 0.13260673 12 29
0.67102361 -0.13523036 0.10160869 91 28
0.70310223 -0.050643396 0.081794061 38 27
0.6929034 -0.1397261 0.064226799 73 26
0.72384012 -0.052312251 0.048065215 55 25
0.70007777 -0.14120241 0.031676728 38 24
0.71782261 -0.052143514 0.015899394 33 23
0.70322531 -0.14197518 0 24 22
0.7302708 -0.05326144 -0.016189529 8 21
0.69758224 -0.14094464 -0.031560272 90 20
0.74123627 -0.054030482 -0.049032617 73 19
0.7126435 -0.14441872 -0.062143989 9 18
0.73833132 -0.053834468 -0.080743633 32 17
0.71854484 -0.14588839 -0.097020283 88 16
0.67358303 -0.13843143 0.151059 22 30
0.7128734 -0.053213228 0.13118595 11 29
0.67538333 -0.13858035 0.10238139 97 28
0.71282184 -0.053810529 0.083005823 49 27
0.68999994 -0.14151543 0.063988924 71 26
0.72365314 -0.054838605 0.048065215 54 25
0.69224662 -0.1421158 0.031327356 46 24
0.72012889 -0.054830164 0.015957421 30 23
0.71006721 -0.14596146 0 22 22
0.72510475 -0.055319335 -0.016073475 9 21
0.69708604 -0.14337879 -0.031560272 90 20
0.73855573 -0.056435756 -0.048859969 74 19
0.70972347 -0.14627109 -0.061920449 8 18
0.74557042 -0.056954533 -0.081596561 26 17
0.71805704 -0.14827035 -0.097020283 85 16
0.68026781 -0.14218231 0.15274997 24 30
0.71024513 -0.055394564 0.13071236 9 29
0.67008764 -0.13979471 0.10160869 99 28
0.70521581 -0.05561455 0.082097001 53 27
0.69193631 -0.14443928 0.064226799 51 26
0.72346729 -0.057238024 0.048065215 51 25
0.68444252 -0.14285676 0.030977976 50 24
0.72243524 -0.057407469 0.016015448 26 23
0.70468819 -0.14727747 0 24 22
0.7348755 -0.058611847 -0.016305583 9 21
0.69416386 -0.14517084 -0.031443812 90 20
0.74085128 -0.059074625 -0.049032617 74 19
0.70433778 -0.1477105 -0.06147337 9 18
0.73547131 -0.058669597 -0.080459327 16 17
0.71026993 -0.14922638 -0.095988154 81 16
0.67500591 -0.14352742 0.15162265 30 30
0.71494198 -0.058255218 0.13165954 12 29
0.67200994 -0.14265358 0.10199504 100 28
0.70996511 -0.058466136 0.082702883 60 27
0.68899512 -0.14632908 0.063988924 45 26
0.71580458 -0.05917212 0.047544654 49 25
0.68882203 -0.14629796 0.031210894 51 24
0.72471142 -0.060253646 0.016073475 26 23
0.69928235 -0.14868149 0 24 22
0.72719228 -0.06057927 -0.016131502 11 21
0.69362712 -0.14771409 -0.031443812 90 20
0.74312675 -0.061859034 -0.04920527 71 19
0.7062515 -0.15069525 -0.061696909 9 18
0.74267882 -0.061959833 -0.081312254 11 17
0.71458453 -0.15275472 -0.096676238 83 16
0.67685425 -0.14652351 0.15218632 34 30
0.70983046 -0.06047551 0.13071236 13 29
0.67389512 -0.14564522 0.10238139 100 28
0.70479977 -0.060659494 0.082097001 74 27
0.69088495 -0.14938694 0.064226799 34 26
0.72303921 -0.062413536 0.048065215 38 25
0.69072044 -0.14935707 0.031327356 53 24
0.71204317 -0.061745994 0.01578334 26 23
0.69873273 -0.15124349 0 26 22
0.72945595 -0.063452423 -0.016189529 11 21
0.69798535 -0.15120691 -0.031676728 85 20
0.73543894 -0.063958831 -0.048687316 70 19
0.70812601 -0.15381873 -0.061920449 12 18
0.74245805 -0.06455189 -0.081312254 7 17
0.71401989 -0.15537277 -0.096676238 81 16
0.67396158 -0.14835395 0.15162265 39 30
0.70716918 -0.062744513 0.13023876 15 29
0.67579329 -0.14853463 0.10276773 99 28
0.70705616 -0.06333217 0.082399942 82 27
0.68793041 -0.15125562 0.063988924 27 26
0.71536285 -0.064292751 0.047544654 33 25
0.6853202 -0.15067938 0.031094434 67 24
0.71431327 -0.064447209 0.015841367 29 23
0.69820058 -0.15368161 0 23 22
0.73918962 -0.066866159 -0.016421637 10 21
0.69257897 -0.15255289 -0.031443812 85 20
0.73272657 -0.066309102 -0.048514668 70 19
0.71001452 -0.15683407 -0.062143989 13 18
0.73480505 -0.066496328 -0.080459327 6 17
0.70864099 -0.15677966 -0.095988154 81 16
0.67818987 -0.15178485 0.15274997 45 30
0.70939106 -0.065429546 0.13071236 21 29
0.67527074 -0.15089267 0.10276773 99 28
0.70683074 -0.06579987 0.082399942 87 27
0.68497121 -0.15310551 0.063751042 21 26
0.72258586 -0.06745974 0.048065215 28 25
0.68722546 -0.15362309 0.031210894 90 24
0.70910561 -0.066490673 0.015725313 35 23
0.69765979 -0.15611783 0 17 22
0.73397344 -0.068994701 -0.016305583 12 21
0.68960702 -0.15441625 -0.031327356 84 20
0.73000681 -0.068641223 -0.048342019 68 19
0.70460707 -0.15820567 -0.061696909 20 18
0.74198925 -0.069733605 -0.081312254 7 17
0.7129178 -0.16035375 -0.096676238 80 16
0.66581625 -0.15129553 0.14993168 51 30
0.7091701 -0.067781612 0.13071236 26 29
0.66995269 -0.15202241 0.10199504 97 28
0.69919592 -0.067454472 0.08149112 89 27
0.68203455 -0.15481755 0.063513167 20 26
0.72980773 -0.070550561 0.048585776 20 25
0.6915794 -0.15702216 0.031443812 90 24
0.71384591 -0.069432445 0.015841367 46 23
0.69713831 -0.1584305 0 16 22
0.736229 -0.071662165 -0.01636361 12 21
0.69879693 -0.15906955 -0.031793188 71 20
0.7372244 -0.071761861 -0.048859969 63 19
0.70893055 -0.16166331 -0.062143989 26 18
0.73432285 -0.071624562 -0.080459327 8 17
0.71238214 -0.16271698 -0.096676238 83 16
0.66051471 -0.15262249 0.14880438 68 30
0.71624768 -0.071082383 0.13213314 34 29
0.66458124 -0.15335053 0.10122235 96 28
0.7063542 -0.070732839 0.082399942 87 27
0.68388563 -0.15788373 0.063751042 20 26
0.72706193 -0.072984196 0.048412256 11 25
0.68613619 -0.15841703 0.031210894 90 24
0.70613652 -0.071197346 0.015667286 50 23
0.68925083 -0.15927322 0 34 22
0.73098648 -0.073874064 -0.016247556 14 21
0.69823748 -0.16150783 -0.031793188 66 20
0.73695648 -0.074463442 -0.048859969 60 19
0.70833319 -0.16426058 -0.062143989 22 18
0.74148434 -0.07491193 -0.081312254 9 17
0.70696032 -0.1641918 -0.095988154 81 16
0.66471654 -0.15605611 0.14993168 79 30
0.71599513 -0.073582128 0.13213314 37 29
0.66404188 -0.15566942 0.10122235 93 28
0.70363373 -0.072950713 0.082097001 87 27
0.69301474 -0.16257356 0.064702556 22 26
0.72928417 -0.075771101 0.048585776 8 25
0.68557906 -0.16081113 0.031210894 90 24
0.71583056 -0.074665129 0.015899394 56 23
0.69112265 -0.16225712 0 46 22
0.73818398 -0.077180341 -0.016421637 17 21
0.69524014 -0.16336542 -0.031676728 63 20
0.73172927 -0.076533101 -0.048514668 58 19
0.71502125 -0.16846707 -0.062814608 30 18
0.73627603 -0.076999456 -0.080743633 11 17
0.70638287 -0.16665857 -0.095988154 81 16
0.66416776 -0.15837544 0.14993168 81 30
0.70108283 -0.074574672 0.12929156 40 29
0.66109359 -0.15740645 0.10083601 91 28
0.71077985 -0.076174259 0.083005823 78 27
0.68037593 -0.16195118 0.063513167 28 26
0.71661234 -0.077025853 0.047718175 8 25
0.68015856 -0.16203053 0.030977976 90 24
0.7155655 -0.077163391 0.015899394 67 23
0.6954121 -0.16584349 0 46 22
0.73543823 -0.079367869 -0.01636361 38 21
0.70194745 -0.16755292 -0.032026105 63 20
0.72649682 -0.078567185 -0.048169367 53 19
0.7071988 -0.16907822 -0.062143989 35 18
0.74588382 -0.080604129 -0.081880867 12 17
0.70823276 -0.16958404 -0.096332192 85 16
0.6660043 -0.16115759 0.15049534 81 30
0.70327258 -0.07715828 0.12976517 43 29
0.660568 -0.15959786 0.10083601 90 28
0.70558834 -0.078002594 0.082399942 80 27
0.68464071 -0.16550988 0.063988924 33 26
0.72627181 -0.080467075 0.048412256 9 25
0.68446851 -0.16547395 0.031210894 90 24
0.71033579 -0.079000354 0.01578334 84 23
0.68514609 -0.16576667 0 45 22
0.73267186 -0.081665926 -0.016305583 41 21
0.694112 -0.16809393 -0.031676728 50 20
0.7311914 -0.081512012 -0.048514668 51 19
0.7066043 -0.17154577 -0.062143989 39 18
0.73573488 -0.082009308 -0.080743633 13 17
0.70763648 -0.1720552 -0.096332192 83 16
0.66307437 -0.16289259 0.14993168 90 30
0.70055896 -0.079345033 0.12929156 42 29
0.66719753 -0.16369155 0.10199504 90 28
0.70531178 -0.080465093 0.082399942 77 27
0.68647391 -0.16849953 0.064226799 36 26
0.72846526 -0.083276719 0.048585776 9 25
0.6790399 -0.16665643 0.030977976 91 24
0.71252543 -0.081880197 0.015841367 87 23
0.68698931 -0.16876124 0 38 22
0.72244674 -0.083113745 -0.016073475 45 21
0.68864506 -0.16942857 -0.031443812 41 20
0.72594517 -0.083510436 -0.048169367 49 19
0.69875371 -0.17220156 -0.06147337 41 18
0.74283457 -0.085533366 -0.081596561 21 17
0.71423829 -0.17632644 -0.097364321 83 16
0.67427903 -0.1683092 0.15274997 90 30
0.70270246 -0.082188778 0.12976517 49 29
0.66898781 -0.16674089 0.10238139 90 28
0.69761556 -0.08220429 0.08149112 71 27
0.67378759 -0.16796622 0.06303741 42 26
0.72567743 -0.085662059 0.048412256 11 25
0.68326694 -0.17036763 0.031210894 90 24
0.71720123 -0.084937938 0.015957421 87 23
0.69363725 -0.17311658 0 30 22
0.71717149 -0.085188277 -0.015957421 50 21
0.70257533 -0.17550696 -0.032142565 35 20
0.73554462 -0.087313764 -0.048859969 39 19
0.70535862 -0.17659768 -0.062143989 46 18
0.73759663 -0.087556586 -0.081027947 14 17
0.70638716 -0.17711449 -0.096332192 83 16
0.66661 -0.16884466 0.151059 96 30
0.6975351 -0.084070921 0.12881798 53 29
0.66840166 -0.1690751 0.10238139 90 28
0.7022534 -0.085219696 0.082097001 63 27
0.6804592 -0.17205258 0.063751042 44 26
0.71794385 -0.087316513 0.047891695 12 25
0.67782992 -0.17151123 0.030977976 90 24
0.71193641 -0.086852521 0.015841367 86 23
0.68576407 -0.17367287 0 23 22
0.72184885 -0.088155307 -0.016073475 50 21
0.69712073 -0.17671624 -0.031909645 26 20
0.72532904 -0.088702999 -0.048169367 33 19
0.70476913 -0.17893577 -0.062143989 60 18
0.73482007 -0.089837514 -0.080743633 22 17
0.71059191 -0.18069094 -0.097020283 83 16
0.66604638 -0.17105429 0.151059 98 30
0.69968963 -0.086676776 0.12929156 64 29
0.66783732 -0.17129065 0.10238139 90 28
0.69703984 -0.086950868 0.08149112 62 27
0.67262864 -0.17254862 0.06303741 49 26
0.71269882 -0.089094996 0.047544654 17 25
0.68209147 -0.1750145 0.031210894 90 24
0.71164453 -0.089212917 0.015841367 85 23
0.69728184 -0.17909262 0 17 22
0.71905589 -0.090371199 -0.016015448 53 21
0.69169742 -0.17776889 -0.031676728 25 20
0.72255528 -0.090805151 -0.047996718 30 19
0.69932157 -0.1801378 -0.061696909 75 18
0.73205274 -0.091972373 -0.080459327 29 17
0.70516521 -0.18191856 -0.096332192 83 16
0.66073543 -0.17213465 0.14993168 100 30
0.69451058 -0.0885152 0.12834437 74 29
0.66245866 -0.17236142 0.10160869 76 28
0.69919455 -0.089690626 0.081794061 54 27
0.67683506 -0.17616439 0.063513167 50 26
0.72228217 -0.092820451 0.048238736 22 25
0.67906165 -0.17675772 0.031094434 90 24
0.71131277 -0.09182062 0.015841367 85 23
0.68940061 -0.1796122 0 19 22
0.72121584 -0.09319257 -0.016073475 50 21
0.69345564 -0.18094079 -0.031793188 22 20
0.72223389 -0.093326777 -0.047996718 24 19
0.69628131 -0.1819409 -0.06147337 86 18
0.73417497 -0.094965301 -0.080743633 41 17
0.70931315 -0.18564737 -0.097020283 76 16
0.66245264 -0.17518562 0.15049534 101 30
0.68687642 -0.090128213 0.12692358 84 29
0.65705043 -0.17351142 0.10083601 54 28
0.69886118 -0.092252702 0.081794061 53 27
0.68339711 -0.18057376 0.064226799 53 26
0.71699011 -0.094829887 0.047891695 26 25
0.67840922 -0.17924543 0.031094434 90 24
0.71098787 -0.094303004 0.015841367 84 23
0.68632269 -0.18149114 0 17 22
0.71839082 -0.09551429 -0.016015448 46 21
0.69040757 -0.18271397 -0.031676728 22 20
0.72436041 -0.096293628 -0.048169367 14 19
0.69801462 -0.18513739 -0.061696909 90 18
0.73137593 -0.097208433 -0.080459327 45 17
0.71101922 -0.18888888 -0.097364321 75 16
0.65948671 -0.17685834 0.14993168 101 30
0.69872725 -0.094120972 0.12929156 90 29
0.66597587 -0.17839095 0.10238139 45 28
0.70591557 -0.095665924 0.082702883 47 27
0.68036085 -0.1823065 0.063988924 54 26
0.70923752 -0.096350297 0.047371134 30 25
0.68259978 -0.18292028 0.031327356 90 24
0.70569921 -0.096126609 0.015725313 75 23
0.68568504 -0.18388574 0 21 22
0.7254855 -0.099010423 -0.016189529 39 21
0.68976563 -0.18512283 -0.031676728 24 20
0.7166031 -0.097834565 -0.047651418 11 19
0.70457172 -0.1895351 -0.062367529 90 18
0.73349416 -0.10008845 -0.080743633 50 17
0.70318848 -0.18941568 -0.096332192 76 16
0.6635617 -0.1804529 0.151059 100 30
0.69596159 -0.096231788 0.12881798 90 29
0.65820456 -0.17874931 0.10122235 38 28
0.70065916 -0.097462729 0.082097001 44 27
0.68451941 -0.18600038 0.064464673 56 26
0.70642567 -0.098489538 0.047197614 33 25
0.68436491 -0.18596421 0.031443812 79 24
0.7152651 -0.099939235 0.015957421 65 23
0.68985969 -0.18760505 0 24 22
0.72265917 -0.10120392 -0.016131502 35 21
0.69633812 -0.18951894 -0.032026105 23 20
0.72367048 -0.10134824 -0.048169367 9 19
0.70150554 -0.19133088 -0.062143989 90 18
0.73067939 -0.102312 -0.080459327 53 17
0.70968324 -0.19384807 -0.097364321 72 16
0.66527367 -0.18342306 0.15162265 99 30
0.69318986 -0.09832444 0.12834437 90 29
0.66233504 -0.18237257 0.10199504 33 28
0.70277262 -0.10024983 0.082399942 40 27
0.67430949 -0.18559732 0.063513167 83 26
0.71101761 -0.10164383 0.047544654 36 25
0.68611711 -0.18902269 0.031560272 76 24
0.71243662 -0.10208926 0.015899394 60 23
0.69160861 -0.19068384 0 29 22
0.714894 -0.10256014 -0.015957421 31 21
0.68124056 -0.18791904 -0.031327356 24 20
0.72331232 -0.1038737 -0.048169367 9 19
0.70566332 -0.194997 -0.062591068 90 18
0.72785807 -0.1045171 -0.08017502 64 17
0.71142101 -0.19686797 -0.097708367 69 16
0.66231805 -0.1849654 0.151059 98 30
0.69042951 -0.10027842 0.12787078 90 29
0.66410363 -0.18523924 0.10238139 32 28
0.69506603 -0.10152949 0.08149112 34 27
0.67365748 -0.18794997 0.063513167 90 26
0.70080101 -0.10259032 0.046850573 49 25
0.69029319 -0.19265431 0.031793188 70 24
0.70962018 -0.1040969 0.015841367 59 23
0.68856674 -0.1922964 0 37 22
0.7145316 -0.10505497 -0.015957421 25 21
0.69262886 -0.19357479 -0.031909645 25 20
0.72543257 -0.10662615 -0.048342019 11 19
0.69060427 -0.19338617 -0.06124983 90 18
0.72996604 -0.10728316 -0.080459327 72 17
0.71787608 -0.20137775 -0.098740496 68 16
0.6523028 -0.18459243 0.14880438 97 30
0.69493377 -0.10339318 0.12881798 90 29
0.65870368 -0.18619712 0.10160869 31 28
0.6922518 -0.10359645 0.081188172 23 27
0.67299724 -0.1903003 0.063513167 90 26
0.70784163 -0.10611987 0.047371134 51 25
0.68721557 -0.1943756 0.031676728 65 24
0.71170664 -0.10706048 0.015899394 51 23
0.67827767 -0.19194575 0 41 22
0.72157878 -0.10863996 -0.016131502 22 21
0.69191474 -0.1961121 -0.031909645 23 20
0.7299909 -0.10988381 -0.048687316 10 19
0.69471163 -0.19716996 -0.061696909 87 18
0.73448247 -0.11068185 -0.081027947 74 17
0.71240914 -0.20251398 -0.098052412 67 16
0.6586386 -0.18902054 0.15049534 96 30
0.69455016 -0.10593954 0.12881798 90 29
0.66038895 -0.18929841 0.10199504 37 28
0.69432169 -0.10650065 0.08149112 17 27
0.67707551 -0.19415267 0.063988924 92 26
0.71731323 -0.11019495 0.048065215 60 25
0.67930335 -0.19480544 0.031327356 50 24
0.70638555 -0.10880012 0.01578334 50 23
0.68237132 -0.19582461 0 45 22
0.72117573 -0.11128394 -0.016131502 21 21
0.69362414 -0.19922286 -0.032026105 21 20
0.72465098 -0.11181445 -0.048342019 11 19
0.69159353 -0.19901896 -0.06147337 85 18
0.73163563 -0.11287444 -0.080743633 77 17
0.70928484 -0.20443082 -0.097708367 68 16
0.66031128 -0.19200616 0.151059 95 30
0.68689615 -0.10725324 0.12739719 90 29
0.65498471 -0.19020934 0.10122235 38 28
0.68903989 -0.10817118 0.080885231 17 27
0.67639369 -0.1965149 0.063988924 93 26
0.71199417 -0.11194025 0.047718175 70 25
0.68341112 -0.19858395 0.031560272 39 24
0.71094185 -0.11202648 0.015899394 41 23
0.6816836 -0.19820532 0 45 22
0.72572291 -0.11456363 -0.016247556 24 21
0.69052881 -0.20093775 -0.031909645 22 20
0.71932667 -0.1135819 -0.047996718 12 19
0.6932829 -0.20213613 -0.061696909 83 18
0.7214185 -0.11391114 -0.079606406 75 17
0.71569151 -0.20900907 -0.098740496 67 16
0.65730298 -0.19361408 0.15049534 92 30
0.68166679 -0.10889329 0.12644999 87 29
0.65431684 -0.19249451 0.10122235 38 28
0.69601285 -0.11173007 0.081794061 18 27
0.68050891 -0.20017631 0.064464673 91 26
0.71652645 -0.11520001 0.048065215 80 25
0.67313993 -0.19811785 0.031094434 33 24
0.7006712 -0.11295042 0.015667286 35 23
0.68338352 -0.20129743 0 47 22
0.72533906 -0.11696959 -0.016247556 28 21
0.69700277 -0.20548725 -0.032259021 18 20
0.72877967 -0.11764929 -0.048687316 12 19
0.69260883 -0.20443404 -0.061696909 80 18
0.72346985 -0.11681636 -0.079890713 74 17
0.7197395 -0.21279941 -0.099428587 62 16
0.66365278 -0.19790344 0.15218632 90 30
0.68857425 -0.11231281 0.12787078 82 29
0.66076964 -0.19680122 0.10238139 40 28
0.68583727 -0.11246587 0.080582291 21 27
0.67504036 -0.20111439 0.063988924 93 26
0.71367806 -0.11717974 0.047891695 85 25
0.67487031 -0.2010695 0.031210894 22 24
0.70029277 -0.11527331 0.015667286 31 23
0.6851058 -0.20428425 0 68 22
0.71752417 -0.11830587 -0.016073475 31 21
0.69392669 -0.2070761 -0.032142565 15 20
0.72592336 -0.1196679 -0.048514668 12 19
0.68950748 -0.20612992 -0.06147337 74 18
0.72062641 -0.11881901 -0.079606406 67 17
0.68973553 -0.11437614 0.17724258 90 31
0.65364045 -0.19737197 0.14993168 90 30
0.69060075 -0.1151107 0.12834437 79 29
0.65535384 -0.19766474 0.10160869 41 28
0.68788946 -0.11526066 0.080885231 22 27
0.67909491 -0.20492224 0.064464673 90 26
0.71326476 -0.11967023 0.047891695 87 25
0.68371856 -0.20633957 0.031676728 18 24
0.69986552 -0.11783923 0.015667286 20 23
0.6796065 -0.20521429 0 81 22
0.72203875 -0.1216236 -0.016189529 42 21
0.68838674 -0.20815779 -0.031909645 16 20
0.72550124 -0.12220111 -0.048514668 13 19
0.69354564 -0.20999317 -0.061920449 71 18
0.72263664 -0.12186424 -0.079890713 67 17
0.71823627 -0.2178189 -0.099428587 59 16
0.68454587 -0.11611269 0.17595354 90 31
0.6552394 -0.2004866 0.15049534 90 30
0.68048906 -0.11602559 0.12644999 77 29
0.65934438 -0.20152451 0.10238139 42 28
0.68990982 -0.11819157 0.081188172 22 27
0.6712063 -0.20520461 0.063751042 90 26
0.71036178 -0.12187032 0.047718175 87 25
0.67818594 -0.20736887 0.031443812 17 24
0.6969853 -0.11986642 0.015609259 12 23
0.67884982 -0.2077038 0 87 22
0.71173024 -0.12260539 -0.015957421 47 21
0.69004154 -0.21129793 -0.032026105 27 20
0.72012997 -0.12402926 -0.048169367 13 19
0.6951496 -0.21327129 -0.062143989 64 18
0.71975774 -0.12397262 -0.079606406 67 17
0.68175489 -0.11809784 0.17530902 90 31
0.64291471 -0.19913083 0.14767708 90 30
0.68249977 -0.11881255 0.12692358 76 29
0.66099411 -0.20456262 0.10276773 45 28
0.69438499 -0.12143704 0.081794061 25 27
0.67052215 -0.20742926 0.063751042 90 26
0.71730614 -0.12561497 0.048238736 85 25
0.68222451 -0.21122684 0.031676728 16 24
0.69902581 -0.12272231 0.015667286 9 23
0.67812061 -0.21007214 0 90 22
0.71131968 -0.1249649 -0.015957421 53 21
0.68691677 -0.21295854 -0.031909645 42 20
0.72215044 -0.12696588 -0.048342019 16 19
0.69443852 -0.21557531 -0.062143989 62 18
0.72176826 -0.1269062 -0.079890713 56 17
0.709611 -0.22060138 -0.098396458 43 16
0.68611985 -0.12118108 0.17659806 90 31
0.65153784 -0.20420595 0.14993168 90 30
0.6845206 -0.12149552 0.12739719 72 29
0.65324801 -0.2045166 0.10160869 45 28
0.69153392 -0.12331196 0.08149112 23 27
0.67216653 -0.21051982 0.063988924 90 26
0.71197242 -0.12713282 0.047891695 82 25
0.6696164 -0.20971872 0.031094434 19 24
0.69369149 -0.12417597 0.015551231 8 23
0.68218678 -0.21382992 0 90 22
0.70595604 -0.12658168 -0.015841367 59 21
0.68144572 -0.21372589 -0.031676728 41 20
0.7217254 -0.12935992 -0.048342019 37 19
0.69842815 -0.21950549 -0.062591068 58 18
0.71889728 -0.12886894 -0.079606406 54 17
0.68331397 -0.12315548 0.17595354 90 31
0.65314019 -0.20722313 0.15049534 73 30
0.69134319 -0.12517056 0.12881798 65 29
0.65958643 -0.20905708 0.10276773 44 28
0.68621314 -0.12485388 0.080885231 27 27
0.66905767 -0.2121053 0.063751042 90 26
0.71397942 -0.13005593 0.048065215 82 25
0.66650206 -0.21129265 0.030977976 23 24
0.70553243 -0.12892202 0.015841367 8 23
0.68381679 -0.2169733 0 90 22
0.71289009 -0.13036907 -0.016015448 67 21
0.69254649 -0.2200391 -0.032259021 33 20
0.71881467 -0.13143805 -0.048169367 42 19
0.68580496 -0.21813211 -0.06147337 45 18
0.72086471 -0.13194194 -0.079890713 50 17
0.68285793 -0.12565912 0.17595354 90 31
0.65005988 -0.20886298 0.14993168 49 30
0.68363363 -0.12639068 0.12739719 51 29
0.64941841 -0.20842344 0.10122235 44 28
0.68819237 -0.1278127 0.081188172 26 27
0.6635415 -0.21301967 0.063275285 90 26
0.71595144 -0.13311957 0.048238736 77 25
0.67047381 -0.21527585 0.031210894 24 24
0.70016098 -0.13048509 0.015725313 9 23
0.6853947 -0.22025028 0 90 22
0.70994902 -0.13253073 -0.015957421 76 21
0.68464905 -0.22014011 -0.031909645 23 20
0.71587479 -0.13362239 -0.047996718 44 19
0.69447178 -0.22372697 -0.062367529 33 18
0.72528607 -0.13535246 -0.080459327 49 17
0.67528826 -0.12673137 0.17401998 90 31
0.65395439 -0.2126523 0.151059 41 30
0.69042981 -0.13011447 0.12881798 49 29
0.65807354 -0.2137716 0.10276773 41 28
0.69018191 -0.13066725 0.08149112 28 27
0.66988719 -0.21766397 0.063988924 90 26
0.71057856 -0.13470548 0.047891695 76 25
0.67209095 -0.2183941 0.031327356 27 24
0.69970119 -0.13292831 0.015725313 9 23
0.68224669 -0.22186099 0 90 22
0.71439576 -0.13592592 -0.016073475 76 21
0.68624878 -0.22330864 -0.032026105 17 20
0.71295244 -0.13566253 -0.04782407 45 19
0.68659157 -0.22381292 -0.061696909 23 18
0.72236764 -0.13742733 -0.08017502 42 17
0.68433821 -0.13086843 0.17659806 90 31
0.65320814 -0.21493372 0.151059 36 30
0.67790997 -0.13025123 0.12644999 44 29
0.6526354 -0.21450977 0.10199504 62 28
0.69215983 -0.13353723 0.081794061 28 27
0.66443795 -0.2183156 0.063513167 90 26
0.70520341 -0.13625553 0.047544654 70 25
0.68080407 -0.22388858 0.031793188 28 24
0.69186676 -0.13397007 0.015551231 10 23
0.67672342 -0.2226637 0 90 22
0.7139411 -0.13829419 -0.016073475 78 21
0.67835629 -0.22333793 -0.031676728 15 20
0.71002454 -0.13768388 -0.047651418 47 19
0.69529527 -0.22923566 -0.062591068 15 18
0.72432351 -0.14041258 -0.080459327 37 17
0.68390048 -0.13313706 0.17659806 90 31
0.65249181 -0.21709867 0.151059 33 30
0.68470663 -0.13388602 0.12787078 40 29
0.65426189 -0.2174594 0.10238139 88 28
0.6868397 -0.13489242 0.081188172 33 27
0.666031 -0.22142613 0.063751042 90 26
0.702299 -0.13812043 0.047371134 69 25
0.67532337 -0.22455437 0.031560272 35 24
0.68896484 -0.13578887 0.015493204 13 23
0.67835099 -0.22570315 0 90 22
0.71345401 -0.14078549 -0.016073475 77 21
0.67761195 -0.22558621 -0.031676728 13 20
0.70711553 -0.13956305 -0.047478769 49 19
0.68505222 -0.2284812 -0.061696909 12 18
0.71897703 -0.14186844 -0.079890713 31 17
0.67868954 -0.13460089 0.17530902 90 31
0.65173006 -0.21937495 0.151059 32 30
0.69146258 -0.13768801 0.12929156 33 29
0.66051465 -0.22212616 0.10354042 90 28
0.69123489 -0.13824549 0.081794061 28 27
0.66289771 -0.22294889 0.063513167 90 26
0.70181262 -0.14057107 0.047371134 64 25
0.66980654 -0.22530322 0.031327356 42 24
0.69581878 -0.13976438 0.015667286 13 23
0.67755902 -0.22806966 0 85 22
0.72031415 -0.14472754 -0.016247556 76 21
0.67205244 -0.22645867 -0.031443812 14 20
0.71396446 -0.14347993 -0.047996718 49 19
0.68425047 -0.2308711 -0.061696909 12 18
0.72819877 -0.14642902 -0.081027947 22 17
0.67582232 -0.13661751 0.1746645 90 31
0.65092158 -0.2217622 0.151059 32 30
0.68854588 -0.13974167 0.12881798 33 29
0.65268904 -0.22213557 0.10238139 90 28
0.68099028 -0.13882963 0.080582291 32 27
0.66442943 -0.22618642 0.063751042 86 26
0.70373791 -0.1436328 0.047544654 58 25
0.6595301 -0.22450779 0.030861517 45 24
0.69532663 -0.14219241 0.015667286 21 23
0.67435461 -0.229738 0 79 22
0.71242833 -0.1458872 -0.016073475 74 21
0.68070281 -0.23205535 -0.031909645 13 20
0.70854378 -0.14511156 -0.047651418 47 19
0.68810755 -0.23500124 -0.062143989 12 18
0.71794349 -0.14700967 -0.079890713 13 17
0.68244427 -0.14041053 0.17659806 90 31
0.6501435 -0.224033 0.151059 33 30
0.68805385 -0.14214431 0.12881798 37 29
0.64957678 -0.22360107 0.10199504 90 28
0.68536472 -0.14219707 0.081188172 35 27
0.67068744 -0.23095722 0.064464673 62 26
0.69834518 -0.14509059 0.047197614 58 25
0.66345972 -0.22844954 0.031094434 45 24
0.69482613 -0.14461869 0.015667286 24 23
0.67118746 -0.23126878 0 77 22
0.71436322 -0.14887485 -0.016131502 74 21
0.67517185 -0.23278749 -0.031676728 13 20
0.71291941 -0.14858525 -0.047996718 42 19
0.68728304 -0.23740174 -0.062143989 12 18
0.71985918 -0.15001345 -0.08017502 11 17
0.68194997 -0.14279185 0.17659806 90 31
0.65624964 -0.22872813 0.15274997 35 30
0.68755347 -0.14454518 0.12881798 40 29
0.64879233 -0.22586714 0.10199504 90 28
0.67757463 -0.14307635 0.08027935 36 27
0.66287446 -0.2307038 0.063751042 49 26
0.70515984 -0.14904973 0.047718175 44 25
0.66501403 -0.23159271 0.031210894 45 24
0.68697643 -0.14551501 0.015493204 29 23
0.67037618 -0.23361026 0 72 22
0.7040785 -0.14920366 -0.015899394 67 21
0.67671067 -0.23597237 -0.031793188 15 20
0.70751345 -0.15005456 -0.047651418 36 19
0.69353694 -0.24216323 -0.062814608 13 18
0.71933109 -0.15252531 -0.08017502 8 17
0.67437971 -0.14356938 0.1746645 90 31
0.6486035 -0.22845316 0.151059 35 30
0.68226576 -0.14581542 0.12787078 46 29
0.64803976 -0.22801737 0.10199504 90 28
0.6795246 -0.14583459 0.080582291 37 27
0.66206515 -0.23301624 0.063751042 46 26
0.69978154 -0.1503562 0.047371134 42 25
0.66659552 -0.23463321 0.031327356 50 24
0.68157411 -0.14687625 0.01537715 34 23
0.6719532 -0.23666982 0 67 22
0.70844328 -0.15269716 -0.016015448 63 21
0.67823541 -0.2391708 -0.031909645 17 20
0.70945179 -0.15291718 -0.04782407 30 19
0.69034201 -0.24374656 -0.062591068 13 18
0.72608334 -0.15658198 -0.081027947 8 17
0.67621142 -0.14654317 0.17530902 90 31
0.64776182 -0.23082887 0.151059 35 30
0.68892813 -0.14985497 0.12929156 47 29
0.65184814 -0.23206276 0.10276773 90 28
0.67898554 -0.14832421 0.080582291 31 27
0.67057395 -0.23881003 0.064702556 40 26
0.69922572 -0.15292002 0.047371134 37 25
0.66573101 -0.23707485 0.031327356 68 24
0.6957168 -0.15241329 0.015725313 37 23
0.6734336 -0.23997749 0 63 22
0.70543575 -0.15476538 -0.015957421 59 21
0.67269713 -0.23984498 -0.031676728 23 20
0.7088865 -0.15551643 -0.04782407 22 19
0.68944401 -0.24627514 -0.062591068 13 18
0.71339303 -0.15649535 -0.079606406 9 17
0.67569584 -0.14890271 0.17530902 91 31
0.64466345 -0.23225555 0.15049534 36 30
0.68360353 -0.15121552 0.12834437 50 29
0.64871281 -0.23349275 0.10238139 90 28
0.68331248 -0.1517524 0.081188172 24 27
0.66739744 -0.24029897 0.064464673 38 26
0.69137865 -0.15376088 0.046850573 31 25
0.66724634 -0.24025053 0.031443812 87 24
0.68785632 -0.15323588 0.015551231 46 23
0.67494118 -0.24318139 0 56 22
0.7024501 -0.15669104 -0.015899394 54 21
0.67889589 -0.24475405 -0.032026105 26 20
0.71321142 -0.15905938 -0.048169367 17 19
0.69091952 -0.24953313 -0.062814608 17 18
0.71526843 -0.15951712 -0.079890713 9 17
0.67753083 -0.15177992 0.17595354 91 31
0.64384872 -0.2345044 0.15049534 33 30
0.67588097 -0.15201065 0.12692358 54 29
0.64325714 -0.23405161 0.10160869 74 28
0.68035603 -0.15359873 0.080885231 22 27
0.66192478 -0.2407946 0.063988924 37 26
0.69083774 -0.1561733 0.046850573 27 25
0.6640597 -0.2417167 0.031327356 90 24
0.68731725 -0.15563601 0.015551231 50 23
0.67174184 -0.24467307 0 49 22
0.70192659 -0.15901959 -0.015899394 50 21
0.67335004 -0.24539773 -0.031793188 28 20
0.71021771 -0.16100477 -0.047996718 14 19
0.69476128 -0.25354412 -0.063261688 19 18
0.71955562 -0.16309485 -0.080459327 9 17
0.67466664 -0.15349853 0.17530902 92 31
0.6430676 -0.2366382 0.15049534 36 30
0.67776829 -0.15478913 0.12739719 60 29
0.64942396 -0.23876269 0.10276773 56 28
0.68468463 -0.156946 0.08149112 21 27
0.67041236 -0.24656868 0.06494043 33 26
0.70247936 -0.16121116 0.047718175 21 25
0.65623105 -0.24130967 0.030977976 90 24
0.69411051 -0.15956919 0.015725313 60 23
0.67327029 -0.24776991 0 31 22
0.69892973 -0.16091634 -0.015841367 47 21
0.67721421 -0.24936943 -0.032026105 29 20
0.71454459 -0.16446161 -0.048342019 14 19
0.69153851 -0.25509897 -0.063038148 23 18
0.71174371 -0.16383305 -0.079606406 10 17
0.67412668 -0.15585262 0.17530902 90 31
0.64223766 -0.2388815 0.15049534 35 30
0.67483062 -0.15660767 0.12692358 72 29
0.63933665 -0.23755684 0.10122235 49 28
0.67687595 -0.15767173 0.080582291 22 27
0.6602276 -0.24540979 0.063988924 37 26
0.69948161 -0.16310424 0.047544654 17 25
0.66239905 -0.24623118 0.031327356 90 24
0.69108534 -0.16155162 0.015667286 71 23
0.67006087 -0.24923977 0 17 22
0.7081061 -0.1655989 -0.016073475 38 21
0.67395806 -0.25097123 -0.031909645 37 20
0.70667493 -0.16527553 -0.04782407 18 19
0.68365246 -0.2548807 -0.062367529 25 18
0.72324002 -0.16923004 -0.081027947 11 17
0.66884422 -0.15723401 0.17401998 91 31
0.63452715 -0.23863907 0.14880438 34 30
0.67186099 -0.1585249 0.12644999 76 29
0.64769882 -0.2434037 0.10276773 39 28
0.68354398 -0.16184145 0.08149112 24 27
0.65932369 -0.24782798 0.063988924 37 26
0.70616508 -0.16736774 0.048065215 20 25
0.65915716 -0.24777132 0.031210894 90 24
0.6929509 -0.16453201 0.015725313 83 23
0.67148006 -0.25258136 0 11 22
0.70019388 -0.16648351 -0.015899394 33 21
0.67307788 -0.25332221 -0.031909645 50 20
0.70363605 -0.16729584 -0.047651418 25 19
0.68504089 -0.25827011 -0.062591068 25 18
0.71538985 -0.17005461 -0.08017502 12 17
0.66829121 -0.15956774 0.17401998 92 31
0.63369024 -0.24085253 0.14880438 32 30
0.6736927 -0.16143262 0.12692358 76 29
0.64223284 -0.24389443 0.10199504 38 28
0.68055999 -0.16365474 0.081188172 26 27
0.66077834 -0.251019 0.064226799 41 26
0.70072329 -0.16868085 0.047718175 22 25
0.6582883 -0.25007072 0.031210894 90 24
0.68750894 -0.16579482 0.015609259 83 23
0.66125786 -0.25134164 0 9 22
0.6996085 -0.16892663 -0.015899394 26 21
0.66752666 -0.25388029 -0.031676728 67 20
0.71032685 -0.17148241 -0.048169367 37 19
0.6841352 -0.26065975 -0.062591068 24 18
0.71720827 -0.17312552 -0.080459327 12 17
0.67007977 -0.16246015 0.1746645 90 31
0.64419973 -0.24746698 0.15162265 33 30
0.67073792 -0.16321146 0.12644999 73 29
0.65059006 -0.24970435 0.10354042 42 28
0.67998457 -0.16602933 0.081188172 31 27
0.6598981 -0.25332403 0.064226799 45 26
0.70013016 -0.17112578 0.047718175 22 25
0.65974003 -0.25326931 0.031327356 90 24
0.694215 -0.16995166 0.01578334 79 23
0.66503841 -0.25545567 0 10 22
0.70873237 -0.17371508 -0.016131502 12 21
0.66430813 -0.25530577 -0.031560272 77 20
0.70729959 -0.17337526 -0.047996718 44 19
0.68786311 -0.26484954 -0.063038148 38 18
0.71659958 -0.17562799 -0.080459327 14 17
0.67655122 -0.16650458 0.17659806 91 31
0.63426107 -0.24615933 0.14936803 58 30
0.67493457 -0.16671205 0.12739719 64 29
0.64971441 -0.25197381 0.10354042 44 28
0.67457932 -0.16722476 0.080582291 35 27
0.6543749 -0.25381145 0.063751042 49 26
0.69468331 -0.17238393 0.047371134 26 25
0.65187556 -0.25283951 0.030977976 90 24
0.68876231 -0.17118494 0.015667286 81 23
0.66879827 -0.25959909 0 9 22
0.69598472 -0.17321132 -0.015841367 9 21
0.66573805 -0.25853425 -0.031676728 83 20
0.6970011 -0.17346688 -0.04730612 47 19
0.67998093 -0.26451978 -0.062367529 51 18
0.72080672 -0.17931154 -0.081027947 19 17
0.67362034 -0.16828817 0.17595354 90 31
0.63792711 -0.25016505 0.15049534 85 30
0.68149793 -0.17083232 0.12881798 50 29
0.64653403 -0.25333172 0.10315407 42 28
0.67640024 -0.17017545 0.080885231 36 27
0.66042769 -0.25884008 0.064464673 56 26
0.70133895 -0.17661023 0.047891695 32 25
0.66027808 -0.25878745 0.031443812 90 24
0.68816066 -0.17358811 0.015667286 77 23
0.66788805 -0.26193205 0 10 22
0.69780111 -0.17624351 -0.015899394 8 21
0.66715342 -0.26177588 -0.031793188 86 20
0.70123172 -0.17710385 -0.047651418 50 19
0.68368274 -0.26872745 -0.062814608 60 18
0.71776617 -0.18122649 -0.080743633 37 17
0.66834176 -0.16946816 0.1746645 90 31
0.63478857 -0.25148579 0.14993168 88 30
0.6761353 -0.17201664 0.12787078 46 29
0.6479395 -0.25650349 0.10354042 43 28
0.66617572 -0.17011395 0.079673469 39 27
0.6572091 -0.26022044 0.064226799 68 26
0.69588137 -0.17783876 0.047544654 37 25
0.65937066 -0.2610907 0.031443812 90 24
0.68512702 -0.17537779 0.015609259 77 23
0.66232687 -0.26240578 0 12 22
0.69475853 -0.17806596 -0.015841367 8 21
0.66159821 -0.26224828 -0.031560272 89 20
0.70302725 -0.18016148 -0.04782407 63 19
0.67349482 -0.26740867 -0.061920449 70 18
0.71953732 -0.1843393 -0.081027947 42 17
0.66540462 -0.17120674 0.17401998 90 31
0.63616514 -0.25461248 0.15049534 90 30
0.68266773 -0.17619094 0.12929156 36 29
0.64016891 -0.25599027 0.10238139 69 28
0.67760015 -0.17550722 0.081188172 41 27
0.6632663 -0.26519158 0.06494043 69 26
0.69284004 -0.17964906 0.047371134 40 25
0.65382373 -0.26152134 0.031210894 85 24
0.68451071 -0.17776826 0.015609259 72 23
0.66604316 -0.26658836 0 13 22
0.69416422 -0.18036887 -0.015841367 8 21
0.65836328 -0.26362056 -0.031443812 87 20
0.69997817 -0.181995 -0.047651418 70 19
0.67491269 -0.27057415 -0.062143989 70 18
0.71648347 -0.186233 -0.080743633 46 17
0.67185169 -0.17521571 0.17595354 90 31
0.6308068 -0.25488091 0.14936803 82 30
0.67494875 -0.17661493 0.12787078 23 29
0.63931644 -0.25811172 0.10238139 90 28
0.67701447 -0.17775327 0.081188172 45 27
0.65542263 -0.26468787 0.064226799 68 26
0.69948316 -0.18382272 0.047891695 42 25
0.66220355 -0.26745754 0.031676728 79 24
0.68872416 -0.1814132 0.015725313 70 23
0.67441547 -0.27257076 0 14 22
0.69353038 -0.18279086 -0.015841367 8 21
0.66206342 -0.26780421 -0.031676728 85 20
0.70178467 -0.1849426 -0.04782407 69 19
0.67165905 -0.27198675 -0.061920449 73 18
0.71582901 -0.18873285 -0.080743633 51 17
0.65951854 -0.17462853 0.17273092 90 31
0.62761658 -0.25626308 0.14880438 60 30
0.68379569 -0.18157421 0.12976517 15 29
0.63151437 -0.2576319 0.10122235 90 28
0.67875856 -0.18086404 0.08149112 50 27
0.65674931 -0.26803586 0.064464673 72 26
0.69880474 -0.18638523 0.047891695 46 25
0.66121876 -0.26988283 0.031676728 78 24
0.67841923 -0.18126915 0.015493204 68 23
0.66416574 -0.27123168 0 17 22
0.69043911 -0.18469396 -0.01578334 9 21
0.66112459 -0.27011362 -0.031676728 82 20
0.70110208 -0.18751355 -0.04782407 73 19
0.66835606 -0.27349663 -0.061696909 74 18
0.70315796 -0.18806227 -0.079322092 62 17
0.66357535 -0.17816532 0.17401998 90 31
0.63346398 -0.2612603 0.15049534 44 30
0.67841268 -0.18270008 0.12881798 13 29
0.63061118 -0.25983474 0.10122235 90 28
0.66853136 -0.18067648 0.08027935 60 27
0.65810758 -0.27128232 0.064702556 56 26
0.69092089 -0.18689446 0.047371134 49 25
0.66257864 -0.27314815 0.031793188 75 24
0.68019706 -0.18428138 0.015551231 64 23
0.6678313 -0.27546906 0 21 22
0.69220459 -0.18774894 -0.015841367 9 21
0.65787214 -0.27146006 -0.031560272 83 20
0.70044327 -0.1899597 -0.04782407 72 19
0.66739726 -0.27582794 -0.061696909 76 18
0.70249718 -0.19051559 -0.079322092 68 17
0.6606164 -0.17985454 0.17337546 90 31
0.63479346 -0.26441374 0.151059 34 30
0.67540056 -0.18442886 0.12834437 14 29
0.63425499 -0.2639471 0.10199504 92 28
0.67268801 -0.1843036 0.080885231 70 27
0.65032023 -0.27057362 0.063988924 42 26
0.69267166 -0.18995647 0.047544654 41 25
0.66162109 -0.27545935 0.031793188 76 24
0.67472482 -0.18534733 0.015435177 63 23
0.66686577 -0.27779856 0 27 22
0.69157821 -0.19004333 -0.015841367 9 21
0.66152489 -0.27569026 -0.031793188 79 20
0.69736892 -0.19175048 -0.047651418 72 19
0.66877401 -0.27900532 -0.061920449 73 18
0.69943082 -0.19231622 -0.079037786 70 17
0.6646781 -0.18331169 0.1746645 90 31
0.63615537 -0.26746866 0.15162265 24 30
0.67478526 -0.18666755 0.12834437 14 29
0.63110209 -0.26508501 0.10160869 92 28
0.67446661 -0.18718854 0.081188172 86 27
0.65624577 -0.27575558 0.064702556 27 26
0.68001181 -0.18895565 0.046677049 41 25
0.65840471 -0.27667728 0.031676728 77 24
0.67169642 -0.18692219 0.01537715 56 23
0.66363919 -0.27903244 0 21 22
0.69091058 -0.19245625 -0.015841367 10 21
0.65830809 -0.27690706 -0.031676728 70 20
0.69913399 -0.19472302 -0.04782407 70 19
0.66779608 -0.28133807 -0.061920449 73 18
0.70357907 -0.19595122 -0.079606406 68 17
0.66403419 -0.18563074 0.1746645 90 31
0.63745672 -0.27064675 0.15218632 23 30
0.67412949 -0.18902184 0.12834437 14 29
0.63244367 -0.26825821 0.10199504 92 28
0.67380905 -0.18954171 0.081188172 90 27
0.64841545 -0.27510706 0.063988924 15 26
0.68175095 -0.19199595 0.046850573 36 25
0.65284324 -0.27700868 0.031443812 60 24
0.6758222 -0.19072369 0.015493204 51 23
0.67185384 -0.28528348 0 21 22
0.69986504 -0.19755024 -0.016073475 12 21
0.65728873 -0.27931803 -0.031676728 70 20
0.69364506 -0.19582342 -0.047478769 69 19
0.67138648 -0.28563082 -0.062367529 72 18
0.70524865 -0.19919576 -0.079890713 69 17
0.66334933 -0.18806329 0.1746645 90 31
0.63422513 -0.27201402 0.15162265 24 30
0.67815918 -0.1928174 0.12929156 16 29
0.6314562 -0.27057442 0.10199504 91 28
0.66833234 -0.19066536 0.080582291 90 27
0.64511842 -0.2764942 0.063751042 12 26
0.68344319 -0.19516996 0.047024094 32 25
0.65182352 -0.2793996 0.031443812 45 24
0.67515236 -0.19308159 0.015493204 46 23
0.66392004 -0.28476661 0 25 22
0.70154148 -0.20079371 -0.016131502 12 21
0.66318548 -0.28458607 -0.032026105 60 20
0.70252287 -0.20107737 -0.048169367 64 19
0.67033511 -0.28808963 -0.062367529 72 18
0.69737852 -0.19962996 -0.079037786 72 17
0.66036481 -0.18971919 0.17401998 90 31
0.62880784 -0.27227598 0.15049534 26 30
0.67748195 -0.19518347 0.12929156 19 29
0.63277155 -0.273765 0.10238139 90 28
0.66766274 -0.19299713 0.080582291 90 27
0.63735491 -0.27564657 0.06303741 10 26
0.68755388 -0.19892424 0.047371134 23 25
0.66228813 -0.28666812 0.032026105 29 24
0.68648922 -0.1988733 0.01578334 40 23
0.65604883 -0.28408098 0 29 22
0.68885738 -0.19968075 -0.015841367 14 21
0.65303433 -0.28290015 -0.031560272 51 20
0.69702137 -0.20215519 -0.04782407 59 19
0.66709471 -0.28931332 -0.062143989 70 18
0.69906527 -0.20274682 -0.079322092 67 17
0.66437566 -0.19324039 0.17530902 88 31
0.63235891 -0.27632472 0.15162265 27 30
0.66739535 -0.19471265 0.12739719 22 29
0.62959987 -0.27486628 0.10199504 90 28
0.6694032 -0.19589871 0.080885231 90 27
0.64322144 -0.28087893 0.063751042 12 26
0.68209887 -0.19981743 0.047024094 13 25
0.66133386 -0.28886276 0.032026105 25 24
0.67862386 -0.19906308 0.015609259 37 23
0.65510315 -0.28625494 0 50 22
0.69055659 -0.20278013 -0.015899394 20 21
0.66351801 -0.29010099 -0.032142565 53 20
0.69634712 -0.20446548 -0.04782407 58 19
0.66835868 -0.29264575 -0.062367529 72 18
0.69600356 -0.2043722 -0.079037786 67 17
0.66137761 -0.19488402 0.1746645 88 31
0.62694001 -0.27654979 0.15049534 33 30
0.67142463 -0.19841576 0.12834437 26 29
0.6331504 -0.27906919 0.10276773 90 28
0.66395187 -0.19684035 0.08027935 90 27
0.63996303 -0.28211147 0.063513167 12 26
0.68379056 -0.20289843 0.047197614 12 25
0.66716725 -0.29421315 0.032375481 17 24
