# .PCD v0.7 - Point Cloud Data file format
VERSION 0.7
FIELDS x y z intensity ring
SIZE 4 4 4 4 2
TYPE F F F F U
COUNT 1 1 1 1 1
WIDTH 1199
HEIGHT 1
VIEWPOINT 0 0 0 1 0 0 0
POINTS 1199
DATA ascii
0.87103814 -0.040058434 0.16149606 63 29
0.85159636 -0.1506632 0.12981187 11 28
0.86527616 -0.040542126 0.10148522 39 27
0.86267495 -0.15266493 0.080402434 80 26
0.8606289 -0.15230373 0.039130077 31 24
0.85165757 -0.15084612 0 33 22
0.86057562 -0.15260413 -0.039130077 53 20
0.86053288 -0.15305524 -0.07533282 75 18
0.85403979 -0.15446919 0.19276932 90 30
0.870893 -0.043098677 0.16149606 65 29
0.84377658 -0.15229981 0.12865284 13 28
0.85521424 -0.043091197 0.10027345 44 27
0.85479301 -0.15433012 0.079688802 90 26
0.88669968 -0.044891197 0.059344053 23 25
0.85517919 -0.15440704 0.03889716 15 24
0.85850281 -0.15517065 0 33 22
0.85512525 -0.15470557 -0.03889716 53 20
0.86244226 -0.15650889 -0.07555636 73 18
0.85591704 -0.15774804 0.19333297 90 30
0.87319702 -0.046108905 0.16196965 63 29
0.85297918 -0.15690939 0.13019821 15 28
0.8724153 -0.046808839 0.10239404 45 27
0.86406219 -0.15898991 0.080640309 84 26
0.88654596 -0.047831353 0.059344053 46 25
0.85957223 -0.15815827 0.039130077 10 24
0.87837505 -0.047714509 0.019613121 10 23
0.85798353 -0.1580167 0 59 22
0.86442649 -0.1593762 -0.039362993 50 20
0.86436582 -0.15982687 -0.0757799 73 18
0.85057604 -0.15982285 0.19220567 90 30
0.87303072 -0.049156655 0.16196965 65 29
0.84757328 -0.15896276 0.12942553 21 28
0.86729074 -0.049584582 0.10178816 48 27
0.8586123 -0.16107498 0.080164559 80 26
0.89135408 -0.051198032 0.059691094 50 25
0.86882818 -0.16302443 0.039595909 9 24
0.87819433 -0.050933592 0.019613121 13 23
0.86233854 -0.16194585 0 75 22
0.85402435 -0.16067164 -0.03889716 46 20
0.86624837 -0.16331056 -0.07600344 70 18
0.85476631 -0.16386877 0.19333297 90 30
0.87039393 -0.052216116 0.16149606 69 29
0.85910875 -0.16442044 0.13135725 31 28
0.87205803 -0.053050458 0.10239404 31 27
0.85801625 -0.16422087 0.080164559 80 26
0.88369125 -0.054028761 0.059170533 65 25
0.86332172 -0.16525644 0.039362993 10 24
0.87052613 -0.053559303 0.01943904 44 23
0.85683084 -0.1641522 0 83 22
0.89296216 -0.055189364 -0.019961281 11 21
0.86326391 -0.16555777 -0.039362993 29 20
0.86564404 -0.16648442 -0.07600344 70 18
0.85179985 -0.16637839 0.19276932 90 30
0.86775613 -0.055105466 0.16102245 68 29
0.85610652 -0.16693938 0.13097091 35 28
0.86939067 -0.055941824 0.1020911 25 27
0.86234993 -0.16802946 0.080640309 74 26
0.88100803 -0.056959093 0.058997013 70 25
0.87498897 -0.17069 0.039945286 9 24
0.87532276 -0.05690806 0.019555094 48 23
0.85380018 -0.16665694 0 85 22
0.87780738 -0.057216462 -0.019613121 18 21
0.86268079 -0.16857013 -0.039362993 14 20
0.86264479 -0.16886958 -0.0757799 73 18
0.85124344 -0.16920213 0.19276932 90 30
0.87491775 -0.058452841 0.16244325 65 29
0.84586221 -0.16782965 0.12942553 39 28
0.87415308 -0.059145667 0.10269699 13 27
0.86663783 -0.17201985 0.081116065 69 26
0.88081431 -0.059880309 0.058997013 70 25
0.87196988 -0.1730983 0.039828826 10 24
0.86764741 -0.059320033 0.019381013 49 23
0.86059535 -0.17096719 0 81 22
0.88508403 -0.060773231 -0.019787202 45 21
0.85966897 -0.17093678 -0.039246533 11 20
0.8807928 -0.060496569 -0.05870102 9 19
0.86693144 -0.17286578 -0.076226972 71 18
0.84826165 -0.17168316 0.19220567 90 30
0.86736095 -0.061010774 0.16102245 68 29
0.84285146 -0.17028585 0.12903918 43 28
0.86898971 -0.061858237 0.1020911 9 27
0.863594 -0.1745448 0.080878191 63 26
0.8756237 -0.062612697 0.058649972 76 25
0.87625349 -0.17714272 0.040061742 11 24
0.87241083 -0.062844925 0.019497067 53 23
0.85509509 -0.17296651 0 83 22
0.87987983 -0.063516304 -0.019671148 54 21
0.86637551 -0.17559291 -0.039595909 10 20
0.86315995 -0.062362041 -0.057492472 16 19
0.86632276 -0.17589086 -0.076226972 71 18
0.84762675 -0.17479105 0.19220567 90 30
0.86713147 -0.064189404 0.16102245 68 29
0.8398037 -0.17286967 0.12865284 44 28
0.86875719 -0.065042831 0.1020911 9 27
0.86051214 -0.17720078 0.080640309 60 26
0.88285071 -0.066361748 0.059170533 73 25
0.86337483 -0.17780401 0.039479453 15 24
0.87467891 -0.066071138 0.019555094 29 23
0.8520081 -0.17558861 0 83 22
0.87216312 -0.066194274 -0.019497067 71 21
0.86575729 -0.17861606 -0.039595909 10 20
0.86541301 -0.065707058 -0.057665121 43 19
0.86323512 -0.17855445 -0.07600344 73 18
0.88181502 -0.066911891 -0.097233534 10 17
0.85177624 -0.17876154 0.19333297 90 30
0.86935008 -0.067398638 0.16149606 64 29
0.84402752 -0.17682545 0.12942553 69 28
0.86852479 -0.068074964 0.1020911 10 27
0.85501945 -0.17917031 0.080164559 51 26
0.88261372 -0.069443069 0.059170533 73 25
0.85542023 -0.17926158 0.039130077 23 24
0.87444293 -0.069123939 0.019555094 20 23
0.86117184 -0.18063901 0 76 22
0.87691081 -0.069620043 -0.019613121 74 21
0.86024308 -0.18059859 -0.039362993 11 20
0.86269164 -0.068537034 -0.057492472 48 19
0.86017132 -0.18104766 -0.0757799 74 18
0.88900566 -0.07055866 -0.098086454 11 17
0.85114706 -0.1817337 0.19333297 90 30
0.87155676 -0.070624135 0.16196965 60 29
0.84340513 -0.17977059 0.12942553 89 28
0.8682819 -0.071106263 0.1020911 10 27
0.8519879 -0.18148004 0.079926684 50 26
0.88485211 -0.07272096 0.059344053 73 25
0.85478926 -0.18224646 0.039130077 30 24
0.88167053 -0.072771996 0.019729175 15 23
0.86542332 -0.18469974 0 69 22
0.87667513 -0.072527595 -0.019613121 76 21
0.869371 -0.18571125 -0.039828826 11 20
0.86493313 -0.071747124 -0.057665121 49 19
0.86199975 -0.18442613 -0.07600344 78 18
0.87389886 -0.072471447 -0.096380606 41 17
0.85529745 -0.1856004 0.19446027 90 30
0.86397791 -0.072915651 0.16054887 56 29
0.84280437 -0.18256642 0.12942553 90 28
0.86062175 -0.073373891 0.10118228 11 27
0.85378015 -0.18498604 0.080164559 46 26
0.87714964 -0.075037874 0.058823492 73 25
0.85174096 -0.18454507 0.039013617 33 24
0.87644291 -0.075281389 0.019613121 11 23
0.85503864 -0.18542463 0 65 22
0.87641662 -0.075587325 -0.019613121 78 21
0.86631119 -0.18805735 -0.039712369 13 20
0.86717594 -0.074822351 -0.057837773 49 19
0.85891902 -0.18689841 -0.0757799 80 18
0.88107932 -0.075988628 -0.097233534 46 17
0.8475132 -0.18699211 0.19276932 90 30
0.86371809 -0.07593105 0.16054887 56 29
0.83734041 -0.18443215 0.12865284 90 28
0.87025023 -0.077227175 0.10239404 11 27
0.86284518 -0.1901316 0.081116065 26 26
0.87936711 -0.078313559 0.058997013 73 25
0.86084127 -0.18969102 0.039479453 33 24
0.87118113 -0.078061029 0.019497067 10 23
0.86170614 -0.19004166 0 56 22
0.87116754 -0.078213066 -0.019497067 79 21
0.86074179 -0.19014172 -0.039479453 18 20
0.86690944 -0.077848896 -0.057837773 28 19
0.86069125 -0.19043948 -0.07600344 80 18
0.89316696 -0.080295503 -0.098655082 51 17
0.85157239 -0.19117638 0.19389662 90 30
0.86098897 -0.078879297 0.16007526 50 29
0.84147638 -0.18859267 0.12942553 90 28
0.87243301 -0.080637746 0.10269699 13 27
0.85971552 -0.1927423 0.080878191 11 26
0.87907416 -0.081536077 0.058997013 74 25
0.85526949 -0.19174007 0.039246533 34 24
0.87588179 -0.081551105 0.019613121 10 23
0.85856581 -0.19264524 0 53 22
0.87336409 -0.081631184 -0.019555094 79 21
0.86007285 -0.19314513 -0.039479453 25 20
0.86413443 -0.080800585 -0.057665121 19 19
0.85998744 -0.19359279 -0.07600344 81 18
0.88793385 -0.082964242 -0.098086454 65 17
0.84852666 -0.19359986 0.19333297 90 30
0.86070836 -0.081884228 0.16007526 49 29
0.84081292 -0.19152883 0.12942553 90 28
0.86226267 -0.082762256 0.10148522 19 27
0.86634713 -0.19726783 0.081591815 9 26
0.87878412 -0.084604122 0.058997013 73 25
0.84972799 -0.19360252 0.039013617 54 24
0.87310338 -0.08437454 0.019555094 11 23
0.8578881 -0.19564103 0 50 22
0.87308866 -0.084526919 -0.019555094 79 21
0.85696012 -0.1955844 -0.039362993 29 20
0.86136407 -0.08358264 -0.057492472 11 19
0.85448885 -0.1953216 -0.07555636 83 18
0.89505744 -0.086761847 -0.098939389 64 17
0.85025138 -0.19696836 0.19389662 90 30
0.87509364 -0.086139403 0.16291684 38 29
0.84017318 -0.19431601 0.12942553 90 28
0.86198348 -0.085621178 0.10148522 23 27
0.86080688 -0.19915672 0.081116065 9 26
0.87849885 -0.087517813 0.058997013 71 25
0.85880768 -0.19869517 0.039479453 71 24
0.87530643 -0.087511115 0.019613121 11 23
0.85236639 -0.19734475 0 49 22
0.87527585 -0.087816641 -0.019613121 75 21
0.8611697 -0.19956477 -0.039595909 29 20
0.86604673 -0.08692272 -0.057837773 9 19
0.85622585 -0.19887257 -0.0757799 81 18
0.88240445 -0.088524088 -0.097517841 70 17
0.851928 -0.20049913 0.19446027 90 30
0.87234479 -0.088951431 0.16244325 30 29
0.84189284 -0.19781874 0.12981187 90 28
0.85921013 -0.088382646 0.10118228 28 27
0.86494881 -0.20331123 0.081591815 8 26
0.88066941 -0.090832807 0.059170533 69 25
0.85810888 -0.20169175 0.039479453 79 24
0.87000632 -0.090217002 0.019497067 13 23
0.86140084 -0.20263295 0 29 22
0.87247723 -0.090620115 -0.019555094 79 21
0.86043245 -0.20271979 -0.039595909 31 20
0.86325663 -0.089694515 -0.057665121 9 19
0.8603704 -0.20301592 -0.076226972 80 18
0.88948762 -0.092508093 -0.098370776 66 17
0.84882015 -0.20304754 0.19389662 90 30
0.87689668 -0.092650235 0.16339043 18 29
0.8339594 -0.19916323 0.12865284 84 28
0.8588804 -0.09153121 0.10118228 29 27
0.85694063 -0.20472702 0.080878191 9 26
0.87536943 -0.093543828 0.058823492 66 25
0.85979134 -0.20542191 0.039595909 79 24
0.86968607 -0.093253344 0.019497067 13 23
0.85093236 -0.20343907 0 11 22
0.87213928 -0.093817301 -0.019555094 78 21
0.86700135 -0.20748365 -0.039945286 36 20
0.86540252 -0.093117744 -0.057837773 9 19
0.85478079 -0.20499445 -0.0757799 83 18
0.88915926 -0.095612422 -0.098370776 65 17
0.84337556 -0.20484729 0.19276932 90 30
0.87412691 -0.095451035 0.16291684 10 29
0.83325905 -0.20207307 0.12865284 76 28
0.86595792 -0.095322393 0.1020911 45 27
0.8635084 -0.20934469 0.081591815 9 26
0.87751728 -0.096865617 0.058997013 59 25
0.85906905 -0.20842189 0.039595909 79 24
0.87680995 -0.097093113 0.019671148 18 23
0.85021704 -0.20640813 0 9 22
0.87182337 -0.096708901 -0.019555094 76 21
0.86142141 -0.20931742 -0.039712369 61 20
0.87499034 -0.097211942 -0.058528371 9 19
0.85651422 -0.20842268 -0.07600344 83 18
0.88635075 -0.098448187 -0.098086454 66 17
0.84978175 -0.20940936 0.19446027 90 30
0.87868589 -0.098884568 0.16386405 9 29
0.8373782 -0.20602772 0.12942553 71 28
0.86317056 -0.097920746 0.10178816 61 27
0.86277241 -0.21235764 0.081591815 10 26
0.87471247 -0.099500068 0.058823492 55 25
0.8559497 -0.21066663 0.039479453 79 24
0.87151521 -0.099447332 0.019555094 19 23
0.85923171 -0.21164224 0 8 22
0.87644827 -0.10030614 -0.019671148 74 21
0.865569 -0.21338031 -0.039945286 73 20
0.86474866 -0.099006154 -0.057837773 9 19
0.86061311 -0.21261764 -0.076450512 76 18
0.88355094 -0.10111132 -0.097802147 64 17
0.84432304 -0.21118024 0.19333297 90 30
0.8758961 -0.10167495 0.16339043 9 29
0.83186436 -0.20774017 0.12865284 64 28
0.85789233 -0.10037047 0.10118228 69 27
0.86202586 -0.21536797 0.081591815 14 26
0.86692643 -0.10170191 0.058302931 33 25
0.85763049 -0.2142645 0.039595909 76 24
0.87611079 -0.10321199 0.019671148 21 23
0.8560639 -0.21402781 0 8 22
0.87112695 -0.10279297 -0.019555094 74 21
0.86478108 -0.21655133 -0.039945286 76 20
0.86439776 -0.10202408 -0.057837773 10 19
0.8622793 -0.21623211 -0.076674052 70 18
0.88564181 -0.10463364 -0.098086454 65 17
0.84590244 -0.21487914 0.19389662 90 30
0.87795579 -0.10516971 0.16386405 9 29
0.83827507 -0.21262798 0.12981187 58 28
0.8673768 -0.10467567 0.10239404 76 27
0.86123073 -0.21852601 0.081591815 23 26
0.87150133 -0.10546407 0.058649972 23 25
0.8544203 -0.21678622 0.039479453 75 24
0.87326324 -0.10597536 0.019613121 24 23
0.85527366 -0.21716401 0 9 22
0.87074435 -0.10598511 -0.019555094 71 21
0.86643875 -0.22018972 -0.040061742 75 20
0.86649466 -0.10548601 -0.058010422 11 19
0.85665816 -0.21815006 -0.076226972 73 18
0.88773769 -0.1080177 -0.098370776 61 17
0.84514719 -0.21783057 0.19389662 90 30
0.86783481 -0.1070592 0.16196965 10 29
0.83752781 -0.21555281 0.12981187 58 28
0.86207914 -0.10710477 0.10178816 79 27
0.86287123 -0.2221574 0.081829697 26 26
0.86122513 -0.10730015 0.057955891 19 25
0.85365838 -0.21976738 0.039479453 71 24
0.86792618 -0.10841726 0.019497067 48 23
0.85934919 -0.22140765 0 10 22
0.87533069 -0.10963139 -0.019671148 65 21
0.86808151 -0.22384229 -0.040178202 75 20
0.86117005 -0.10790384 -0.057665121 13 19
0.86070997 -0.22239687 -0.076674052 73 18
0.88735521 -0.11111582 -0.098370776 64 17
0.84673649 -0.22140153 0.19446027 90 30
0.86989188 -0.11038998 0.16244325 11 29
0.84632319 -0.22099544 0.13135725 28 28
0.86416245 -0.11042092 0.1020911 79 27
0.8500976 -0.22184528 0.080640309 30 26
0.86826926 -0.11123569 0.058476452 13 25
0.85047144 -0.22210881 0.039362993 66 24
0.87250215 -0.11206926 0.019613121 61 23
0.85373676 -0.2231296 0 11 22
0.87000275 -0.11190958 -0.019555094 59 21
0.86246598 -0.22559525 -0.039945286 78 20
0.86078817 -0.11090922 -0.057665121 16 19
0.85515344 -0.22397606 -0.076226972 70 18
0.88696194 -0.11421259 -0.098370776 63 17
0.85070318 -0.22546816 0.19558759 90 30
0.87926131 -0.11451488 0.16433764 13 29
0.83604115 -0.22124864 0.12981187 11 28
0.86133015 -0.11297023 0.10178816 81 27
0.8517223 -0.22545418 0.080878191 31 26
0.87284273 -0.11475075 0.058823492 11 25
0.8449052 -0.22363769 0.039130077 58 24
0.87212574 -0.11496196 0.019613121 74 23
0.8650673 -0.22919048 0 14 22
0.86712807 -0.11462518 -0.019497067 34 21
0.86412549 -0.22909999 -0.040061742 74 20
0.86536247 -0.11440294 -0.058010422 21 19
0.85917628 -0.22825032 -0.076674052 66 18
0.8816517 -0.11651602 -0.097802147 66 17
0.84756047 -0.2277981 0.19502394 90 30
0.8691203 -0.11630854 0.16244325 18 29
0.84479928 -0.226751 0.13135725 9 28
0.86339086 -0.11630049 0.1020911 75 27
0.85573393 -0.22972834 0.08135394 35 26
0.87985426 -0.11877731 0.059344053 10 25
0.84411937 -0.2265856 0.039130077 54 24
0.87667441 -0.11866233 0.019729175 75 23
0.86184925 -0.23155409 0 19 22
0.86672276 -0.11765131 -0.019497067 23 21
0.85609043 -0.23015191 -0.039712369 69 20
0.86990249 -0.11808003 -0.058355723 21 19
0.86317956 -0.23255537 -0.077121131 63 18
0.8886261 -0.12057447 -0.098655082 68 17
0.84206349 -0.22946246 0.19389662 90 30
0.87357467 -0.11999603 0.16339043 24 29
0.84162104 -0.22904386 0.13097091 9 28
0.86543876 -0.11964651 0.10239404 78 27
0.85492676 -0.23271403 0.08135394 59 26
0.88190556 -0.12218331 0.059517574 11 25
0.84813923 -0.23085456 0.039362993 51 24
0.86880428 -0.12086229 0.019555094 83 23
0.84898341 -0.23124588 0 25 22
0.86630678 -0.12067604 -0.019497067 16 21
0.85764873 -0.2339513 -0.039828826 63 20
0.86454272 -0.12044148 -0.058010422 48 19
0.85996217 -0.23490496 -0.076897591 64 18
0.89063913 -0.12416687 -0.098939389 65 17
0.8482545 -0.23451222 0.19558759 90 30
0.86340255 -0.12185257 0.16149606 30 29
0.83601749 -0.23080024 0.13019821 11 28
0.86499441 -0.1228177 0.10239404 76 27
0.85646534 -0.23651434 0.081591815 71 26
0.8715716 -0.1240368 0.058823492 11 25
0.84247631 -0.23262013 0.039130077 50 24
0.87332749 -0.12458648 0.019671148 80 23
0.84813017 -0.23435599 0 26 22
0.87328398 -0.12489133 -0.019671148 11 21
0.85923213 -0.23761517 -0.039945286 58 20
0.87150508 -0.12464809 -0.058528371 60 19
0.85909539 -0.2380553 -0.076897591 59 18
0.88528079 -0.12658539 -0.098370776 66 17
0.84274352 -0.23614541 0.19446027 90 30
0.86297196 -0.12486567 0.16149606 31 29
0.84233743 -0.23573214 0.13135725 11 28
0.85719037 -0.12478479 0.10148522 71 27
0.86286134 -0.24138229 0.082305454 76 26
0.87113333 -0.1270784 0.058823492 11 25
0.85607827 -0.23963423 0.039828826 25 24
0.87041336 -0.12727946 0.019613121 81 23
0.84971255 -0.23799537 0 28 22
0.87286502 -0.12778655 -0.019671148 10 21
0.85118866 -0.23857313 -0.039595909 56 20
0.87106466 -0.12768945 -0.058528371 73 19
0.86309272 -0.2422605 -0.077344678 60 18
0.882375 -0.12932141 -0.098086454 68 17
0.8513214 -0.24162252 0.19671489 86 30
0.86255318 -0.1277267 0.16149606 44 29
0.83442712 -0.23648544 0.13019821 15 28
0.85677183 -0.12762666 0.10148522 70 27
0.86440611 -0.24507746 0.082543328 75 26
0.8682394 -0.12960516 0.058649972 13 25
0.85287797 -0.24178469 0.039712369 10 24
0.86998653 -0.13016514 0.019613121 80 23
0.84891868 -0.24081181 0 31 22
0.87735915 -0.13156027 -0.019787202 9 21
0.85279351 -0.24208237 -0.039712369 50 20
0.87063646 -0.13057731 -0.058528371 75 19
0.85745519 -0.24389741 -0.076897591 58 18
0.88685602 -0.13296987 -0.098655082 65 17
0.85047281 -0.24459271 0.19671489 88 30
0.86210203 -0.1307368 0.16149606 50 29
0.84783 -0.24352381 0.13251628 19 28
0.8563211 -0.13061656 0.10148522 66 27
0.86354536 -0.24809331 0.082543328 78 26
0.86038262 -0.13152532 0.058129411 13 25
0.8496303 -0.24406485 0.039595909 9 24
0.87446994 -0.13394433 0.019729175 78 23
0.85767674 -0.24656019 0 55 22
0.86700886 -0.13313225 -0.019555094 10 21
0.84714675 -0.24366511 -0.039479453 49 20
0.86770922 -0.13324395 -0.058355723 79 19
0.85898942 -0.24758452 -0.077121131 56 18
0.88884252 -0.1364349 -0.098939389 65 17
0.85195047 -0.24824719 0.19727854 84 30
0.86649388 -0.13448453 0.16244325 64 29
0.84697479 -0.24648182 0.13251628 20 28
0.8583129 -0.13398069 0.10178816 63 27
0.85789853 -0.24970333 0.082067572 75 26
0.86731344 -0.13566341 0.058649972 14 25
0.84877324 -0.24702914 0.039595909 8 24
0.8690328 -0.13638726 0.019613121 79 23
0.85441238 -0.2488475 0 73 22
0.87147903 -0.13691999 -0.019671148 10 21
0.84864378 -0.24747351 -0.039595909 40 20
0.86970365 -0.13665225 -0.058528371 78 19
0.85573155 -0.2498776 -0.076897591 56 18
0.88097239 -0.13855436 -0.098086454 68 17
0.85570312 -0.25275975 0.19840586 78 30
0.86599523 -0.13765948 0.16244325 73 29
0.84606576 -0.24958448 0.13251628 29 28
0.85536456 -0.13674088 0.10148522 38 27
0.85220718 -0.25142571 0.081591815 71 26
0.86681044 -0.13884135 0.058649972 16 25
0.85504246 -0.25227621 0.039945286 8 24
0.87102026 -0.13980918 0.019671148 74 23
0.85109866 -0.25126359 0 76 22
0.87590879 -0.14089344 -0.019787202 11 21
0.85734755 -0.25328812 -0.040061742 14 20
0.87166041 -0.14022826 -0.05870102 74 19
0.85958171 -0.25443757 -0.077344678 51 18
0.88784349 -0.14279178 -0.098939389 66 17
0.85714734 -0.25644913 0.19896951 78 30
0.86793345 -0.1410685 0.16291684 74 29
0.84755421 -0.25324935 0.13290262 33 28
0.85733217 -0.14011917 0.10178816 29 27
0.85136873 -0.25425032 0.081591815 69 26
0.87124509 -0.14265858 0.058997013 19 25
0.85176563 -0.25453836 0.039828826 9 24
0.8729943 -0.14324662 0.019729175 71 23
0.84782296 -0.2535108 0 79 22
0.87050194 -0.14300068 -0.019671148 11 21
0.85645819 -0.25627926 -0.040061742 9 20
0.87362766 -0.14366795 -0.058873672 71 19
0.85634965 -0.25656611 -0.077121131 56 18
0.88488764 -0.14549379 -0.098655082 66 17
0.84697485 -0.25644332 0.19671489 49 30
0.8698836 -0.14434087 0.16339043 78 29
0.8348977 -0.25245401 0.13097091 36 28
0.85196501 -0.14215848 0.10118228 23 27
0.84809577 -0.25649425 0.08135394 63 26
0.87815022 -0.14675993 0.059517574 40 25
0.85808253 -0.25954816 0.040178202 9 24
0.87744671 -0.14695287 0.019845227 66 23
0.85415071 -0.25851122 0 79 22
0.86753154 -0.14563152 -0.019613121 13 21
0.85799181 -0.2598477 -0.040178202 8 20
0.87068576 -0.14615816 -0.05870102 71 19
0.86021078 -0.26101145 -0.077568218 53 18
0.88685095 -0.14883178 -0.098939389 65 17
0.84607458 -0.25939825 0.19671489 35 30
0.86453176 -0.14656955 0.16244325 74 29
0.83637118 -0.25609595 0.13135725 39 28
0.85146362 -0.14513153 0.10118228 13 27
0.85432851 -0.26165712 0.082067572 56 26
0.87025386 -0.14858559 0.058997013 55 25
0.8571713 -0.26254186 0.040178202 10 24
0.87197304 -0.14933774 0.019729175 63 23
0.85324311 -0.26149115 0 74 22
0.8694824 -0.14907439 -0.019671148 15 21
0.85941941 -0.26372913 -0.040294662 6 20
0.86771089 -0.1487819 -0.058528371 68 19
0.85691613 -0.26327541 -0.077344678 55 18
0.88385034 -0.15166789 -0.098655082 65 17
0.83349723 -0.25885576 0.19389662 23 30
0.86640865 -0.15014958 0.16291684 74 29
0.83542693 -0.25915968 0.13135725 40 28
0.86315578 -0.15034619 0.10269699 11 27
0.84861362 -0.26329988 0.081591815 55 26
0.87216151 -0.15219617 0.059170533 65 25
0.85858661 -0.26642779 0.040294662 11 24
0.86652017 -0.1515332 0.019613121 39 23
0.8475076 -0.26312232 0 74 22
0.86893016 -0.15226021 -0.019671148 20 21
0.84896147 -0.26374027 -0.039828826 8 20
0.86224425 -0.15111393 -0.05818307 69 19
0.85832101 -0.26716027 -0.077568218 53 18
0.90289694 -0.15812744 -0.10092954 68 17
0.84187514 -0.26470947 0.19615124 15 30
0.86829764 -0.15359375 0.16339043 71 29
0.82745343 -0.25983623 0.13019821 78 28
0.85529226 -0.15207572 0.10178816 11 27
0.85006189 -0.26701215 0.081829697 50 26
0.8691684 -0.15480915 0.058997013 70 25
0.85289007 -0.26791462 0.040061742 14 24
0.87090921 -0.15542156 0.019729175 24 23
0.84896702 -0.26683459 0 74 22
0.87085485 -0.15572555 -0.019729175 21 21
0.85041606 -0.26745719 -0.039945286 8 20
0.86908031 -0.15541947 -0.05870102 65 19
0.86450231 -0.27241713 -0.078238837 53 18
0.92190903 -0.16472177 -0.10320401 71 17
0.8340351 -0.26526731 0.19446027 13 30
0.86778349 -0.15647228 0.16339043 69 29
0.83129144 -0.2640864 0.13097091 89 28
0.85722631 -0.15534677 0.1020911 11 27
0.84917176 -0.2698296 0.081829697 50 26
0.87110531 -0.15812922 0.059170533 73 25
0.85437506 -0.27150357 0.040178202 14 24
0.86300844 -0.1569874 0.019555094 18 23
0.84569693 -0.26888499 0 65 22
0.87525386 -0.15949516 -0.019845227 44 21
0.85903597 -0.27332777 -0.040411122 9 20
0.86365056 -0.15741985 -0.058355723 63 19
0.8612237 -0.27452046 -0.078015298 48 18
0.84237033 -0.27118602 0.19671489 18 30
0.86481655 -0.15906325 0.16291684 65 29
0.83741295 -0.26927263 0.13212994 88 28
0.85912031 -0.15878221 0.10239404 11 27
0.85532647 -0.27509552 0.082543328 40 26
0.87300164 -0.16161619 0.059344053 71 25
0.85817307 -0.27602518 0.040411122 16 24
0.86245519 -0.15999891 0.019555094 13 23
0.84950894 -0.27337879 0 65 22
0.86731625 -0.16119973 -0.019671148 61 21
0.85807663 -0.27632472 -0.040411122 10 20
0.8680023 -0.16133146 -0.05870102 59 19
0.87446725 -0.28214666 -0.079356529 46 18
0.83910471 -0.27336445 0.19615124 20 30
0.85942817 -0.16118975 0.16196965 61 29
0.83412111 -0.27142385 0.1317436 89 28
0.86344075 -0.16268547 0.10299993 11 27
0.84490269 -0.27497524 0.081591815 16 26
0.86752814 -0.16375099 0.058997013 70 25
0.84534055 -0.27512532 0.039828826 19 24
0.86677688 -0.16407497 0.019671148 11 23
0.84379911 -0.27478245 0 56 22
0.86674821 -0.16422625 -0.019671148 71 21
0.85705811 -0.27946788 -0.040411122 11 20
0.85762697 -0.16253039 -0.058010422 33 19
0.84271932 -0.27797571 0.19727854 21 30
0.85641932 -0.16388413 0.16149606 58 29
0.83312064 -0.27447927 0.1317436 89 28
0.85552382 -0.16446425 0.1020911 13 27
0.85569775 -0.28199375 0.082781211 11 26
0.87182271 -0.16785906 0.059344053 70 25
0.85143608 -0.28058413 0.040178202 31 24
0.85883278 -0.16569974 0.019497067 11 23
0.84990329 -0.2802394 0 50 22
0.87105101 -0.16833688 -0.019787202 75 21
0.85133809 -0.28088132 -0.040178202 15 20
0.86682564 -0.16753858 -0.05870102 20 19
0.8394354 -0.28013876 0.19671489 30 30
0.85825276 -0.16733551 0.16196965 51 29
0.8344987 -0.2781727 0.13212994 88 28
0.86469114 -0.16932999 0.10330287 13 27
0.84768063 -0.28245214 0.082067572 10 26
0.8712315 -0.17090127 0.059344053 69 25
0.84335011 -0.28116739 0.039828826 54 24
0.86070287 -0.16917181 0.019555094 11 23
0.84418076 -0.28161046 0 50 22
0.87048799 -0.17122447 -0.019787202 78 21
0.85745311 -0.28624094 -0.040527578 18 20
0.86378711 -0.17008831 -0.058528371 14 19
0.84541935 -0.28527448 0.19840586 26 30
0.8625114 -0.17112248 0.16291684 40 29
0.82655591 -0.2785542 0.13097091 89 28
0.85925472 -0.17124012 0.10269699 16 27
0.85140216 -0.28701091 0.082543328 9 26
0.86821288 -0.17330801 0.059170533 68 25
0.84477758 -0.28476602 0.039945286 63 24
0.86749363 -0.17347503 0.019729175 11 23
0.84087539 -0.28360346 0 41 22
0.86988503 -0.17426199 -0.019787202 78 21
0.84704232 -0.28586528 -0.040061742 19 20
0.86566514 -0.17343494 -0.05870102 11 19
0.83750916 -0.28584611 0.19671489 34 30
0.85227895 -0.1722149 0.16102245 33 29
0.82791436 -0.28224063 0.13135725 84 28
0.8562184 -0.17375176 0.10239404 19 27
0.85274863 -0.29079011 0.082781211 9 26
0.87004805 -0.17682754 0.059344053 65 25
0.84850168 -0.28933671 0.040178202 59 24
0.85950083 -0.17517647 0.019555094 13 23
0.84697253 -0.28897622 0 13 22
0.8692714 -0.17729738 -0.019787202 81 21
0.85543382 -0.29222012 -0.040527578 21 20
0.86016434 -0.17547226 -0.058355723 10 19
0.84335631 -0.29131681 0.19840586 35 30
0.86126482 -0.17729004 0.16291684 18 29
0.82220858 -0.28365025 0.13058455 75 28
0.84828103 -0.175402 0.10148522 20 27
0.8610791 -0.29718411 0.083732717 9 26
0.86939406 -0.18001525 0.059344053 64 25
0.84743553 -0.29244468 0.040178202 60 24
0.86623007 -0.17967819 0.019729175 11 23
0.85299098 -0.29454389 0 9 22
0.87106413 -0.18098393 -0.019845227 78 21
0.85912538 -0.2968469 -0.040760498 46 20
0.86684513 -0.18012567 -0.058873672 10 19
0.84463161 -0.29506791 0.19896951 36 30
0.86544871 -0.18128839 0.16386405 10 29
0.8305335 -0.28979704 0.13212994 75 28
0.85495311 -0.17987423 0.10239404 36 27
0.85064596 -0.29688478 0.082781211 9 26
0.86876035 -0.1830489 0.059344053 53 25
0.84169799 -0.29374364 0.039945286 61 24
0.86070389 -0.18168201 0.019613121 13 23
0.85431588 -0.29834956 0 8 22
0.86553371 -0.18300293 -0.019729175 78 21
0.85101742 -0.29735544 -0.040411122 59 20
0.86621112 -0.18315043 -0.058873672 10 19
0.83671302 -0.29556331 0.19727854 38 30
0.86721289 -0.1848132 0.16433764 8 29
0.82718974 -0.2918666 0.1317436 66 28
0.85432005 -0.18285747 0.10239404 44 27
0.85200167 -0.30053753 0.083019085 10 26
0.87787622 -0.18814421 0.060038138 48 25
0.84537321 -0.2983537 0.040178202 59 24
0.86250943 -0.18520324 0.019671148 13 23
0.8485586 -0.29965344 0 8 22
0.86492211 -0.18587212 -0.019729175 76 21
0.85703206 -0.30283743 -0.040760498 66 20
0.87044597 -0.18720832 -0.059218969 10 19
0.84489542 -0.30163488 0.19953316 80 30
0.87379688 -0.1892266 0.16575842 8 29
0.83551484 -0.29794991 0.13328896 59 28
0.85370898 -0.18568951 0.10239404 45 27
0.84860539 -0.30266804 0.082781211 10 26
0.87724751 -0.19105431 0.060038138 45 25
0.84202915 -0.30031076 0.040061742 61 24
0.86433393 -0.18858846 0.019729175 14 23
0.84285522 -0.30077365 0 8 22
0.86426806 -0.18889016 -0.019729175 74 21
0.85367334 -0.30483225 -0.040644038 69 20
0.86250645 -0.18851647 -0.05870102 11 19
0.83925951 -0.302917 0.19840586 90 30
0.8731311 -0.19227557 0.16575842 8 29
0.82750535 -0.29833388 0.13212994 55 28
0.8530556 -0.18866837 0.10239404 44 27
0.85689974 -0.30902812 0.083732717 10 26
0.87413871 -0.19358274 0.059864614 44 25
0.83862853 -0.30239528 0.039945286 59 24
0.86122882 -0.19106981 0.019671148 14 23
0.84414971 -0.30456817 0 8 22
0.86360347 -0.19190584 -0.019729175 71 21
0.85260403 -0.30781028 -0.040644038 69 20
0.85940701 -0.19099173 -0.058528371 11 19
0.83585787 -0.30515003 0.1978422 90 30
0.87002361 -0.1949444 0.16528483 9 29
0.8264063 -0.30136481 0.13212994 41 28
0.85235828 -0.19179371 0.10239404 40 27
0.84875375 -0.3095912 0.083019085 11 26
0.87098897 -0.19624384 0.059691094 49 25
0.8422026 -0.30718994 0.040178202 58 24
0.86296231 -0.19476861 0.019729175 34 23
0.84537417 -0.30852294 0 8 22
0.86777288 -0.19615854 -0.019845227 70 21
0.85615748 -0.31265777 -0.040876955 65 20
0.85870123 -0.19414034 -0.058528371 13 19
0.83707047 -0.30891481 0.19840586 90 30
0.87412781 -0.199057 0.16623202 9 29
0.83924156 -0.30940863 0.13444801 13 28
0.84926295 -0.19422141 0.1020911 36 27
0.8523885 -0.31413656 0.083494842 10 26
0.86786604 -0.19873297 0.059517574 50 25
0.83410233 -0.3075189 0.039828826 55 24
0.86227715 -0.19777972 0.019729175 48 23
0.85132217 -0.31408501 0 9 22
0.86711758 -0.19903509 -0.019845227 64 21
0.85037953 -0.31390342 -0.040644038 65 20
0.8507216 -0.19548151 -0.058010422 14 19
0.8314814 -0.30997586 0.19727854 90 30
0.86389023 -0.19976921 0.16433764 10 29
0.8289609 -0.30871862 0.13290262 9 28
0.86070848 -0.19980878 0.10360581 33 27
0.84662676 -0.31536126 0.083019085 10 26
0.87206364 -0.20272592 0.059864614 54 25
0.84009212 -0.31291544 0.040178202 55 24
0.86161655 -0.20063804 0.019729175 56 23
0.85261643 -0.31778517 0 9 22
0.86154652 -0.20093881 -0.019729175 39 21
0.84699625 -0.31584346 -0.040527578 60 20
0.85735989 -0.1999808 -0.058528371 16 19
0.83494836 -0.31460541 0.19840586 90 30
0.86797011 -0.20389293 0.16528483 11 29
0.83018768 -0.31248626 0.13328896 8 28
0.85275507 -0.20112336 0.10269699 28 27
0.84552085 -0.31831461 0.083019085 41 26
0.86649323 -0.20463569 0.059517574 63 25
0.83665979 -0.31496048 0.040061742 51 24
0.86817646 -0.20550177 0.019903254 65 23
0.84916455 -0.31987244 0 9 22
0.86570698 -0.20508382 -0.019845227 24 21
0.85050195 -0.32071933 -0.040760498 56 20
0.85908502 -0.20354058 -0.05870102 19 19
0.82924193 -0.31591782 0.19727854 90 30
0.86004949 -0.20538247 0.16386405 13 29
0.83134305 -0.31641132 0.13367532 9 28
0.85684186 -0.20539099 0.10330287 24 27
0.84434843 -0.32141146 0.083019085 48 26
0.86816406 -0.20838562 0.059691094 64 25
0.84715843 -0.32249555 0.040644038 53 24
0.86502212 -0.20795348 0.019845227 66 23
0.84798646 -0.32298264 0 10 22
0.86008656 -0.20709871 -0.019729175 16 21
0.84704578 -0.32279122 -0.040644038 56 20
0.85590684 -0.20611078 -0.058528371 41 19
0.82813418 -0.31881049 0.19727854 90 30
0.85932732 -0.20838335 0.16386405 18 29
0.82793033 -0.31841889 0.13328896 9 28
0.8537069 -0.20780051 0.10299993 20 27
0.83631587 -0.32151341 0.082305454 48 26
0.86258203 -0.210247 0.059344053 69 25
0.85068476 -0.32725522 0.040876955 31 24
0.85943168 -0.20979971 0.019729175 59 23
0.85151577 -0.32774803 0 9 22
0.85939503 -0.20994972 -0.019729175 13 21
0.84125733 -0.32393986 -0.040411122 56 20
0.86003083 -0.21026841 -0.058873672 53 19
0.83614385 -0.32510814 0.19953316 85 30
0.86340207 -0.21239126 0.16481122 19 29
0.84067082 -0.32656285 0.13560705 10 28
0.86024565 -0.2123948 0.10390875 15 27
0.83982366 -0.32624447 0.082781211 49 26
0.86430281 -0.21369821 0.059517574 65 25
0.84029245 -0.32643449 0.040411122 11 24
0.85873121 -0.21264853 0.019729175 50 23
0.84111243 -0.32692444 0 10 22
0.86593944 -0.21473297 -0.019903254 11 21
0.84482908 -0.32854936 -0.040644038 53 20
0.85932887 -0.21311921 -0.058873672 65 19
0.83273917 -0.32712865 0.19896951 76 30
0.857889 -0.21422772 0.16386405 39 29
0.83722878 -0.32858729 0.13522071 10 28
0.85468143 -0.21420321 0.10330287 13 27
0.84099406 -0.33008888 0.083019085 46 26
0.86355162 -0.21671389 0.059517574 66 25
0.84611511 -0.33211994 0.040760498 10 24
0.85552061 -0.21519156 0.019671148 45 23
0.84229094 -0.33077797 0 44 22
0.86275917 -0.21715099 -0.019845227 9 21
0.84361917 -0.33164361 -0.040644038 50 20
0.86584044 -0.21792381 -0.059391622 68 19
0.83379602 -0.33108312 0.19953316 73 30
0.86186016 -0.21856414 0.16481122 45 29
0.83143151 -0.32982075 0.13444801 15 28
0.85148406 -0.21672894 0.10299993 14 27
0.83284551 -0.33039889 0.082305454 46 26
0.86516988 -0.22048676 0.059691094 64 25
0.84489214 -0.33521888 0.040760498 10 24
0.85961097 -0.21939942 0.019787202 38 23
0.83875149 -0.33293489 0 49 22
0.87407345 -0.223373 -0.020135364 10 21
0.84245634 -0.33458638 -0.040644038 45 20
0.86261791 -0.22048484 -0.059218969 71 19
0.83037698 -0.33307916 0.19896951 68 30
0.85395497 -0.21975602 0.16339043 50 29
0.84172738 -0.33734334 0.13637973 16 28
0.8483178 -0.21908608 0.10269699 16 27
0.838669 -0.33595204 0.083019085 43 26
0.86439496 -0.22350542 0.059691094 63 25
0.84603262 -0.33910075 0.040876955 11 24
0.85399741 -0.22115894 0.019671148 30 23
0.84453863 -0.33866897 0 51 22
0.86606443 -0.22440942 -0.019961281 10 21
0.85054505 -0.34126705 -0.041109871 15 20
0.85942709 -0.22287519 -0.059046321 71 19
0.82926792 -0.33583099 0.19896951 66 30
0.85322154 -0.22258663 0.16339043 59 29
0.8337419 -0.33733657 0.13522071 23 28
0.84518427 -0.22127625 0.10239404 39 27
0.84440529 -0.34169483 0.083732717 39 26
0.86364901 -0.22637063 0.059691094 61 25
0.85184145 -0.34473154 0.041226331 14 24
0.86777437 -0.22775704 0.020019308 21 23
0.84109592 -0.34052393 0 56 22
0.8652758 -0.22743118 -0.019961281 10 21
0.84709644 -0.34314251 -0.040993415 10 20
0.86592478 -0.22760615 -0.05956427 65 19
0.83034259 -0.33965135 0.19953316 43 30
0.85243934 -0.22556359 0.16339043 58 29
0.83255935 -0.3402448 0.13522071 13 28
0.85400766 -0.22674568 0.10360581 46 27
0.84781015 -0.34653458 0.084208466 35 26
0.86044163 -0.22874984 0.059517574 61 25
0.84139556 -0.34390119 0.040760498 28 24
0.86455709 -0.23014842 0.019961281 16 23
0.84452546 -0.34536153 0 51 22
0.87172693 -0.23236173 -0.020135364 10 21
0.85282052 -0.34895104 -0.041342791 9 20
0.8627134 -0.22999159 -0.059391622 68 19
0.82240564 -0.33974087 0.1978422 13 30
0.85401952 -0.22916734 0.16386405 59 29
0.826805 -0.34125292 0.13444801 14 28
0.85321093 -0.22972535 0.10360581 56 27
0.83970124 -0.34662637 0.083494842 31 26
0.86204761 -0.23239449 0.059691094 36 25
0.84249598 -0.34779462 0.040876955 34 24
0.85887849 -0.23202525 0.019845227 14 23
0.84100652 -0.34734744 0 51 22
0.86608154 -0.23411196 -0.020019308 11 21
0.84461927 -0.34919536 -0.040993415 8 20
0.85949594 -0.23235735 -0.059218969 68 19
0.85317379 -0.23229593 0.16386405 56 29
0.83238065 -0.34715009 0.13560705 28 28
0.84757191 -0.2315564 0.10299993 65 27
0.84530872 -0.35259247 0.084208466 24 26
0.86359745 -0.23620383 0.059864614 20 25
0.84582055 -0.35281402 0.041109871 38 24
0.85323864 -0.23371466 0.019729175 15 23
0.84203261 -0.35139593 0 50 22
0.85798126 -0.23532137 -0.019845227 13 21
0.84799945 -0.35407698 -0.041226331 9 20
0.85863853 -0.23550601 -0.059218969 60 19
0.85472578 -0.23591915 0.16433764 56 29
0.82888979 -0.34908921 0.13522071 59 28
0.856332 -0.23713616 0.10421169 68 27
0.83726084 -0.35248011 0.083494842 14 26
0.86036265 -0.23855716 0.059691094 13 25
0.83538741 -0.35186449 0.040644038 43 24
0.85000753 -0.23602955 0.019671148 35 23
0.84310228 -0.35530949 0 49 22
0.86683589 -0.24081507 -0.020077337 20 21
0.84445959 -0.35605913 -0.041109871 9 20
0.85781121 -0.2385018 -0.059218969 59 19
0.8539387 -0.2387522 0.16433764 54 29
0.81864464 -0.34794867 0.13367532 66 28
0.85554087 -0.23997456 0.10421169 68 27
0.8497529 -0.36127564 0.084922098 11 26
0.86917847 -0.2440799 0.060385179 9 25
0.83192021 -0.35365021 0.040527578 45 24
0.85403591 -0.24018702 0.019787202 49 23
0.83962113 -0.35711932 0 49 22
0.85395205 -0.24048513 -0.019787202 29 21
0.84786522 -0.36082426 -0.041342791 9 20
0.85701561 -0.24134509 -0.059218969 58 19
0.83546579 -0.3589257 0.20235142 8 30
0.84600931 -0.23974375 0.16291684 55 29
0.81969243 -0.3517839 0.13406166 71 28
0.84992033 -0.24161564 0.10360581 73 27
0.8484866 -0.36423963 0.084922098 43 26
0.86832118 -0.24711242 0.060385179 8 25
0.83068067 -0.356552 0.040527578 48 24
0.85314983 -0.24331561 0.019787202 55 23
0.83377999 -0.35806382 0 44 22
0.85310733 -0.24346451 -0.019787202 30 21
0.83736956 -0.35996225 -0.040876955 10 20
0.85376781 -0.24365735 -0.059046321 55 19
0.83860844 -0.36393562 0.20347872 9 30
0.84748602 -0.24351418 0.16339043 50 29
0.81839752 -0.35478583 0.13406166 66 28
0.84902906 -0.24472913 0.10360581 65 27
0.84030336 -0.36436045 0.084208466 49 26
0.86980778 -0.25097823 0.060558699 8 25
0.82707947 -0.35859519 0.040411122 48 24
0.8619073 -0.24904111 0.020019308 60 23
0.83017105 -0.36011693 0 38 22
0.86182028 -0.24934193 -0.020019308 20 21
0.83839637 -0.36388281 -0.040993415 10 20
0.85766429 -0.24815813 -0.059391622 51 19
0.83287603 -0.3648949 0.20235142 13 30
0.85370731 -0.24850947 0.16481122 49 29
0.81715417 -0.35764045 0.13406166 63 28
0.85055351 -0.24838029 0.10390875 64 27
0.83909047 -0.367145 0.084208466 54 26
0.87132204 -0.25470617 0.060732223 8 25
0.83496374 -0.36550793 0.040876955 23 24
0.86103272 -0.25204822 0.020019308 65 23
0.83119643 -0.36402103 0 31 22
0.86098868 -0.25219846 -0.020019308 13 21
0.84626067 -0.3708382 -0.041459247 13 20
0.84960711 -0.24906552 -0.058873672 30 19
0.83611184 -0.36963537 0.20347872 23 30
0.84816551 -0.24996448 0.16386405 49 29
0.81822062 -0.36135167 0.13444801 61 28
0.84496188 -0.24980566 0.10330287 65 27
0.84007782 -0.37108278 0.084446348 51 26
0.87286592 -0.25829542 0.060905743 8 25
0.83146518 -0.36726025 0.040760498 9 24
0.85779387 -0.25419852 0.019961281 66 23
0.83455318 -0.36880744 0 24 22
0.86969513 -0.25801998 -0.020251418 10 21
0.8404631 -0.3716118 -0.041226331 26 20
0.85116947 -0.25258446 -0.059046321 21 19
0.84148175 -0.3755458 0.20516968 21 30
0.85905838 -0.2564013 0.16623202 48 29
0.81470084 -0.36319432 0.13406166 59 28
0.85122246 -0.25486928 0.10421169 58 27
0.83650684 -0.37299398 0.084208466 53 26
0.87434989 -0.26205027 0.061079264 8 25
0.83473486 -0.37220538 0.040993415 4 24
0.85685647 -0.25734079 0.019961281 68 23
0.83326077 -0.37171832 0 41 22
0.86399817 -0.25962868 -0.020135364 9 21
0.84137332 -0.37571347 -0.041342791 33 20
0.85028255 -0.25555405 -0.059046321 16 19
0.83788157 -0.37762126 0.20460603 16 30
0.85576135 -0.25884402 0.16575842 34 29
0.8246128 -0.37127572 0.13599339 50 28
0.85028261 -0.25798741 0.10421169 55 27
0.83740097 -0.3770847 0.084446348 54 26
0.87338358 -0.26525316 0.061079264 8 25
0.83336502 -0.37526232 0.040993415 6 24
0.85834605 -0.26105094 0.020019308 64 23
0.83872336 -0.37786698 0 49 22
0.87021947 -0.26495829 -0.020309445 8 21
0.83550823 -0.37658483 -0.041109871 41 20
0.85889155 -0.26154885 -0.059736926 20 19
0.84320199 -0.38358545 0.206297 16 30
0.86424899 -0.26467904 0.1676528 20 29
0.82555795 -0.37517932 0.13637973 49 28
0.84937692 -0.2609539 0.10421169 50 27
0.83381641 -0.3789703 0.084208466 55 26
0.86768085 -0.2668469 0.060732223 9 25
0.83432108 -0.37920779 0.041109871 6 24
0.85742962 -0.26404554 0.020019308 61 23
0.83967251 -0.38183266 0 50 22
0.86211818 -0.26580462 -0.020135364 8 21
0.83872986 -0.38157815 -0.041342791 50 20
0.8532027 -0.26308867 -0.059391622 29 19
0.82859188 -0.38039666 0.20291507 20 30
0.86097318 -0.26697367 0.16717921 10 29
0.81975818 -0.37598827 0.13560705 50 28
0.85320413 -0.26537824 0.10481758 48 27
0.83700746 -0.38396469 0.084684223 50 26
0.8619777 -0.26840407 0.060385179 9 25
0.83979428 -0.3852579 0.041459247 4 24
0.85650271 -0.26703689 0.020019308 65 23
0.83606493 -0.3837131 0 54 22
0.8707363 -0.27176529 -0.020367472 8 21
0.8441937 -0.38764599 -0.041692164 54 20
0.85466188 -0.26680195 -0.05956427 38 19
0.82732588 -0.38314229 0.20291507 50 30
0.86477149 -0.27128398 0.16812639 8 29
0.82074594 -0.3797473 0.13599339 50 28
0.85705775 -0.26968285 0.10542346 30 27
0.82896155 -0.38358647 0.083970591 49 26
0.87060595 -0.27423257 0.061079264 10 25
0.83398438 -0.38593221 0.041226331 6 24
0.85322684 -0.26913038 0.019961281 61 23
0.83705407 -0.38753927 0 56 22
0.8579036 -0.27092052 -0.020077337 8 21
0.84064013 -0.38938832 -0.041575707 55 20
0.84901184 -0.2681455 -0.059218969 48 19
0.83479935 -0.39017445 0.20516968 68 30
0.85679442 -0.27209142 0.16670561 6 29
0.82388628 -0.38471091 0.13676608 49 28
0.84664476 -0.26968631 0.10421169 19 27
0.83437455 -0.38965306 0.084684223 46 26
0.86964333 -0.27726987 0.061079264 11 25
0.84167284 -0.39308941 0.041692164 8 24
0.84985179 -0.27150175 0.019903254 56 23
0.83569616 -0.39045873 0 53 22
0.85933542 -0.27466798 -0.020135364 8 21
0.84372652 -0.39459339 -0.041808624 54 20
0.85282612 -0.27261326 -0.05956427 50 19
0.82236284 -0.38800791 0.20235142 70 30
0.84877467 -0.27299461 0.16528483 6 29
0.82470226 -0.38878667 0.13715242 41 28
0.8527422 -0.27505356 0.10512052 10 27
0.83069235 -0.39164191 0.084446348 46 26
0.85911977 -0.27741578 0.060385179 38 25
0.84248269 -0.39724207 0.041808624 8 24
0.84413856 -0.27294189 0.019787202 54 23
0.83651799 -0.39459106 0 51 22
0.85832298 -0.27781576 -0.020135364 9 21
0.83783221 -0.39539382 -0.041575707 54 20
0.85182118 -0.27573717 -0.05956427 58 19
0.82759297 -0.39403334 0.20404238 71 30
0.85949808 -0.27972201 0.1676528 9 29
0.82334018 -0.39166307 0.13715242 14 28
0.85177684 -0.27802852 0.10512052 6 27
0.83163393 -0.39546859 0.084684223 46 26
0.86763698 -0.28348577 0.061079264 45 25
0.83883846 -0.39910221 0.041692164 9 24
0.85031325 -0.27819884 0.019961281 49 23
0.83739024 -0.39858845 0 50 22
0.85977435 -0.28143165 -0.020193391 9 21
0.8409512 -0.40047407 -0.041808624 54 20
0.8508535 -0.2787089 -0.05956427 58 19
0.83286089 -0.39995462 0.20573334 71 30
0.85389817 -0.28104866 0.16670561 9 29
0.8220368 -0.39439124 0.13715242 10 28
0.85085022 -0.28085157 0.10512052 6 27
0.82576615 -0.39620519 0.084208466 45 26
0.86432195 -0.28558531 0.060905743 49 25
0.84200817 -0.40405315 0.04192508 9 24
0.84463608 -0.27945995 0.019845227 30 23
0.83831507 -0.40245044 0 49 22
0.86591083 -0.28676921 -0.020367472 11 21
0.83961856 -0.40326056 -0.041808624 50 20
0.85229427 -0.28230664 -0.059736926 58 19
0.8292703 -0.40179208 0.20516968 73 30
0.85990524 -0.28633499 0.16812639 9 29
0.8317579 -0.40266624 0.13908415 9 28
0.85222059 -0.28459951 0.10542346 6 27
0.84003961 -0.40671369 0.085873604 13 26
0.86568725 -0.28938496 0.061079264 55 25
0.83610243 -0.40480274 0.041692164 11 24
0.84360611 -0.28255382 0.019845227 16 23
0.83465779 -0.40427911 0 48 22
0.85541666 -0.28663939 -0.020135364 11 21
0.84037942 -0.40742993 -0.04192508 53 20
0.85367054 -0.286066 -0.059909575 61 19
0.82779211 -0.40482876 0.20516968 71 30
0.85652173 -0.28870711 0.1676528 10 29
0.82805991 -0.40462235 0.1386978 10 28
0.85352486 -0.28850937 0.1057264 4 27
0.83630997 -0.40869188 0.085635729 6 26
0.8646208 -0.29255593 0.061079264 56 25
0.83909529 -0.41006804 0.04192508 14 24
0.85446143 -0.28947449 0.020135364 11 23
0.83317041 -0.40733555 0 48 22
0.85436034 -0.28977272 -0.020135364 43 21
0.83671141 -0.40925834 -0.041808624 51 20
0.85261637 -0.28919291 -0.059909575 61 19
0.82855558 -0.40879881 0.20573334 71 30
0.85783428 -0.29248098 0.16812639 11 29
0.82664245 -0.40751037 0.1386978 13 28
0.85486287 -0.29228342 0.10602934 6 27
0.84163916 -0.41477907 0.086349361 6 26
0.85887086 -0.29396975 0.060732223 59 25
0.8309471 -0.40966576 0.041575707 46 24
0.85817885 -0.29406294 0.020251418 8 23
0.83174342 -0.41024137 0 48 22
0.8604939 -0.29501694 -0.020309445 49 21
0.83080405 -0.40995574 -0.041575707 54 20
0.8539629 -0.29297024 -0.060082223 59 19
0.82937348 -0.41263434 0.206297 69 30
0.85685968 -0.29532403 0.16812639 10 29
0.82749569 -0.41135415 0.13908415 18 28
0.84215063 -0.29109544 0.10451463 6 27
0.84018618 -0.41771439 0.086349361 4 26
0.86260945 -0.29843438 0.061079264 56 25
0.83181757 -0.41353598 0.041692164 55 24
0.85010743 -0.29447222 0.020077337 6 23
0.84155738 -0.4185904 0 45 22
0.86182249 -0.29883125 -0.020367472 58 21
0.83837265 -0.4171797 -0.04204154 50 20
0.85298669 -0.29580048 -0.060082223 59 19
0.82792801 -0.41552687 0.206297 69 30
0.85118324 -0.29671001 0.16717921 11 29
0.82825994 -0.41535267 0.13947049 25 28
0.8481639 -0.29647061 0.10542346 6 27
0.84538877 -0.42400742 0.087062992 4 26
0.86391866 -0.30226094 0.061252784 51 25
0.83259863 -0.41756189 0.041808624 55 24
0.85851836 -0.30071741 0.020309445 6 23
0.83562738 -0.41927257 0 10 22
0.85369194 -0.29937565 -0.020193391 66 21
0.83691126 -0.42010364 -0.04204154 50 20
0.84959328 -0.29795718 -0.059909575 58 19
0.82647252 -0.41841435 0.206297 69 30
0.85709441 -0.30210853 0.16859999 20 29
0.82020098 -0.41488072 0.13831146 35 28
0.84712386 -0.29942948 0.10542346 8 27
0.83724952 -0.4235698 0.086349361 4 26
0.86050493 -0.30444923 0.061079264 53 25
0.82891023 -0.41933307 0.041692164 56 24
0.85505247 -0.30303347 0.020251418 6 23
0.84084249 -0.4255895 0 4 22
0.8526417 -0.30235377 -0.020193391 65 21
0.83759099 -0.42430198 -0.042158 50 20
0.84619516 -0.30009383 -0.059736926 58 19
0.82060087 -0.4192141 0.20516968 71 30
0.84672397 -0.30197513 0.16670561 31 29
0.82306939 -0.42014062 0.13908415 39 28
0.85069859 -0.3041907 0.10602934 9 27
0.84233302 -0.43004596 0.087062992 6 26
0.86173362 -0.30843523 0.061252784 50 25
0.82958931 -0.42350909 0.041808624 59 24
0.85163438 -0.30517957 0.020193391 6 23
0.83260578 -0.42524141 0 4 22
0.86094695 -0.30882713 -0.020425498 60 21
0.8338837 -0.42608166 -0.04204154 50 20
0.85448885 -0.3065365 -0.060427524 58 19
0.82345724 -0.42431769 0.206297 65 30
0.84335315 -0.30410263 0.16623202 39 29
0.81063139 -0.41733155 0.13715242 41 28
0.84028745 -0.3038089 0.10481758 10 27
0.84090227 -0.43283686 0.087062992 9 26
0.86534661 -0.31312606 0.061599825 49 25
0.83032346 -0.42755076 0.04192508 58 24
0.85526824 -0.30984038 0.020309445 6 23
0.83555579 -0.4304454 0 4 22
0.85991806 -0.31168047 -0.020425498 60 21
0.83682555 -0.43128833 -0.042274456 53 20
0.85341364 -0.30951738 -0.060427524 58 19
0.82204562 -0.42704606 0.206297 60 30
0.85157508 -0.31023332 0.16812639 38 29
0.81581151 -0.42344689 0.13831146 44 28
0.84160858 -0.30743885 0.10512052 24 27
0.84821051 -0.44037688 0.088014498 9 26
0.85961425 -0.31429368 0.061252784 48 25
0.82890105 -0.43030187 0.04192508 54 24
0.85423607 -0.31267488 0.020309445 6 23
0.82526016 -0.42858398 0 4 22
0.85412681 -0.31297305 -0.020309445 63 21
0.83539075 -0.43406099 -0.042274456 49 20
0.85238248 -0.31234568 -0.060427524 53 19
0.82701415 -0.43331963 0.20798795 58 30
0.84126371 -0.30983603 0.16623202 38 29
0.82088494 -0.42974448 0.13947049 46 28
0.84286064 -0.31122795 0.10542346 39 27
0.84666812 -0.44333497 0.088014498 9 26
0.85851192 -0.31729236 0.061252784 46 25
0.83181328 -0.43551973 0.042158 55 24
0.85543054 -0.31666511 0.020367472 6 23
0.83039469 -0.43495762 0 4 22
0.85772121 -0.31767616 -0.020425498 59 21
0.8293761 -0.43479055 -0.04204154 50 20
0.84660482 -0.31359923 -0.060082223 60 19
0.82326978 -0.43520442 0.2074243 54 30
0.84242523 -0.31376779 0.16670561 36 29
0.81712306 -0.43159151 0.13908415 46 28
0.84171426 -0.31431511 0.10542346 45 27
0.84503752 -0.44643521 0.088014498 8 26
0.85032785 -0.3178362 0.060732223 39 25
0.82800609 -0.43739396 0.04204154 56 24
0.8472904 -0.3170405 0.020193391 9 23
0.83100247 -0.43917158 0 8 22
0.85889399 -0.32168812 -0.020483525 54 21
0.83446825 -0.44120017 -0.042390916 50 20
0.84544975 -0.31670007 -0.060082223 53 19
0.82174563 -0.43807554 0.2074243 53 30
0.84592426 -0.31842342 0.1676528 33 29
0.81778872 -0.43560758 0.13947049 46 28
0.84758437 -0.31986094 0.10633228 49 27
0.8413586 -0.44806013 0.087776624 8 26
0.84921324 -0.32080248 0.060732223 18 25
0.82427299 -0.43910223 0.04192508 53 24
0.85319889 -0.32262936 0.020367472 9 23
0.8338713 -0.44443157 0 8 22
0.8578226 -0.32453451 -0.020483525 54 21
0.83512396 -0.44529045 -0.042507373 50 20
0.85134381 -0.32227939 -0.060600173 55 19
0.831002 -0.44658849 0.21024257 49 30
0.84026992 -0.31949469 0.16670561 28 29
0.82068628 -0.44066432 0.14024319 46 28
0.84187651 -0.32091472 0.1057264 54 27
0.82446104 -0.44271663 0.086111486 34 26
0.85980725 -0.32803068 0.061599825 10 25
0.82281226 -0.4418332 0.04192508 53 24
0.8474499 -0.32368591 0.020251418 19 23
0.83899152 -0.45075923 0 8 22
0.85902143 -0.32841322 -0.020541552 48 21
0.83144581 -0.44686991 -0.042390916 53 20
0.84560651 -0.32333192 -0.060254876 54 19
0.84603107 -0.32504809 0.16812639 23 29
0.82131231 -0.4447076 0.14062953 46 28
0.84306931 -0.32473716 0.10602934 53 27
0.81853944 -0.44321159 0.085635729 44 26
0.86098635 -0.33192089 0.061773345 8 25
0.82565141 -0.44709125 0.042158 50 24
0.84625787 -0.3267898 0.020251418 43 23
0.84180379 -0.45607704 0 6 22
0.85553598 -0.3305153 -0.020483525 48 21
0.83418751 -0.4523052 -0.042623833 49 20
0.84447259 -0.32628167 -0.060254876 54 19
0.85399652 -0.33167678 0.17002077 14 29
0.82833636 -0.45247152 0.1421749 45 28
0.84187347 -0.32782498 0.10602934 53 27
0.82345325 -0.44980314 0.086349361 44 26
0.85976404 -0.33507434 0.061773345 4 25
0.81744081 -0.44650745 0.041808624 48 24
0.84744287 -0.33064398 0.020309445 46 23
0.83793551 -0.45795536 0 8 22
0.85897988 -0.33545479 -0.020599579 34 21
0.83479196 -0.45641738 -0.042740289 49 20
0.84792227 -0.33117682 -0.060600173 53 19
0.85054594 -0.33376527 0.16954719 11 29
0.84534752 -0.33256614 0.10663522 50 27
0.82405519 -0.45388055 0.086587235 44 26
0.85626626 -0.33716586 0.061599825 3 25
0.8158772 -0.44935814 0.041808624 48 24
0.85093874 -0.33542076 0.020425498 49 23
0.83851862 -0.46208915 0 6 22
0.84849435 -0.33480662 -0.020367472 15 21
0.83537793 -0.46053925 -0.042856749 50 20
0.84211624 -0.33231619 -0.060254876 53 19
0.85622895 -0.33942759 0.17096797 10 29
0.84187287 -0.33460462 0.10633228 50 27
0.82037252 -0.45539775 0.086349361 44 26
0.85740387 -0.34106842 0.061773345 4 25
0.81866437 -0.45463845 0.04204154 46 24
0.84743834 -0.33747059 0.020367472 54 23
0.82817042 -0.46013623 0 41 22
0.84273082 -0.33578077 -0.020251418 10 21
0.83376521 -0.46345249 -0.042856749 50 20
0.84327036 -0.336171 -0.060427524 50 19
