# .PCD v0.7 - Point Cloud Data file format
VERSION 0.7
FIELDS x y z intensity ring
SIZE 4 4 4 4 2
TYPE F F F F U
COUNT 1 1 1 1 1
WIDTH 1228
HEIGHT 1
VIEWPOINT 0 0 0 1 0 0 0
POINTS 1228
DATA ascii
-1.6717802 0.37081778 0 83 22
-1.7277032 0.15269835 -0.039458349 72 21
-1.6650637 0.36962393 -0.077910781 76 20
-1.7191458 0.15196028 -0.11705674 71 19
-1.6698245 0.37159872 -0.15044211 79 18
-1.7295425 0.15287051 -0.19475138 68 17
-1.679981 0.37448221 -0.23429367 74 16
-1.7226683 0.15168515 -0.29542232 66 15
-1.6686827 0.37435186 -0.47942099 55 13
-1.7243308 0.15154421 -0.38845521 62 14
-1.6704764 0.37656385 -0.58022624 59 12
-1.7227684 0.14755696 -0.68518502 60 11
-1.6698006 0.38212907 -0.89111745 75 9
-1.7303336 0.14641142 -0.79927731 67 10
-1.5976293 0.36838701 -0.96990061 38 8
-0.79822838 0.065611556 -0.51845735 51 7
-0.70246291 0.16278863 -0.52254522 72 6
-0.63200831 0.050234325 -0.50720733 90 5
-0.35259226 0.081877507 -0.31268138 46 4
-0.25859359 0.021272238 -0.23834558 90 3
-0.23222761 0.053942859 -0.24041823 51 2
-0.29304805 0.022430588 -0.34006488 7 1
-0.29314899 0.069777504 -0.37495875 8 0
-1.7213277 0.15341607 0.45180741 58 31
-1.6591729 0.37435427 0.38553864 70 30
-1.724146 0.15515517 0.32725447 64 29
-1.6581173 0.37352499 0.26039642 73 28
-1.7177736 0.15607756 0.20630279 67 27
-1.672828 0.37687159 0.160567 77 26
-1.7286099 0.1576488 0.11834107 69 25
-1.6712008 0.37650904 0.078260154 74 24
-1.7172581 0.15722793 0.039226241 72 23
-1.6704756 0.37665114 0 74 22
-1.7246706 0.15850301 -0.039400321 72 21
-1.6637633 0.37543386 -0.077910781 76 20
-1.7161211 0.15773557 -0.1168841 70 19
-1.6685171 0.37742525 -0.15044211 77 18
-1.7289984 0.1589068 -0.19475138 67 17
-1.673835 0.37924355 -0.23360558 72 16
-1.7245812 0.15791851 -0.29585171 64 15
-1.6673658 0.38017437 -0.47942099 58 13
-1.7165098 0.15690735 -0.38678083 62 14
-1.6691517 0.38239262 -0.58022624 56 12
-1.719934 0.15336725 -0.68424767 58 11
-1.6706063 0.38845849 -0.89228994 72 9
-1.7253032 0.15206003 -0.79715157 67 10
-1.588004 0.37199712 -0.96472782 35 8
-0.80005801 0.068567134 -0.5198586 56 7
-0.69802165 0.16431445 -0.51951599 62 6
-0.63373131 0.052589186 -0.50882262 90 5
-0.35932708 0.084819756 -0.31959143 44 4
-0.25509796 0.021922436 -0.23470671 90 3
-0.23360552 0.055142839 -0.2423263 56 2
-0.28843379 0.02314109 -0.33409885 8 1
-0.29571214 0.071508422 -0.37903443 8 0
-1.7231594 0.1599438 0.45245194 56 31
-1.6554166 0.37988505 0.38497499 68 30
-1.7211212 0.16124795 0.32678086 65 29
-1.6591439 0.38015461 0.26078278 76 28
-1.7171899 0.16237246 0.20630279 68 27
-1.6690103 0.38244128 0.16032912 76 26
-1.7280204 0.1639834 0.11834107 69 25
-1.667376 0.38207087 0.078143694 76 24
-1.7141818 0.16328748 0.039168216 72 23
-1.6690838 0.38277122 0 77 22
-1.7215897 0.16458882 -0.039342295 72 21
-1.6623762 0.38152933 -0.077910781 76 20
-1.7155313 0.1640244 -0.1168841 70 19
-1.6671226 0.38353813 -0.15044211 76 18
-1.730877 0.16547571 -0.19503568 67 17
-1.6700214 0.38481677 -0.23326153 70 16
-1.7239909 0.16423836 -0.29585171 64 15
-1.6706425 0.387375 -0.48079664 59 13
-1.713497 0.16297041 -0.38622272 62 14
-1.6654387 0.38796866 -0.579409 56 12
-1.7216684 0.15988095 -0.68518502 55 11
-1.6670233 0.39406803 -0.89111745 74 9
-1.720227 0.15797552 -0.79502583 64 10
nan nan nan 0 8
-0.80598974 0.072030656 -0.52406234 55 7
-0.69161654 0.1654626 -0.51497209 46 6
-0.62782919 0.054443531 -0.5039767 90 5
-0.36603031 0.087873898 -0.32650155 46 4
-0.26014417 0.02325457 -0.24016501 90 3
-0.23340185 0.055998676 -0.2423263 60 2
-0.29590201 0.024746273 -0.34404227 8 1
-0.29404509 0.072232604 -0.37699658 8 0
-1.7177812 0.16550145 0.4511629 58 31
-1.6540805 0.38566121 0.38497499 72 30
-1.7229916 0.16748881 0.32725447 64 29
-1.6578069 0.38594377 0.26078278 74 28
-1.7092025 0.16764945 0.20539397 68 27
-1.667733 0.38797382 0.16032912 78 26
-1.7274374 0.17001431 0.11834107 69 25
-1.6684638 0.38845816 0.078260154 76 24
-1.7136015 0.16927008 0.039168216 72 23
-1.6628695 0.38745415 0 78 22
-1.718547 0.17005433 -0.039284267 72 21
-1.658603 0.38675949 -0.077794321 76 20
-1.7149484 0.17001173 -0.1168841 70 19
-1.6682655 0.38963383 -0.15066564 76 18
-1.730289 0.1715166 -0.19503568 68 17
-1.6711466 0.3909198 -0.23360558 73 16
-1.7209557 0.17001659 -0.29542232 64 15
-1.6692802 0.39320424 -0.48079664 56 13
-1.7153727 0.16888693 -0.38678083 62 14
-1.6640742 0.39377972 -0.579409 55 12
-1.7188214 0.16537082 -0.68424767 55 11
-1.6657073 0.39959392 -0.89111745 73 9
-1.7241709 0.16440204 -0.79715157 67 10
nan nan nan 0 8
-0.80779558 0.075028054 -0.52546358 62 7
-0.69492638 0.1687074 -0.51800138 46 6
-0.637151 0.057336777 -0.51205325 90 5
-0.36748958 0.089527451 -0.32822907 47 4
-0.25322974 0.023564707 -0.23288728 90 3
-0.23634455 0.057573598 -0.24614246 73 2
-0.29128647 0.02538345 -0.3380762 6 1
-0.29660746 0.073934957 -0.38107225 8 0
-1.7148188 0.17096078 0.45051837 56 31
-1.6575311 0.39227232 0.38610229 70 30
-1.7224267 0.17320155 0.32725447 64 29
-1.658921 0.39201024 0.26116911 72 28
-1.7135756 0.17381026 0.20599985 68 27
-1.6639473 0.39321747 0.16009125 76 26
-1.7268641 0.17574178 0.11834107 69 25
-1.6671665 0.39398885 0.078260154 77 24
-1.7155175 0.17520206 0.039226241 72 23
-1.6640077 0.39354482 0 78 22
-1.7229162 0.17655469 -0.039400321 72 21
-1.6597406 0.39283583 -0.077910781 78 20
-1.7168565 0.1759485 -0.11705674 70 19
-1.6644734 0.39487693 -0.15044211 77 18
-1.7272395 0.17700379 -0.19475138 68 17
-1.6745887 0.39790189 -0.23429367 72 16
-1.7179322 0.17547582 -0.29499292 64 15
-1.6679671 0.39873761 -0.48079664 53 13
-1.7147727 0.17487368 -0.38678083 62 14
-1.6673524 0.40040538 -0.58104342 55 12
-1.7182337 0.17136963 -0.68424767 55 11
-1.6643025 0.40540588 -0.89111745 73 9
-1.7213639 0.16989984 -0.7960887 64 10
nan nan nan 0 8
-0.80754226 0.077706389 -0.52546358 63 7
-0.68661541 0.16920069 -0.51194286 45 6
-0.63314587 0.059222594 -0.50882262 90 5
-0.36892596 0.091256045 -0.32995659 49 4
-0.2582714 0.024880696 -0.23834558 90 3
-0.2345787 0.05799216 -0.24423438 65 2
-0.29572672 0.026759826 -0.34404227 6 1
-0.29494712 0.074601136 -0.37903443 8 0
-1.7166147 0.1771901 0.4511629 56 31
-1.6537843 0.3974835 0.38553864 72 30
-1.7169279 0.17871162 0.3263073 66 29
-1.6551415 0.39721906 0.26078278 77 28
-1.7080218 0.17927966 0.20539397 70 27
-1.6625646 0.39902332 0.16009125 77 26
-1.721279 0.18125327 0.11799403 72 25
-1.665781 0.39980596 0.078260154 79 24
-1.7148638 0.18148857 0.039226241 74 23
-1.6626238 0.39935091 0 80 22
-1.7173179 0.18204784 -0.039284267 74 21
-1.6631442 0.4000909 -0.078143694 80 20
-1.7137514 0.18168099 -0.1168841 72 19
-1.6630849 0.40068462 -0.15044211 77 18
-1.7290494 0.18359202 -0.19503568 68 17
-1.6707832 0.4031609 -0.23394962 74 16
-1.7197269 0.18202689 -0.29542232 66 15
-1.6664945 0.40484834 -0.48079664 58 13
-1.711728 0.18060611 -0.38622272 64 14
-1.6658736 0.40651387 -0.58104342 58 12
-1.717594 0.17766611 -0.68424767 60 11
-1.6671624 0.41227895 -0.89346248 74 9
-1.7184783 0.17598072 -0.79502583 66 10
-1.2256414 0.30488309 -0.74229723 101 8
-0.81137371 0.081063256 -0.52826607 71 7
-0.69177359 0.1731859 -0.5164867 46 6
-0.6310246 0.061366878 -0.50720733 90 5
-0.3843343 0.096682556 -0.34550428 50 4
-0.25476256 0.025526486 -0.23470671 90 3
-0.23749885 0.059633706 -0.24805054 70 2
-0.29109737 0.027467182 -0.3380762 7 1
-0.29607084 0.076055519 -0.38107225 8 0
-1.7159538 0.18348061 0.4511629 56 31
-1.6546818 0.40412322 0.38610229 74 30
-1.7187022 0.18526284 0.32678086 67 29
-1.6536745 0.40328282 0.26078278 77 28
-1.7122879 0.18606779 0.20599985 70 27
-1.665925 0.40629983 0.160567 80 26
-1.7230829 0.18782762 0.11816755 72 25
-1.6618792 0.40531385 0.078143694 77 24
-1.70925 0.18693708 0.039110187 74 23
-1.6587211 0.40484613 0 80 22
-1.7141544 0.18807183 -0.039226241 75 21
-1.6568871 0.40470251 -0.077910781 77 20
-1.713074 0.18796098 -0.1168841 72 19
-1.6591872 0.4061822 -0.15021856 80 18
-1.7234592 0.18909162 -0.19446707 68 17
-1.6644858 0.4080964 -0.23326153 75 16
-1.719081 0.18802875 -0.29542232 64 15
-1.6627384 0.41008446 -0.48010883 54 13
-1.7134774 0.18713976 -0.38678083 63 14
-1.6644446 0.41232637 -0.58104342 58 12
-1.7169633 0.18366055 -0.68424767 58 11
-1.6613588 0.4173049 -0.89111745 75 9
-1.7201041 0.1822132 -0.7960887 66 10
-1.1706605 0.29543832 -0.70867407 105 8
-0.813146 0.084100977 -0.52966726 77 7
-0.69309086 0.17609623 -0.51800138 47 6
-0.63270587 0.063751735 -0.50882262 90 5
-0.38574237 0.098482415 -0.34723181 51 4
-0.2478423 0.02579047 -0.22742899 90 3
-0.23571821 0.060086526 -0.24614246 62 2
-0.29099971 0.028483134 -0.3380762 7 1
-0.29999694 0.078224711 -0.38718569 8 0
-1.7129016 0.18920758 0.45051837 59 31
-1.6532611 0.40989667 0.38610229 74 30
-1.715605 0.19099303 0.3263073 64 29
-1.6498598 0.40845603 0.26039642 74 28
-1.7140945 0.19231683 0.20630279 68 27
-1.6645685 0.41182199 0.160567 78 26
-1.7199379 0.19356573 0.11799403 70 25
-1.6653008 0.412319 0.078376614 76 24
-1.7085872 0.19290233 0.039110187 72 23
-1.6597235 0.41123804 0 77 22
-1.7160051 0.19403245 -0.039284267 74 21
-1.6578875 0.41108784 -0.078027233 78 20
-1.709929 0.19366243 -0.11671145 70 19
-1.660247 0.41228524 -0.15044211 78 18
-1.7252573 0.19538249 -0.19475138 67 17
-1.6679277 0.41481525 -0.23394962 73 16
-1.7159666 0.19375551 -0.29499292 64 15
-1.6612968 0.41588601 -0.48010883 60 13
-1.7128474 0.19282082 -0.38678083 60 14
-1.6607046 0.41755465 -0.58022624 55 12
-1.7117368 0.18885177 -0.68237299 56 11
-1.6621046 0.42335981 -0.89228994 73 9
-1.7172079 0.18797357 -0.79502583 64 10
-1.1634592 0.29771486 -0.70479447 105 8
-0.81284744 0.086938873 -0.52966726 82 7
-0.68865454 0.17738757 -0.51497209 45 6
-0.6362884 0.066227205 -0.51205325 90 5
-0.38715997 0.10022571 -0.34895933 50 4
-0.25458291 0.027259994 -0.23470671 90 3
-0.23551765 0.060867868 -0.24614246 51 2
-0.29090366 0.029447969 -0.3380762 6 1
-0.2997359 0.07921911 -0.38718569 8 0
-1.7122647 0.19488673 0.45051837 58 31
-1.6589766 0.41716802 0.38779324 70 30
-1.7149622 0.19668113 0.3263073 65 29
-1.6508912 0.41452956 0.26078278 74 28
-1.7060508 0.19715586 0.20539397 68 27
-1.6631209 0.41762993 0.160567 78 26
-1.7217644 0.19955182 0.11816755 70 25
-1.6615031 0.41722772 0.078260154 76 24
-1.7079381 0.19856717 0.039110187 72 23
-1.6607746 0.41735205 0 78 22
-1.7153174 0.20002122 -0.039284267 74 21
-1.6565151 0.41658333 -0.078027233 76 20
-1.7142326 0.19990242 -0.11705674 70 19
-1.6587976 0.41807812 -0.15044211 78 18
-1.7221322 0.20081839 -0.19446707 67 17
-1.6640697 0.42002577 -0.23360558 73 16
-1.7153147 0.1994448 -0.29499292 64 15
-1.6622373 0.42198724 -0.48079664 59 13
-1.7073218 0.19824348 -0.38566458 59 14
-1.6615994 0.42364621 -0.58104342 56 12
-1.7133702 0.19508445 -0.68331033 55 11
-1.6606168 0.42915908 -0.89228994 72 9
-1.7143263 0.19341673 -0.79396296 65 10
nan nan nan 0 8
-0.8063786 0.088973865 -0.52546358 88 7
-0.69187617 0.18080984 -0.51800138 46 6
-0.63605332 0.068447858 -0.51205325 90 5
-0.38855252 0.10204729 -0.35068685 51 4
-0.24936731 0.027644774 -0.22924842 90 3
-0.23530374 0.061689608 -0.24614246 56 2
-0.29079908 0.03046323 -0.3380762 6 1
-0.29806235 0.079876661 -0.38514787 8 0
-1.7043759 0.20002833 0.44858482 58 31
-1.6527919 0.42174578 0.38666594 72 30
-1.7167033 0.20295094 0.32678086 66 29
-1.6494341 0.42028973 0.26078278 79 28
-1.7053521 0.20310989 0.20539397 71 27
-1.6568313 0.42219746 0.16009125 80 26
-1.7185805 0.2052684 0.11799403 72 25
-1.6576173 0.42240515 0.078143694 77 24
-1.7071989 0.20482571 0.039110187 74 23
-1.6593076 0.42314669 0 83 22
-1.707163 0.20512369 -0.039110187 77 21
-1.6525583 0.42203093 -0.077910781 77 20
-1.7085712 0.20529698 -0.11671145 72 19
-1.6573282 0.42386582 -0.15044211 79 18
-1.7238511 0.20742218 -0.19475138 68 17
-1.6625932 0.42583194 -0.23360558 75 16
-1.7145722 0.20573039 -0.29499292 66 15
-1.6606793 0.42807677 -0.48079664 59 13
-1.7090394 0.20448795 -0.38622272 63 14
-1.6554626 0.42854315 -0.579409 58 12
-1.7080395 0.2008286 -0.6814357 58 11
-1.6569737 0.43439022 -0.89111745 75 9
-1.7068619 0.19892323 -0.79077435 70 10
nan nan nan 0 8
-0.80810493 0.092156351 -0.52686483 88 7
-0.68544692 0.18179411 -0.51345748 45 6
-0.63390088 0.070576228 -0.51043797 90 5
-0.39689079 0.10585649 -0.35932446 50 4
-0.25438133 0.029081039 -0.23470671 90 3
-0.23353085 0.062077291 -0.24423438 54 2
-0.29520911 0.031968419 -0.34404227 7 1
-0.30334261 0.08254195 -0.39329916 9 0
-1.7084279 0.2068475 0.44987386 59 31
-1.6535921 0.42841467 0.38722959 72 30
-1.7110738 0.20865437 0.32583368 65 29
-1.6454921 0.42571059 0.26039642 74 28
-1.7045962 0.20935895 0.20539397 69 27
-1.6600897 0.42952019 0.160567 79 26
-1.7128651 0.21096325 0.11764698 69 25
-1.6560581 0.42847779 0.078143694 77 24
-1.7039926 0.21048085 0.039052162 73 23
-1.6553261 0.42859578 0 78 22
-1.7088805 0.21168311 -0.039168216 73 21
-1.6534917 0.42842633 -0.078027233 76 20
-1.7102827 0.21186091 -0.1168841 70 19
-1.6581728 0.43056631 -0.15066564 77 18
-1.7181859 0.21283463 -0.19418277 67 17
-1.663417 0.432549 -0.23394962 73 16
-1.7113988 0.21141565 -0.29456353 64 15
-1.659175 0.43387106 -0.48079664 54 13
-1.7058594 0.21045564 -0.38566458 58 14
-1.6608098 0.43612856 -0.58186066 56 12
-1.7096292 0.20706476 -0.68237299 56 11
-1.6575031 0.4410311 -0.89228994 73 9
-1.7128983 0.20567913 -0.79396296 64 10
nan nan nan 0 8
-0.80572128 0.094741866 -0.52546358 88 7
-0.68288934 0.18366218 -0.51194286 45 6
-0.6374439 0.073206633 -0.51366854 90 5
-0.37910578 0.10240891 -0.34204921 49 4
-0.24745804 0.029248374 -0.22742899 90 3
-0.23019275 0.062054805 -0.24041823 50 2
-0.28755897 0.032239784 -0.33409885 6 1
-0.31279933 0.086387768 -0.40756389 19 0
-1.7100929 0.21310498 0.45051837 56 31
-1.6473769 0.43293983 0.38610229 73 30
-1.707899 0.21432371 0.32536009 65 29
-1.6463845 0.432082 0.26078278 69 28
-1.703855 0.21530782 0.20539397 69 27
-1.6561741 0.43467748 0.16032912 78 26
-1.7145932 0.21725097 0.11782051 70 25
-1.6545523 0.43425593 0.078143694 77 24
-1.7007675 0.21611609 0.038994133 73 23
-1.6562372 0.43500954 0 81 22
-1.7031718 0.21702215 -0.039052162 76 21
-1.6519861 0.43419549 -0.078027233 78 20
-1.7045839 0.21720618 -0.11653879 70 19
-1.6518457 0.43507713 -0.15021856 77 18
-1.7174324 0.21883091 -0.19418277 68 17
-1.6595036 0.43771815 -0.23360558 74 16
-1.7082068 0.21708131 -0.29413414 64 15
-1.6599729 0.44027925 -0.4814845 59 13
-1.7002785 0.21580228 -0.38454834 59 14
-1.6547127 0.44070101 -0.58022624 56 12
-1.7111962 0.21331446 -0.68331033 55 11
-1.6538228 0.44623601 -0.89111745 74 9
-1.7076776 0.21110861 -0.79183722 67 10
nan nan nan 0 8
-0.81155431 0.098279521 -0.52966726 85 7
-0.68224406 0.18604478 -0.51194286 45 6
-0.63528854 0.0752156 -0.51205325 90 5
-0.36656874 0.10030644 -0.32995659 44 4
-0.25076327 0.03048411 -0.23106785 90 3
-0.23308067 0.063746803 -0.24423438 58 2
-0.29045832 0.033557441 -0.3380762 6 1
-0.31388685 0.087882191 -0.40960172 29 0
-1.704546 0.21846586 0.44922933 58 31
-1.6458555 0.43868762 0.38610229 68 30
-1.7095754 0.22059473 0.32583368 65 29
-1.6448661 0.43782631 0.26078278 76 28
-1.7055544 0.22157027 0.20569691 69 27
-1.6547235 0.4401671 0.16032912 78 26
-1.7113507 0.22291608 0.11764698 70 25
-1.6554388 0.44067422 0.078260154 77 24
-1.7024816 0.22237174 0.039052162 73 23
-1.6547087 0.44078824 0 81 22
-1.7098787 0.22363071 -0.039226241 76 21
-1.6504605 0.43995935 -0.078027233 78 20
-1.7038153 0.22315496 -0.11653879 70 19
-1.6503937 0.44055247 -0.15021856 78 18
-1.7166581 0.22482453 -0.19418277 67 17
-1.6628257 0.44450402 -0.23429367 72 16
-1.7098811 0.22335821 -0.29456353 64 15
-1.6584259 0.44607097 -0.4814845 56 13
-1.7068044 0.22237344 -0.38622272 59 14
-1.6531644 0.44647434 -0.58022624 54 12
-1.7058809 0.21840608 -0.6814357 56 11
-1.652334 0.45171785 -0.89111745 73 9
-1.7091756 0.21735027 -0.79290009 65 10
nan nan nan 0 8
-0.81737238 0.10185904 -0.533871 81 7
-0.68353862 0.18884268 -0.51345748 45 6
-0.64072102 0.077987753 -0.51689917 85 5
-0.35233027 0.097560875 -0.31613642 38 4
-0.25406837 0.031698927 -0.23470671 90 3
-0.22821353 0.063170657 -0.23851015 55 2
-0.29637054 0.035168607 -0.34603095 6 1
-0.33443823 0.095037706 -0.44016898 24 0
-1.7038121 0.22411713 0.44922933 58 31
-1.6420412 0.44350484 0.38553864 72 30
-1.7112684 0.22658138 0.3263073 67 29
-1.6434051 0.44327843 0.26078278 77 28
-1.6998897 0.22657619 0.20509103 69 27
-1.6579808 0.44724301 0.16080487 78 26
-1.710602 0.22858988 0.11764698 70 25
-1.6539682 0.44616139 0.078260154 77 24
-1.7042123 0.22834456 0.039110187 73 23
-1.6532378 0.446273 0 78 22
-1.7066102 0.22926866 -0.039168216 73 21
-1.6514026 0.44608438 -0.078143694 78 20
-1.7030659 0.2288038 -0.11653879 70 19
-1.6488459 0.44631073 -0.15021856 78 18
-1.7134409 0.23018871 -0.19389845 67 17
-1.6588748 0.44965473 -0.23394962 72 16
-1.7066896 0.22870359 -0.29413414 64 15
-1.6546195 0.45093295 -0.48079664 58 13
-1.7011861 0.22769038 -0.38510644 60 14
-1.6539526 0.4525806 -0.58104342 56 12
-1.7028099 0.22406046 -0.68049836 58 11
-1.652874 0.45807546 -0.89228994 73 9
-1.7106897 0.22330639 -0.79396296 65 10
nan nan nan 0 8
-0.81703007 0.10456899 -0.533871 86 7
-0.68096191 0.19068432 -0.51194286 42 6
-0.63476187 0.079538107 -0.51205325 81 5
-0.35372376 0.09929128 -0.31786394 37 4
-0.25054997 0.032190282 -0.23106785 90 3
-0.23264137 0.065331839 -0.24423438 56 2
-0.29624596 0.036202919 -0.34603095 8 1
-0.32716343 0.094141915 -0.42997989 41 0
-1.7054137 0.23038308 0.44987386 58 31
-1.6451796 0.45052671 0.38666594 73 30
-1.7104671 0.23255344 0.3263073 65 29
-1.6442294 0.44966695 0.26116911 76 28
-1.6990885 0.23250853 0.20509103 69 27
-1.6540099 0.45236808 0.160567 79 26
-1.7097937 0.2345596 0.11764698 72 25
-1.6524007 0.4519321 0.078260154 77 24
-1.6984111 0.23391432 0.038994133 73 23
-1.6492594 0.45137811 0 81 22
-1.703323 0.23488656 -0.039110187 76 21
-1.6497564 0.4521341 -0.078143694 78 20
-1.7022568 0.23474723 -0.11653879 70 19
-1.654479 0.45404977 -0.15088919 77 18
-1.7150466 0.2368035 -0.19418277 67 17
-1.6549083 0.45478332 -0.23360558 67 16
-1.7082802 0.2352899 -0.29456353 64 15
-1.6529554 0.45699447 -0.48079664 59 13
-1.7003809 0.23362726 -0.38510644 62 14
-1.6545587 0.45927459 -0.58186066 55 12
-1.7019773 0.23030007 -0.68049836 56 11
-1.6555147 0.46504247 -0.89463496 73 9
-1.7076163 0.22927718 -0.79290009 64 10
nan nan nan 0 8
-0.81048071 0.10677256 -0.52966726 86 7
-0.68408108 0.19427936 -0.51497209 44 6
-0.64014661 0.08257062 -0.51689917 82 5
-0.33948243 0.096527077 -0.30404377 36 4
-0.25383505 0.033516176 -0.23470671 90 3
-0.23241189 0.066143513 -0.24423438 50 2
-0.29611129 0.037288472 -0.34603095 6 1
-0.32820287 0.095758013 -0.43201771 28 0
-1.7021649 0.23630351 0.44922933 59 31
-1.6435174 0.45655358 0.38666594 73 30
-1.7047399 0.23814881 0.32536009 67 29
-1.6401911 0.45502698 0.26078278 79 28
-1.6982248 0.23873444 0.20509103 75 27
-1.6547379 0.45909569 0.16080487 81 26
-1.7089225 0.24082473 0.11764698 74 25
-1.6507332 0.45798543 0.078260154 79 24
-1.695109 0.23949537 0.038936108 75 23
-1.6500021 0.4580918 0 83 22
-1.7049258 0.24147494 -0.039168216 77 21
-1.6457628 0.4572185 -0.078027233 80 20
-1.6964452 0.24029225 -0.1161935 74 19
-1.6504059 0.45943978 -0.15066564 80 18
-1.7142097 0.24278869 -0.19418277 68 17
-1.6532303 0.4608458 -0.23360558 66 16
-1.7050093 0.24091046 -0.29413414 67 15
-1.6513501 0.46276155 -0.48079664 60 13
-1.6970998 0.23952086 -0.38454834 60 14
-1.6506717 0.46440434 -0.58104342 58 12
-1.7034591 0.23655504 -0.6814357 58 11
-1.6516763 0.47049919 -0.89346248 75 9
-1.7045635 0.23493092 -0.79183722 67 10
nan nan nan 0 8
-0.81831354 0.1106834 -0.53527224 87 7
-0.6776706 0.19499537 -0.51042825 45 6
-0.63606918 0.084320411 -0.51366854 83 5
-0.33048028 0.095143735 -0.29540616 38 4
-0.25201488 0.034192182 -0.23288728 90 3
-0.22907469 0.066062763 -0.24041823 58 2
-0.29597932 0.038321864 -0.34603095 7 1
-0.30847353 0.090988807 -0.40348825 16 0
-1.6989378 0.24190676 0.44858482 60 31
-1.6395701 0.46162459 0.38610229 76 30
-1.7063287 0.24444264 0.32583368 67 29
-1.6409695 0.46142122 0.26116911 76 28
-1.6973813 0.2446609 0.20509103 69 27
-1.6483356 0.46351546 0.16032912 81 26
-1.7056026 0.2464354 0.11747347 72 25
-1.6515278 0.46442387 0.078376614 77 24
-1.6942627 0.24541095 0.038936108 73 23
-1.6483929 0.46384862 0 81 22
-1.7015986 0.24706915 -0.039110187 73 21
-1.6465597 0.46364045 -0.078143694 78 20
-1.6980648 0.24656732 -0.11636614 73 19
-1.648792 0.46519801 -0.15066564 77 18
-1.7084347 0.2480641 -0.19361414 68 17
-1.6563758 0.46796647 -0.23429367 64 16
-1.7041581 0.24686058 -0.29413414 67 15
-1.6520362 0.46918276 -0.4814845 60 13
-1.7010779 0.2461343 -0.38566458 62 14
-1.6490406 0.47016343 -0.58104342 58 12
-1.7026229 0.24249977 -0.6814357 58 11
-1.6500239 0.47626176 -0.89346248 69 9
-1.7059741 0.24119292 -0.79290009 65 10
nan nan nan 0 8
-0.81792217 0.11353917 -0.53527224 87 7
-0.67889315 0.19792324 -0.51194286 44 6
-0.63766277 0.086788915 -0.51528388 74 5
-0.34745422 0.1014927 -0.31268138 37 4
-0.25359488 0.035287447 -0.23470671 90 3
-0.23193264 0.06780491 -0.24423438 54 2
-0.29734761 0.039538108 -0.34801963 6 1
-0.31368899 0.093774147 -0.41163954 9 0
-1.6980829 0.24783568 0.44858482 58 31
-1.6402899 0.46801627 0.38666594 73 30
-1.703036 0.25004426 0.32536009 68 29
-1.6393489 0.46714646 0.26116911 77 28
-1.6940613 0.25022528 0.20478809 73 27
-1.6467894 0.468979 0.16032912 79 26
-1.7047321 0.25238755 0.11747347 74 25
-1.6522973 0.47087348 0.078493066 76 24
-1.6933959 0.25132349 0.038936108 74 23
-1.6467638 0.46959972 0 81 22
-1.6982974 0.25234669 -0.039052162 76 21
-1.6473317 0.47007352 -0.078260154 78 20
-1.6947263 0.2521297 -0.1161935 72 19
-1.6472403 0.47066304 -0.15066564 78 18
-1.7100155 0.25438812 -0.19389845 67 17
-1.6500552 0.47208825 -0.23360558 67 16
-1.7032859 0.25280768 -0.29413414 67 15
-1.6550061 0.47628197 -0.48286018 59 13
-1.6978412 0.25142047 -0.38510644 63 14
-1.6473893 0.4759168 -0.58104342 58 12
-1.6995155 0.24781358 -0.68049836 58 11
-1.6463171 0.48110855 -0.89228994 73 9
-1.7028819 0.24682523 -0.79183722 65 10
nan nan nan 0 8
-0.81547016 0.11610865 -0.533871 83 7
-0.68204427 0.20131323 -0.51497209 42 6
-0.63169855 0.088138014 -0.51043797 81 5
-0.36094838 0.10684701 -0.32650155 37 4
-0.25687686 0.036571044 -0.23834558 90 3
-0.23016313 0.06809707 -0.2423263 53 2
-0.29571164 0.040335625 -0.34603095 6 1
-0.30922937 0.093518265 -0.40552607 6 0
-1.6948624 0.25311208 0.44794029 56 31
-1.641068 0.47413224 0.38722959 74 30
-1.6997694 0.25532919 0.3248865 69 29
-1.6330463 0.47120446 0.26039642 77 28
-1.6932223 0.25584161 0.20478809 70 27
-1.6475326 0.47541755 0.160567 79 26
-1.706352 0.25840917 0.11764698 74 25
-1.6483283 0.47565463 0.078376614 77 24
-1.6900815 0.25656605 0.03887808 74 23
-1.6451974 0.47505802 0 81 22
-1.6974062 0.25827333 -0.039052162 76 21
-1.6433657 0.47483739 -0.078143694 78 20
-1.693881 0.25774825 -0.1161935 73 19
-1.6455874 0.47641012 -0.15066564 79 18
-1.7067066 0.25968722 -0.19361414 69 17
-1.653152 0.47923011 -0.23429367 67 16
-1.7024381 0.25845459 -0.29413414 67 15
-1.6488042 0.4804168 -0.4814845 59 13
-1.6969532 0.2573455 -0.38510644 63 14
-1.6480689 0.48204342 -0.58186066 55 12
-1.6986402 0.25374448 -0.68049836 58 11
-1.646744 0.48748204 -0.89346248 77 9
-1.7042929 0.25279942 -0.79290009 64 10
nan nan nan 0 8
-0.8150807 0.1188122 -0.533871 81 7
-0.67753029 0.20253971 -0.51194286 40 6
-0.64083737 0.091650501 -0.51851451 83 5
-0.36920935 0.11076313 -0.33513916 45 4
-0.25504822 0.037240136 -0.23652615 90 3
-0.22838227 0.068418108 -0.24041823 59 2
-0.29256392 0.040980514 -0.34205356 8 1
-0.30475867 0.093287043 -0.3994126 6 0
-1.6963567 0.25938833 0.44858482 58 31
-1.6370662 0.47917047 0.38666594 74 30
-1.6988677 0.26126096 0.3248865 67 29
-1.6385012 0.47899038 0.26155546 78 28
-1.6923188 0.26175049 0.20478809 73 27
-1.6434753 0.48046425 0.16032912 81 26
-1.7054396 0.26436388 0.11764698 74 25
-1.6490541 0.48210934 0.078493066 77 24
-1.6916 0.26313943 0.038936108 74 23
-1.6435292 0.48079792 0 81 22
-1.6964943 0.26419678 -0.039052162 76 21
-1.6416143 0.48085743 -0.078143694 78 20
-1.692971 0.26365942 -0.1161935 73 19
-1.6486911 0.48355913 -0.15111272 78 18
-1.7057433 0.26594087 -0.19361414 69 17
-1.6514691 0.48499778 -0.23429367 67 16
-1.7014796 0.26469263 -0.29413414 67 15
-1.6493365 0.48714057 -0.48217231 59 13
-1.6912273 0.26252681 -0.3839902 64 14
-1.6440268 0.48740605 -0.58104342 58 12
-1.6931159 0.25927386 -0.67862368 58 11
-1.6429182 0.49259019 -0.89228994 74 9
-1.6966422 0.25803384 -0.78971148 67 10
nan nan nan 0 8
-0.81259108 0.1214996 -0.53246975 81 7
-0.67868483 0.20560512 -0.51345748 53 6
-0.64049715 0.093998671 -0.51851451 85 5
-0.39813048 0.12125637 -0.36450699 49 4
-0.25321144 0.037941106 -0.23470671 90 3
-0.23122214 0.070189588 -0.24423438 54 2
-0.29241174 0.042052537 -0.34205356 6 1
-0.30165637 0.093519926 -0.39533696 4 0
-1.6977814 0.2659744 0.44922933 58 31
-1.6352991 0.48516738 0.38666594 76 30
-1.6954734 0.26710737 0.32441291 70 29
-1.6367345 0.48499259 0.26155546 79 28
-1.6937996 0.26833621 0.20509103 75 27
-1.6464736 0.48790497 0.16080487 80 26
-1.7019957 0.27022529 0.11747347 76 25
-1.6448824 0.48743758 0.078376614 81 24
-1.6882023 0.26865336 0.03887808 77 23
-1.6465478 0.48824611 0 83 22
-1.6955146 0.27041301 -0.039052162 77 21
-1.6399258 0.48658484 -0.078143694 83 20
-1.6919932 0.26986271 -0.1161935 76 19
-1.6421361 0.48817337 -0.15066564 81 18
-1.7048047 0.27189341 -0.19361414 71 17
-1.6496805 0.49104747 -0.23429367 71 16
-1.6981125 0.27024671 -0.29370472 67 15
-1.6453242 0.49220303 -0.4814845 62 13
-1.6950684 0.26948196 -0.38510644 64 14
-1.6468393 0.49450678 -0.5826779 58 12
-1.6922004 0.26518238 -0.67862368 59 11
-1.6432136 0.49925327 -0.89346248 75 9
-1.7002039 0.26464388 -0.79183722 67 10
-0.91963542 0.28000641 -0.55995595 91 8
-0.80806684 0.12372257 -0.52966726 83 7
-0.6836611 0.20974334 -0.51800138 50 6
-0.63827699 0.095958725 -0.51689917 89 5
-0.38908789 0.11992681 -0.35586941 49 4
-0.25307748 0.038824748 -0.23470671 90 3
-0.22788686 0.070050612 -0.24041823 51 2
-0.29226315 0.043072991 -0.34205356 7 1
-0.29995042 0.094125777 -0.39329916 4 0
-1.6944571 0.27152047 0.44858482 59 31
-1.6312639 0.49016875 0.38610229 76 30
-1.6993788 0.27379796 0.32536009 67 29
-1.6326668 0.48998976 0.26116911 77 28
-1.6879523 0.27346033 0.20448515 73 27
-1.6472294 0.49408022 0.16104275 78 26
-1.7010419 0.27616474 0.11747347 74 25
-1.6455619 0.49389726 0.078493066 79 24
-1.6872543 0.27454466 0.03887808 74 23
-1.64244 0.49326849 0 81 22
-1.6946086 0.27603403 -0.039052162 76 21
-1.6382173 0.49230629 -0.078143694 78 20
-1.693503 0.27616507 -0.11636614 74 19
-1.6405083 0.49361622 -0.15066564 79 18
-1.7062972 0.27823886 -0.19389845 70 17
-1.6504129 0.49723265 -0.23463769 72 16
-1.6971587 0.27617255 -0.29370472 68 15
-1.6458954 0.49864313 -0.48217231 60 13
-1.6917595 0.27471444 -0.38454834 63 14
-1.6451031 0.50025231 -0.5826779 56 12
-1.6936009 0.27115542 -0.67956102 58 11
-1.6415489 0.50469965 -0.89346248 74 9
-1.6992697 0.2705771 -0.79183722 64 10
-0.91461563 0.28178412 -0.55736953 90 8
-0.81581604 0.12779659 -0.53527224 79 7
-0.68296182 0.21200928 -0.51800138 51 6
-0.63418084 0.097512066 -0.51366854 88 5
-0.38696647 0.120667 -0.35414189 50 4
-0.25634119 0.04015404 -0.23834558 90 3
-0.23072648 0.071802095 -0.24423438 54 2
-0.28611693 0.043204844 -0.33409885 6 1
-0.29826051 0.094668806 -0.39126134 4 0
-1.6935475 0.27713799 0.44858482 58 31
-1.6366174 0.49771059 0.38779324 74 30
-1.6960386 0.27903679 0.3248865 68 29
-1.6333954 0.49612215 0.26155546 77 28
-1.6845872 0.27865481 0.20418221 73 27
-1.6431144 0.49910077 0.16080487 81 26
-1.6976558 0.28139976 0.11729994 74 25
-1.6439151 0.49935144 0.078493066 79 24
-1.6888007 0.28054431 0.038936108 74 23
-1.6455773 0.5001725 0 81 22
-1.6936347 0.28194764 -0.039052162 76 21
-1.6365758 0.4977361 -0.078143694 78 20
-1.6876564 0.28096732 -0.11602084 73 19
-1.6363943 0.49861085 -0.15044211 79 18
-1.7004638 0.28308684 -0.19332983 70 17
-1.6462998 0.50226504 -0.23429367 65 16
-1.6986637 0.28219914 -0.29413414 67 15
-1.6442327 0.50409836 -0.48217231 59 13
-1.6931947 0.28101358 -0.38510644 64 14
-1.6411779 0.50500709 -0.58186066 58 12
-1.6880684 0.27632362 -0.67768639 58 11
-1.6397772 0.51042658 -0.89346248 77 9
-1.6983632 0.27621061 -0.79183722 64 10
-0.9075039 0.28304809 -0.55348992 90 8
-0.80720598 0.12921999 -0.52966726 62 7
-0.68790364 0.21620111 -0.52254522 55 6
-0.63572282 0.10001312 -0.51528388 87 5
-0.38310364 0.12090617 -0.35068685 49 4
-0.24771915 0.039793305 -0.22924842 90 3
-0.22433504 0.070593268 -0.23660207 51 2
-0.28896379 0.044632334 -0.3380762 6 1
-0.29105544 0.093429737 -0.38107225 4 0
-1.6925697 0.28304788 0.44858482 59 31
-1.6348701 0.50342041 0.38779324 74 30
-1.6974757 0.28535882 0.32536009 68 29
-1.6316537 0.50182074 0.26155546 78 28
-1.6860518 0.28494343 0.20448515 73 27
-1.6366067 0.50336391 0.16032912 81 26
-1.6991228 0.28773689 0.11747347 74 25
-1.6445479 0.50582397 0.078609534 78 24
-1.6902256 0.28714728 0.038994133 73 23
-1.636656 0.50369829 0 81 22
-1.6901754 0.28744227 -0.038994133 77 21
-1.6395116 0.50520802 -0.078376614 78 20
-1.6866653 0.28685665 -0.11602084 73 19
-1.6394006 0.50579417 -0.15088919 79 18
-1.7018639 0.28973082 -0.19361414 69 17
-1.6445366 0.5080086 -0.23429367 74 16
-1.6927607 0.28760511 -0.29327536 65 15
-1.6446687 0.51083744 -0.48286018 59 13
-1.6898003 0.28651837 -0.38454834 64 14
-1.6415707 0.51172501 -0.5826779 58 12
-1.6916173 0.28326753 -0.67956102 58 11
-1.6421955 0.51748049 -0.89580756 70 9
-1.6973393 0.28243354 -0.79183722 64 10
-0.90034497 0.28442305 -0.54961038 90 8
-0.81285977 0.1331611 -0.533871 47 7
-0.67764109 0.215671 -0.51497209 53 6
-0.63535196 0.10234249 -0.51528388 88 5
-0.38781071 0.12399469 -0.35586941 50 4
-0.25435218 0.041730065 -0.23652615 90 3
-0.22408727 0.071375906 -0.23660207 50 2
-0.28729936 0.045471132 -0.33608752 6 1
-0.29345679 0.095417798 -0.38514787 4 0
-1.6939025 0.28965321 0.44922933 58 31
-1.6306899 0.50868082 0.38722959 74 30
-1.6964184 0.2915785 0.32536009 68 29
-1.6274461 0.50705993 0.26116911 77 28
-1.6874421 0.29154021 0.20478809 73 27
-1.6395009 0.51084578 0.16080487 79 26
-1.6931407 0.29311869 0.11712643 74 25
-1.6402997 0.5111022 0.078493066 79 24
-1.6818236 0.29177445 0.038820054 74 23
-1.6395704 0.51118791 0 82 22
-1.6866478 0.29321063 -0.038936108 77 21
-1.6353551 0.51018113 -0.078260154 78 20
-1.6880604 0.29346031 -0.1161935 73 19
-1.6399114 0.51254535 -0.15111272 79 18
-1.7008423 0.2956697 -0.19361414 69 17
-1.6426636 0.51403272 -0.23429367 74 16
-1.6941737 0.2939297 -0.29370472 68 15
-1.6428756 0.51657528 -0.48286018 59 13
-1.6911404 0.29312256 -0.38510644 64 14
-1.6397743 0.51745206 -0.5826779 56 12
-1.6906182 0.28917062 -0.67956102 58 11
-1.6402878 0.52349597 -0.89580756 70 9
-1.6941118 0.28798085 -0.79077435 65 10
-0.9013828 0.28822097 -0.55090356 90 8
-0.80421746 0.13465792 -0.52826607 44 7
-0.67877507 0.21865168 -0.5164867 51 6
-0.6425274 0.10576548 -0.52174515 90 5
-0.37708178 0.12194133 -0.34550428 46 4
-0.25420496 0.042617664 -0.23652615 90 3
-0.22841778 0.073740005 -0.2423263 53 2
-0.28414261 0.04602325 -0.33211017 6 1
-0.28489432 0.09364707 -0.37292096 4 0
-1.6881208 0.29474032 0.44794029 59 31
-1.6265827 0.51363337 0.38666594 73 30
-1.6953902 0.29749832 0.32536009 69 29
-1.6280209 0.5134837 0.26155546 78 28
-1.6839696 0.29700115 0.20448515 73 27
-1.6377078 0.51656556 0.16080487 81 26
-1.6970204 0.29988807 0.11747347 74 25
-1.636125 0.51607049 0.078376614 79 24
-1.6832565 0.29807565 0.03887808 74 23
-1.637776 0.51690799 0 81 22
-1.6929984 0.30039576 -0.039110187 76 21
-1.6359447 0.51664162 -0.078376614 78 20
-1.6845694 0.29891872 -0.11602084 74 19
-1.6381122 0.5182665 -0.15111272 78 18
-1.6973535 0.30117449 -0.19332983 69 17
-1.6432188 0.52051431 -0.23463769 77 16
-1.6907115 0.29941568 -0.29327536 68 15
-1.6387727 0.52157485 -0.48217231 60 13
-1.6877068 0.29860288 -0.38454834 64 14
-1.6334587 0.52172905 -0.58104342 58 12
-1.6873146 0.29467496 -0.67862368 59 11
-1.6363503 0.52853686 -0.89463496 72 9
-1.6930963 0.29389265 -0.79077435 67 10
-0.89426959 0.28937364 -0.54702395 90 8
-0.81191033 0.13883263 -0.533871 37 7
-0.67611891 0.22039652 -0.51497209 53 6
-0.64027119 0.10769963 -0.5201298 85 5
-0.37322655 0.12210942 -0.34204921 46 4
-0.25066805 0.042966545 -0.23288728 90 3
-0.22662959 0.074017122 -0.24041823 49 2
-0.28847227 0.047706202 -0.3380762 6 1
-0.28319606 0.094170436 -0.37088314 4 0
-1.6871341 0.30033675 0.44794029 58 31
-1.6295087 0.52051282 0.38779324 74 30
-1.6943944 0.3031188 0.32536009 68 29
-1.6286612 0.51963341 0.26194182 77 28
-1.6854186 0.3030194 0.20478809 73 27
-1.6383556 0.52275306 0.16104275 81 26
-1.6911063 0.30463669 0.11712643 74 25
-1.639161 0.52301759 0.078609534 79 24
-1.6822588 0.30365586 0.03887808 76 23
-1.6360528 0.52233624 0 82 22
-1.689533 0.30556697 -0.039052162 77 21
-1.6342224 0.52206367 -0.078376614 78 20
-1.6860238 0.30494368 -0.1161935 76 19
-1.6363846 0.52369589 -0.15111272 81 18
-1.7012351 0.30767858 -0.19389845 72 17
-1.6391265 0.52520198 -0.23429367 74 16
-1.6897094 0.30502063 -0.29327536 69 15
-1.6416081 0.52848542 -0.48354799 59 13
-1.6867073 0.30419788 -0.38454834 64 14
-1.6339669 0.52787232 -0.58186066 58 12
-1.6863282 0.30026868 -0.67862368 58 11
-1.6366864 0.53464878 -0.89580756 72 9
-1.6921123 0.29950553 -0.79077435 65 10
-0.88517827 0.28965464 -0.54185116 90 8
-0.80736387 0.14082658 -0.5310685 38 7
-0.67915773 0.22389631 -0.51800138 50 6
-0.63991052 0.10982226 -0.5201298 90 5
-0.35912582 0.11871134 -0.32822907 46 4
-0.25390896 0.044346981 -0.23652615 90 3
-0.22791058 0.075293064 -0.2423263 51 2
-0.28831246 0.048662543 -0.3380762 6 1
-0.28698641 0.096534245 -0.37699658 6 0
-1.6884528 0.30665225 0.44858482 58 31
-1.6276819 0.52619767 0.38779324 76 30
-1.6909106 0.30859429 0.3248865 71 29
-1.6268375 0.52531523 0.26194182 80 28
-1.6819091 0.3084566 0.20448515 75 27
-1.6365209 0.52846885 0.16104275 84 26
-1.692486 0.31098509 0.11729994 77 25
-1.6373253 0.52873611 0.078609534 81 24
-1.6811346 0.30981961 0.03887808 77 23
-1.6342195 0.52804393 0 81 22
-1.6884561 0.3114627 -0.039052162 79 21
-1.6299229 0.52727824 -0.078260154 83 20
-1.684949 0.31082714 -0.1161935 76 19
-1.6321789 0.52863449 -0.15088919 81 18
-1.6976527 0.31346431 -0.19361414 72 17
-1.6396377 0.5316872 -0.23463769 76 16
-1.68858 0.31121171 -0.29327536 70 15
-1.6396601 0.53449869 -0.48354799 60 13
-1.6880326 0.3105211 -0.38510644 67 14
-1.6342659 0.53459507 -0.5826779 59 12
-1.6852163 0.30644736 -0.67862368 59 11
-1.6369057 0.54105455 -0.89698005 74 9
-1.6887759 0.30530626 -0.78971148 68 10
-0.88411075 0.29289699 -0.54185116 90 8
-0.8129608 0.14485373 -0.53527224 39 7
-0.67644817 0.22574767 -0.5164867 53 6
-0.63574195 0.11152457 -0.51689917 90 5
-0.36039791 0.12061246 -0.32995659 46 4
-0.25205335 0.044996392 -0.23470671 90 3
-0.22917217 0.076618314 -0.24423438 53 2
-0.28364509 0.04899621 -0.33211017 7 1
-0.28663069 0.097585455 -0.37699658 7 0
-1.6849418 0.3124018 0.44794029 59 31
-1.628056 0.53292066 0.38835692 76 30
-1.6897682 0.31478971 0.3248865 69 29
-1.6225545 0.53050375 0.26155546 78 28
-1.6832072 0.31507215 0.20478809 73 27
-1.634573 0.53446341 0.16104275 79 26
-1.6888831 0.31673005 0.11712643 74 25
-1.6330037 0.5339545 0.078493066 79 24
-1.6775858 0.31522796 0.038820054 76 23
-1.6298981 0.53324968 0 81 22
-1.6799326 0.31627241 -0.03887808 79 21
-1.6257001 0.53218454 -0.078143694 81 20
-1.6837986 0.31700069 -0.1161935 76 19
-1.6325952 0.53539205 -0.15111272 78 18
-1.6965482 0.31938836 -0.19361414 72 17
-1.6400297 0.53846872 -0.23498175 74 16
-1.6874834 0.31710404 -0.29327536 68 15
-1.6400659 0.5409748 -0.48423582 58 13
-1.6844875 0.31625977 -0.38454834 64 14
-1.6323898 0.54029649 -0.5826779 56 12
-1.6864159 0.31274715 -0.67956102 58 11
-1.6328187 0.5463469 -0.89580756 72 9
-1.6899259 0.31160629 -0.79077435 63 10
-0.88713658 0.2973519 -0.54443759 90 8
-0.80633545 0.14660032 -0.5310685 35 7
-0.67189169 0.22682168 -0.51345748 49 6
-0.6334691 0.11341533 -0.51528388 90 5
-0.35485214 0.1200949 -0.32477403 44 4
-0.25696591 0.046736404 -0.24016501 90 3
-0.22736596 0.076922022 -0.2423263 47 2
-0.28496718 0.050232142 -0.33409885 6 1
-0.29038221 0.10003994 -0.38311005 6 0
-1.6862152 0.31872663 0.44858482 58 31
-1.6261861 0.53860039 0.38835692 76 30
-1.6886591 0.32068616 0.3248865 69 29
-1.6253808 0.53772199 0.26232815 76 28
-1.6796588 0.3204841 0.20448515 73 27
-1.6326973 0.54016596 0.16104275 79 26
-1.6902175 0.32308817 0.11729994 74 25
-1.6334999 0.54043901 0.078609534 79 24
-1.6838415 0.32248169 0.038994133 77 23
-1.6327715 0.54051328 0 81 22
-1.6837287 0.32306945 -0.038994133 79 21
-1.6309414 0.54022086 -0.078493066 78 20
-1.6826817 0.3228763 -0.1161935 76 19
-1.6307164 0.54108769 -0.15111272 83 18
-1.695423 0.32530844 -0.19361414 73 17
-1.6381401 0.54419023 -0.23498175 74 16
-1.6863662 0.3229925 -0.29327536 69 15
-1.6336098 0.5451687 -0.48286018 60 13
-1.6809789 0.32168329 -0.3839902 65 14
-1.6282544 0.54523808 -0.58186066 58 12
-1.6830359 0.31820482 -0.67862368 58 11
-1.6309016 0.5520432 -0.89580756 72 9
-1.6888279 0.31750333 -0.79077435 65 10
-0.87799549 0.29767746 -0.53926474 90 8
-0.80174488 0.14867295 -0.52826607 36 7
-0.68049544 0.23241316 -0.5210306 47 6
-0.63306934 0.11562586 -0.51528388 90 5
-0.34760889 0.11894252 -0.31786394 41 4
-0.25680122 0.047633097 -0.24016501 90 3
-0.22405204 0.076633081 -0.23851015 49 2
-0.290766 0.052231941 -0.34205356 6 1
-0.29412001 0.10252178 -0.38922352 6 0
-1.6850924 0.32461065 0.44858482 58 31
-1.6242961 0.54427356 0.38835692 74 30
-1.6899399 0.32704163 0.32536009 68 29
-1.6234938 0.54339236 0.26232815 78 28
-1.6760931 0.32587513 0.20418221 73 27
-1.6308972 0.54557717 0.16104275 81 26
-1.6866308 0.32851288 0.11712643 74 25
-1.6316034 0.54613763 0.078609534 79 24
-1.677798 0.32740712 0.03887808 77 23
-1.6308746 0.54620934 0 82 22
-1.685102 0.32912678 -0.039052162 77 21
-1.6266788 0.54511398 -0.078376614 81 20
-1.6815444 0.32874802 -0.1161935 74 19
-1.6336324 0.54808235 -0.1515598 79 18
-1.6942772 0.33122459 -0.19361414 70 17
-1.6339802 0.54882801 -0.23463769 76 16
-1.6852285 0.32887706 -0.29327536 69 15
-1.633973 0.5516395 -0.48354799 62 13
-1.6822957 0.32771832 -0.38454834 65 14
-1.6352882 0.55396241 -0.58512956 55 12
-1.684248 0.3242189 -0.67956102 58 11
-1.6290621 0.55744839 -0.89580756 72 9
-1.6877092 0.3233965 -0.79077435 65 10
-0.8790257 0.30128637 -0.54055792 90 8
-0.80732799 0.15260361 -0.53246975 40 7
-0.67220998 0.23204553 -0.51497209 51 6
-0.62892747 0.11704352 -0.51205325 90 5
-0.33869529 0.11707845 -0.30922633 41 4
-0.25495341 0.048186101 -0.23834558 90 3
-0.2268371 0.078467861 -0.2423263 50 2
-0.28760493 0.052683271 -0.3380762 4 1
-0.29513973 0.10399068 -0.39126134 6 0
-1.6768935 0.32881293 0.44665125 62 31
-1.6201764 0.54887235 0.38779324 74 30
-1.6816188 0.33123118 0.32393929 69 29
-1.621683 0.54877305 0.26232815 77 28
-1.6774384 0.33190969 0.20448515 73 27
-1.6289828 0.55126673 0.16104275 82 26
-1.6855322 0.33410412 0.11712643 76 25
-1.6297834 0.5515452 0.078609534 79 24
-1.6767031 0.3329691 0.03887808 78 23
-1.6290544 0.55161458 0 82 22
-1.6765869 0.33355436 -0.03887808 78 21
-1.6248623 0.55050528 -0.078376614 81 20
-1.6804451 0.33432242 -0.1161935 76 19
-1.6293526 0.55297828 -0.15133625 79 18
-1.6882961 0.33587888 -0.19304553 74 17
-1.6367415 0.55612755 -0.23532578 74 16
-1.6841288 0.33446372 -0.29327536 68 15
-1.6344082 0.55783427 -0.48423582 59 13
-1.6787504 0.33311778 -0.3839902 64 14
-1.628974 0.55784541 -0.58349514 56 12
-1.680831 0.32965341 -0.67862368 58 11
-1.6312773 0.56458157 -0.89815259 70 9
-1.6844059 0.32856154 -0.78971148 65 10
-0.88604736 0.30717728 -0.54573071 90 8
-0.8027488 0.1545112 -0.52966726 40 7
-0.66952044 0.23372829 -0.51345748 51 6
-0.63226759 0.11993231 -0.51528388 90 5
-0.32807645 0.11460497 -0.29886121 40 4
-0.25478366 0.049075756 -0.23834558 90 3
-0.22656181 0.079259187 -0.2423263 49 2
-0.29040375 0.054209899 -0.34205356 6 1
-0.29341537 0.10452141 -0.38922352 6 0
-1.6804744 0.33560354 0.44794029 58 31
-1.6182505 0.55452454 0.38779324 73 30
-1.6828599 0.33757842 0.32441291 69 29
-1.6197575 0.55443043 0.26232815 76 28
-1.6738361 0.33727634 0.20418221 73 27
-1.634109 0.55937654 0.16175638 79 26
-1.6843556 0.3399857 0.11712643 74 25
-1.6302097 0.55804265 0.078725986 79 24
-1.6730211 0.33861998 0.038820054 77 23
-1.624755 0.55648458 0 82 22
-1.6778625 0.33989742 -0.038936108 77 21
-1.6251948 0.55727005 -0.078493066 78 20
-1.6768225 0.33969453 -0.11602084 76 19
-1.6250583 0.55785084 -0.15111272 81 18
-1.6919235 0.34304473 -0.19361414 70 17
-1.6347902 0.56183749 -0.23532578 78 16
-1.6853061 0.3411192 -0.29370472 69 15
-1.6323528 0.5638209 -0.48423582 59 13
-1.682356 0.33993408 -0.38510644 64 14
-1.6291496 0.56458873 -0.58431232 56 12
-1.6818849 0.33626273 -0.67956102 58 11
-1.6272137 0.56954008 -0.89698005 72 9
-1.6809703 0.334295 -0.78864861 68 10
-0.89903504 0.31541717 -0.55478317 90 8
-0.80217707 0.15745237 -0.52966726 37 7
-0.6724053 0.23751895 -0.5164867 50 6
-0.63369876 0.12260281 -0.51689917 90 5
-0.32085779 0.11334505 -0.29195112 37 4
-0.2546021 0.050009258 -0.23834558 90 3
-0.23386547 0.082833081 -0.2518667 47 2
-0.28572932 0.054472987 -0.33608752 6 1
-0.29438803 0.10609998 -0.39126134 8 0
-1.679233 0.34176052 0.44794029 58 31
-1.6231077 0.56285501 0.38948423 73 30
-1.6816113 0.34374413 0.32441291 69 29
-1.6223803 0.56198639 0.26310086 76 28
-1.6725888 0.34340897 0.20418221 73 27
-1.6249963 0.56290931 0.16104275 79 26
-1.6830982 0.3461569 0.11712643 76 25
-1.6281533 0.5640139 0.078725986 78 24
-1.6718289 0.34445783 0.038820054 77 23
-1.6250656 0.56325763 0 83 22
-1.6766055 0.34604481 -0.038936108 78 21
-1.6208813 0.56211841 -0.078376614 81 20
-1.6731231 0.34533745 -0.1158482 76 19
-1.6277047 0.56544352 -0.1515598 79 18
-1.6907157 0.34894854 -0.19361414 73 17
-1.6350579 0.5686419 -0.23566984 77 16
-1.6792793 0.34601286 -0.29284593 70 15
-1.6281068 0.56871986 -0.48354799 60 13
-1.6787113 0.34560996 -0.38454834 65 14
-1.6249404 0.56948769 -0.58349514 62 12
-1.678429 0.34167266 -0.67862368 59 11
-1.6271955 0.57624018 -0.89815259 70 9
-1.679793 0.34016064 -0.78864861 65 10
nan nan nan 0 8
-0.80974889 0.16184732 -0.53527224 36 7
-0.67157209 0.23986463 -0.5164867 51 6
-0.63139325 0.12445362 -0.51528388 90 5
-0.30349073 0.10825107 -0.27467591 36 4
-0.24937062 0.049948856 -0.23288728 90 3
-0.23053172 0.082565166 -0.24805054 46 2
-0.2900084 0.056286581 -0.34205356 6 1
-0.29265991 0.10661834 -0.38922352 8 0
-1.6756638 0.34713355 0.44729578 59 31
-1.6188357 0.56770819 0.38892055 73 30
-1.6779971 0.34911543 0.32393929 70 29
-1.6180787 0.56682652 0.26271451 78 28
-1.6713799 0.34924531 0.20418221 73 27
-1.6278164 0.56994563 0.1615185 82 26
-1.6867633 0.35304481 0.11747347 76 25
-1.6285306 0.57052249 0.078842446 81 24
-1.6730633 0.3508009 0.03887808 76 23
-1.6278059 0.57058668 0 79 22
-1.6778954 0.35211253 -0.038994133 78 21
-1.6259758 0.57026142 -0.078725986 78 20
-1.6767905 0.35219401 -0.1161935 76 19
-1.6258208 0.57083803 -0.1515598 79 18
-1.6894873 0.35484815 -0.19361414 73 17
-1.6308281 0.5732367 -0.23532578 72 16
-1.6804725 0.35237449 -0.29327536 69 15
-1.6283768 0.57520306 -0.48423582 60 13
-1.6680123 0.34919155 -0.38231581 68 14
-1.6273942 0.57674062 -0.58512956 56 12
-1.6772869 0.34723663 -0.67862368 59 11
-1.6273534 0.58237982 -0.89932507 73 9
-1.6808125 0.34647563 -0.78971148 65 10
nan nan nan 0 8
-0.80105829 0.16304873 -0.52966726 36 7
-0.67077297 0.24209033 -0.5164867 50 6
-0.62348694 0.12507993 -0.50882262 90 5
-0.30482498 0.10988384 -0.2764034 36 4
-0.25088769 0.051097386 -0.23470671 88 3
-0.22723182 0.082194626 -0.24423438 46 2
-0.28684133 0.056693729 -0.3380762 6 1
-0.28824192 0.106049 -0.38311005 8 0
-1.6792322 0.35367706 0.44858482 59 31
-1.619239 0.57389003 0.38948423 72 30
-1.6792326 0.35518244 0.32441291 69 29
-1.6138629 0.57136178 0.26232815 78 28
-1.6750689 0.35581014 0.20478809 73 27
-1.6258169 0.57562429 0.1615185 82 26
-1.680703 0.35760528 0.11712643 76 25
-1.6266297 0.57591975 0.078842446 78 24
-1.6718907 0.35634705 0.03887808 78 23
-1.6259048 0.57598156 0 83 22
-1.6766561 0.35796732 -0.038994133 78 21
-1.6217232 0.57481295 -0.078609534 78 20
-1.6756134 0.3577525 -0.1161935 76 19
-1.6191274 0.57483751 -0.15111272 79 18
-1.6834419 0.35941845 -0.19304553 74 17
-1.6334814 0.58059037 -0.23601387 76 16
-1.6817042 0.35845515 -0.29370472 68 15
-1.628723 0.58141077 -0.48492366 60 13
-1.6739357 0.35652435 -0.3839902 65 14
-1.6254728 0.58213413 -0.58512956 58 12
-1.6737959 0.35261503 -0.67768639 59 11
-1.6253107 0.58805686 -0.89932507 70 9
-1.6774387 0.35158667 -0.78864861 67 10
nan nan nan 0 8
-0.80659968 0.16694257 -0.533871 36 7
-0.66805786 0.24374187 -0.51497209 53 6
-0.62304658 0.12725554 -0.50882262 90 5
-0.28751281 0.10461856 -0.25912821 35 4
-0.25407362 0.052628309 -0.23834558 90 3
-0.22694352 0.082987316 -0.24423438 45 2
-0.28515324 0.05741233 -0.33608752 6 1
-0.2959848 0.11016136 -0.39533696 9 0
-1.6779875 0.35953653 0.44858482 58 31
-1.6172259 0.5795387 0.38948423 73 30
-1.6755819 0.36052901 0.32393929 70 29
-1.6141828 0.57782722 0.26271451 77 28
-1.6689639 0.36061385 0.20418221 73 27
-1.6237978 0.58129603 0.1615185 82 26
-1.6770062 0.3629458 0.1169529 76 25
-1.6269594 0.58243889 0.078958906 79 24
-1.6705734 0.36247244 0.03887808 77 23
-1.621532 0.58080757 0 82 22
-1.6778396 0.36434472 -0.039052162 78 21
-1.6196055 0.58075297 -0.078609534 79 20
-1.6743544 0.36359933 -0.1161935 76 19
-1.621796 0.58217442 -0.1515598 79 18
-1.684541 0.36611018 -0.19332983 74 17
-1.6291158 0.58544838 -0.23566984 77 16
-1.6755639 0.36357895 -0.29284593 69 15
-1.6265811 0.58737648 -0.48492366 59 13
-1.6726809 0.36236528 -0.3839902 65 14
-1.6233282 0.58808786 -0.58512956 60 12
-1.6724923 0.35874742 -0.67768639 59 11
-1.6294658 0.59601057 -0.90284264 72 9
-1.6805664 0.35867029 -0.79077435 65 10
-1.6009756 0.58897585 -1.0099899 44 8
-0.80800968 0.17031796 -0.53527224 38 7
-0.66529655 0.24549356 -0.51345748 65 6
-0.62631565 0.13029844 -0.51205325 90 5
-0.28543708 0.10503259 -0.25740069 31 4
-0.25387904 0.053559184 -0.23834558 88 3
-0.22665246 0.083778985 -0.24423438 46 2
-0.28345352 0.058169305 -0.33409885 6 1
-0.29287794 0.11019994 -0.39126134 9 0
-1.6766584 0.36568427 0.44858482 59 31
-1.6105134 0.5837962 0.38835692 76 30
-1.6742492 0.3666679 0.32393929 70 29
-1.6166967 0.58542752 0.26348719 76 28
-1.6700554 0.36725798 0.20448515 73 27
-1.6239952 0.588094 0.16175638 78 26
-1.6781011 0.36962289 0.11712643 76 25
-1.6271609 0.58925146 0.079075366 79 24
-1.6668565 0.36776662 0.038820054 77 23
-1.6193923 0.58674675 0 82 22
-1.6716105 0.36942014 -0.038936108 79 21
-1.6222616 0.58811116 -0.078842446 79 20
-1.6681384 0.36866426 -0.1158482 77 19
-1.6219907 0.58896756 -0.15178333 78 18
-1.6856788 0.3725206 -0.19361414 73 17
-1.6292851 0.59226435 -0.23601387 77 16
-1.6766903 0.36995271 -0.29327536 69 15
-1.6245208 0.59305072 -0.48492366 60 13
-1.6713415 0.36849356 -0.3839902 65 14
-1.6212655 0.59375077 -0.58512956 56 12
-1.6734949 0.36507389 -0.67862368 59 11
-1.6169217 0.59813428 -0.89698005 72 9
-1.6770922 0.36405775 -0.78971148 67 10
-1.5969057 0.59381211 -1.0086967 44 8
-0.80335861 0.17228284 -0.53246975 38 7
-0.67001867 0.24991961 -0.51800138 67 6
-0.62772554 0.13287051 -0.51366854 90 5
-0.26987576 0.10022365 -0.241853 35 4
-0.25369054 0.054445062 -0.23834558 90 3
-0.22634386 0.084609151 -0.24423438 46 2
-0.28324875 0.059158396 -0.33409885 6 1
-0.29653767 0.11280403 -0.39737478 9 0
-1.6730127 0.37101513 0.44794029 59 31
-1.6153232 0.59193742 0.39004788 72 30
-1.675356 0.37303993 0.32441291 71 29
-1.6123252 0.59021521 0.26310086 79 28
-1.663918 0.3720094 0.20387927 76 27
-1.6219323 0.59375912 0.16175638 84 26
-1.6768006 0.3754783 0.11712643 77 25
-1.6274381 0.59578919 0.079191819 80 24
-1.6680021 0.37412632 0.03887808 79 23
-1.6196805 0.5932588 0 81 22
-1.6703109 0.3752529 -0.038936108 81 21
-1.613168 0.59118336 -0.078493066 83 20
-1.6692754 0.3750281 -0.11602084 77 19
-1.619925 0.59462577 -0.15178333 81 18
-1.6843683 0.37840244 -0.19361414 76 17
-1.6318542 0.59966213 -0.23670195 77 16
-1.6729848 0.37526762 -0.29284593 72 15
-1.6246946 0.59955281 -0.4856115 58 13
-1.6676664 0.37379584 -0.38343209 68 14
-1.6213977 0.60022962 -0.5859468 60 12
-1.6722105 0.37091327 -0.67862368 59 11
