# .PCD v0.7 - Point Cloud Data file format
VERSION 0.7
FIELDS x y z intensity ring
SIZE 4 4 4 4 2
TYPE F F F F U
COUNT 1 1 1 1 1
WIDTH 1228
HEIGHT 1
VIEWPOINT 0 0 0 1 0 0 0
POINTS 1228
DATA ascii
-1.6710783 0.39121148 -0.23360558 73 16
-1.7209557 0.17001659 -0.29542232 64 15
-1.6716191 0.39375842 -0.4814845 56 13
-1.7153431 0.16918632 -0.38678083 62 14
-1.668671 0.39487404 -0.58104342 53 12
-1.7210997 0.16588973 -0.68518502 58 11
-1.6656377 0.39988464 -0.89111745 73 9
-1.7219179 0.16419065 -0.7960887 69 10
nan nan nan 0 8
-0.80367124 0.074659243 -0.52266109 59 7
-0.70068997 0.17025805 -0.52254522 47 6
-0.62763536 0.056634728 -0.5039767 90 5
-0.37097913 0.090472683 -0.33168411 47 4
-0.25664353 0.023885701 -0.23652615 90 3
-0.23789924 0.058015734 -0.24805054 70 2
-0.29128203 0.025434287 -0.3380762 8 1
-0.29379117 0.073258571 -0.37699658 8 0
-1.7195969 0.17173317 0.45180741 55 31
-1.6550934 0.39199713 0.38553864 69 30
-1.7175109 0.17301711 0.3263073 66 29
-1.6564496 0.39172822 0.26078278 74 28
-1.711076 0.17386201 0.20569691 71 27
-1.668721 0.39465967 0.160567 80 26
-1.7243521 0.17579374 0.11816755 71 25
-1.6670977 0.39427981 0.078260154 79 24
-1.7179736 0.17575231 0.039284267 74 23
-1.666371 0.39441419 0 83 22
-1.7154254 0.1761003 -0.039226241 75 21
-1.6621013 0.39370427 -0.078027233 80 20
-1.7193072 0.17649932 -0.11722939 71 19
-1.6668262 0.39574572 -0.15066564 80 18
-1.7222662 0.17680497 -0.19418277 70 17
-1.664886 0.3958903 -0.23291749 75 16
-1.7179015 0.17577565 -0.29499292 66 15
-1.6702344 0.39959106 -0.4814845 58 13
-1.7171668 0.1754171 -0.38733897 63 14
-1.6672826 0.4006964 -0.58104342 58 12
-1.7182038 0.17166951 -0.68424767 60 11
-1.6620871 0.40517038 -0.88994491 76 9
-1.7213342 0.17020027 -0.7960887 64 10
nan nan nan 0 8
-0.8034057 0.077464119 -0.52266109 62 7
-0.68851525 0.16980372 -0.51345748 47 6
-0.63503611 0.059502386 -0.51043797 90 5
-0.38291836 0.094893724 -0.34377676 49 4
-0.25655857 0.024781406 -0.23652615 90 3
-0.23456857 0.058033101 -0.24423438 76 2
-0.29119146 0.026450898 -0.3380762 7 1
-0.29773492 0.075390533 -0.38311005 8 0
-1.7189869 0.17773463 0.45180741 58 31
-1.6584496 0.39891753 0.38666594 72 30
-1.7168967 0.17901129 0.3263073 66 29
-1.6526712 0.39692798 0.26039642 77 28
-1.7153955 0.18034561 0.20630279 70 27
-1.6649837 0.39960724 0.16032912 77 26
-1.7212473 0.18155369 0.11799403 72 25
-1.6681386 0.40068308 0.078376614 79 24
-1.7148638 0.18148857 0.039226241 74 23
-1.662554 0.39964107 0 80 22
-1.7148321 0.18178789 -0.039226241 75 21
-1.6631442 0.4000909 -0.078143694 80 20
-1.7162001 0.18223992 -0.11705674 72 19
-1.6630849 0.40068462 -0.15044211 79 18
-1.7241088 0.18307449 -0.19446707 70 17
-1.6659704 0.40199301 -0.23326153 75 16
-1.7197269 0.18202689 -0.29542232 66 15
-1.6664945 0.40484834 -0.48079664 55 13
-1.711728 0.18060611 -0.38622272 63 14
-1.6612846 0.40538752 -0.579409 59 12
-1.7153193 0.17713171 -0.68331033 60 11
-1.6628772 0.41121289 -0.89111745 75 9
-1.7207297 0.1762078 -0.7960887 70 10
-1.2111671 0.30102822 -0.7332449 103 8
-0.81137371 0.081063256 -0.52826607 79 7
-0.69373161 0.17355476 -0.51800138 49 6
-0.62913525 0.061081149 -0.50559199 90 5
-0.38435116 0.096615471 -0.34550428 50 4
-0.25476703 0.025482023 -0.23470671 90 3
-0.23281284 0.058399107 -0.2423263 67 2
-0.29110217 0.027416375 -0.3380762 8 1
-0.2932857 0.075256631 -0.37699658 8 0
-1.7159858 0.18318112 0.4511629 56 31
-1.6547523 0.4038344 0.38610229 74 30
-1.7187344 0.18496288 0.32678086 65 29
-1.6537448 0.40299416 0.26078278 76 28
-1.7073854 0.18524067 0.20539397 68 27
-1.6635787 0.40541667 0.16032912 78 26
-1.7231156 0.18752688 0.11816755 69 25
-1.6619499 0.40502378 0.078143694 76 24
-1.70925 0.18693708 0.039110187 72 23
-1.6587917 0.40455663 0 78 22
-1.7166719 0.18804127 -0.039284267 72 21
-1.6593124 0.40529823 -0.078027233 76 20
-1.7131068 0.18766199 -0.1168841 70 19
-1.661676 0.40648741 -0.15044211 77 18
-1.7259287 0.18935902 -0.19475138 67 17
-1.6693656 0.40899056 -0.23394962 72 16
-1.719081 0.18802875 -0.29542232 65 15
-1.6627384 0.41008446 -0.48010883 56 13
-1.7135102 0.18684068 -0.38678083 62 14
-1.6644446 0.41232637 -0.58104342 54 12
-1.7169633 0.18366055 -0.68424767 55 11
-1.6635723 0.41755539 -0.89228994 73 9
-1.7178535 0.18197826 -0.79502583 65 10
-1.1727338 0.29596603 -0.70996726 105 8
-0.80696559 0.083483003 -0.52546358 76 7
-0.69309086 0.17609623 -0.51800138 46 6
-0.63650447 0.064116836 -0.51205325 90 5
-0.39622965 0.10123566 -0.35759693 49 4
-0.2495497 0.025946757 -0.22924842 90 3
-0.23260757 0.059211425 -0.2423263 58 2
-0.28798106 0.028221693 -0.33409885 6 1
-0.29999694 0.078224711 -0.38718569 8 0
-1.7153029 0.18946929 0.4511629 58 31
-1.6532611 0.40989667 0.38610229 72 30
-1.7131649 0.19072494 0.32583368 67 29
-1.6522567 0.40905273 0.26078278 77 28
-1.7091615 0.19177048 0.20569691 70 27
-1.6620816 0.41151127 0.16032912 77 26
-1.7174592 0.19329034 0.11782051 72 25
-1.6604543 0.4111124 0.078143694 77 24
-1.7085872 0.19290233 0.039110187 74 23
-1.6645752 0.4124468 0 79 22
-1.7134874 0.1940542 -0.039226241 77 21
-1.6530411 0.40987954 -0.077794321 81 20
-1.7124075 0.19393958 -0.1168841 74 19
-1.6601751 0.41257504 -0.15044211 80 18
-1.7227888 0.19510648 -0.19446707 68 17
-1.6654533 0.41450521 -0.23360558 75 16
-1.7110713 0.19320986 -0.29413414 67 15
-1.6659584 0.41705951 -0.4814845 60 13
-1.7128137 0.19311976 -0.38678083 63 14
-1.6629951 0.41813383 -0.58104342 58 12
-1.7163119 0.18965276 -0.68424767 58 11
-1.657753 0.42255318 -0.88994491 76 9
-1.7194575 0.18821637 -0.7960887 70 10
-1.1675504 0.2989879 -0.70738083 105 8
-0.81490684 0.087152049 -0.5310685 84 7
-0.68669933 0.1770044 -0.51345748 47 6
-0.63437819 0.066149078 -0.51043797 90 5
-0.38714248 0.10029327 -0.34895933 53 4
-0.25628501 0.027466677 -0.23652615 90 3
-0.23706605 0.061331671 -0.24805054 59 2
-0.2908985 0.029498739 -0.3380762 7 1
-0.30111852 0.079655021 -0.38922352 8 0
-1.7098304 0.19491549 0.44987386 59 31
-1.6494589 0.41506764 0.38553864 74 30
-1.7149279 0.19698045 0.3263073 67 29
-1.6460295 0.41360757 0.26001009 74 28
-1.7109473 0.19801718 0.20599985 68 27
-1.663048 0.41792017 0.160567 78 26
-1.7192518 0.19956826 0.11799403 70 25
-1.6614301 0.41751769 0.078260154 76 24
-1.7079033 0.19886525 0.039110187 72 23
-1.6558542 0.41641623 0 78 22
-1.7103168 0.1997478 -0.039168216 76 21
-1.6540214 0.41625983 -0.077910781 76 20
-1.7092426 0.19963004 -0.11671145 70 19
-1.6611383 0.41897964 -0.15066564 78 18
-1.7220973 0.20111895 -0.19446707 67 17
-1.6663961 0.42092574 -0.23394962 74 16
-1.712833 0.19946279 -0.29456353 64 15
-1.6621636 0.42227733 -0.48079664 58 13
-1.7097082 0.19881946 -0.38622272 62 14
-1.6592369 0.42334905 -0.58022624 56 12
-1.7133362 0.19538349 -0.68331033 56 11
-1.656268 0.42833725 -0.88994491 74 9
-1.7187901 0.19421725 -0.7960887 67 10
nan nan nan 0 8
-0.81048036 0.089555338 -0.52826607 90 7
-0.68223244 0.17838018 -0.51042825 45 6
-0.63414341 0.06836307 -0.51043797 90 5
-0.39202398 0.10305725 -0.35414189 51 4
-0.25448132 0.028192908 -0.23470671 90 3
-0.23062035 0.060446255 -0.24041823 54 2
-0.28626865 0.03009022 -0.33211017 6 1
-0.30781427 0.082648017 -0.3994126 8 0
-1.7115389 0.20116118 0.45051837 58 31
-1.6503592 0.42142853 0.38610229 72 30
-1.7117916 0.20268033 0.32583368 65 29
-1.646968 0.41996416 0.26039642 77 28
-1.7077811 0.2036979 0.20569691 69 27
-1.6591681 0.42310467 0.16032912 79 26
-1.7160679 0.20527565 0.11782051 70 25
-1.6575437 0.42269444 0.078143694 77 24
-1.7096808 0.20511992 0.039168216 72 23
-1.6592337 0.42343628 0 81 22
-1.709609 0.2057167 -0.039168216 76 21
-1.6501395 0.42140985 -0.077794321 76 20
-1.7110118 0.20588961 -0.1168841 70 19
-1.6572542 0.42415509 -0.15044211 78 18
-1.7164518 0.20654249 -0.19389845 67 17
-1.662519 0.42612207 -0.23360558 73 16
-1.7096808 0.20515059 -0.29413414 64 15
-1.6606793 0.42807677 -0.48079664 59 13
-1.7065837 0.20449978 -0.38566458 63 14
-1.6577492 0.42913833 -0.58022624 58 12
-1.7126437 0.20136297 -0.68331033 56 11
-1.6547627 0.43411613 -0.88994491 74 9
-1.7158538 0.19995727 -0.79502583 69 10
nan nan nan 0 8
-0.81839418 0.093294114 -0.533871 87 7
-0.68736756 0.18231089 -0.51497209 42 6
-0.63390088 0.070576228 -0.51043797 90 5
-0.38643289 0.10299357 -0.34895933 50 4
-0.25779268 0.029429356 -0.23834558 90 3
-0.23352003 0.06211805 -0.24423438 53 2
-0.29219335 0.03167538 -0.34006488 6 1
-0.30752391 0.08372198 -0.3994126 9 0
-1.7084279 0.2068475 0.44987386 59 31
-1.6512351 0.42780071 0.38666594 72 30
-1.7086366 0.20836075 0.32536009 65 29
-1.6454921 0.42571059 0.26039642 73 28
-1.7070597 0.20965794 0.20569691 69 27
-1.6552727 0.42826721 0.16009125 79 26
-1.7103895 0.21066192 0.11747347 70 25
-1.6608918 0.42973506 0.078376614 78 24
-1.7039926 0.21048085 0.039052162 73 23
-1.6553261 0.42859578 0 78 22
-1.7063997 0.21137938 -0.039110187 76 21
-1.651075 0.42779684 -0.077910781 78 20
-1.7053317 0.21125476 -0.11653879 70 19
-1.6557636 0.42993742 -0.15044211 77 18
-1.7181859 0.21283463 -0.19418277 68 17
-1.663417 0.432549 -0.23394962 73 16
-1.7089542 0.21111722 -0.29413414 65 15
-1.6614997 0.43448222 -0.4814845 56 13
-1.7034404 0.21016078 -0.38510644 59 14
-1.6539565 0.43431914 -0.579409 59 12
-1.7119304 0.20733999 -0.68331033 56 11
-1.6553705 0.44046041 -0.89111745 73 9
-1.7106512 0.20541278 -0.79290009 65 10
nan nan nan 0 8
-0.81600648 0.095915534 -0.53246975 87 7
-0.6771329 0.1820917 -0.50739902 45 6
-0.6374439 0.073206633 -0.51366854 90 5
-0.37214053 0.10047597 -0.33513916 50 4
-0.25598332 0.030148929 -0.23652615 90 3
-0.22863823 0.061615802 -0.23851015 51 2
-0.292081 0.03269513 -0.34006488 6 1
-0.32393837 0.089573421 -0.42386642 22 0
-1.7076956 0.21280977 0.44987386 59 31
-1.645022 0.43231764 0.38553864 74 30
-1.7127712 0.21492799 0.3263073 65 29
-1.6463845 0.432082 0.26078278 68 28
-1.703855 0.21530782 0.20539397 69 27
-1.6585804 0.43531239 0.160567 78 26
-1.7145932 0.21725097 0.11782051 70 25
-1.6545523 0.43425593 0.078143694 77 24
-1.7032475 0.21642762 0.039052162 73 23
-1.65382 0.43437132 0 81 22
-1.7081312 0.21764691 -0.039168216 76 21
-1.6519861 0.43419549 -0.078027233 78 20
-1.7045839 0.21720618 -0.11653879 70 19
-1.6542528 0.43571445 -0.15044211 77 18
-1.7100394 0.21789958 -0.19332983 68 17
-1.6618969 0.43835276 -0.23394962 74 16
-1.7106503 0.21738827 -0.29456353 64 15
-1.6599729 0.44027925 -0.4814845 58 13
-1.7051144 0.21640891 -0.38566458 59 14
-1.6547127 0.44070101 -0.58022624 56 12
-1.7065958 0.21274796 -0.6814357 56 11
-1.6538228 0.44623601 -0.89111745 74 9
-1.714416 0.21193121 -0.79502583 64 10
nan nan nan 0 8
-0.81155431 0.098279521 -0.52966726 85 7
-0.68224406 0.18604478 -0.51194286 46 6
-0.63528854 0.0752156 -0.51205325 90 5
-0.36656874 0.10030644 -0.32995659 45 4
-0.25587651 0.031042296 -0.23652615 90 3
-0.22842176 0.062413517 -0.23851015 59 2
-0.29799235 0.034342654 -0.34801963 6 1
-0.31249586 0.087479122 -0.40756389 32 0
-1.7069424 0.21876945 0.44987386 59 31
-1.6505609 0.43994838 0.38722959 70 30
-1.7095754 0.22059473 0.32583368 67 29
-1.6448661 0.43782631 0.26078278 77 28
-1.7030931 0.2212541 0.20539397 71 27
-1.6546466 0.44045594 0.16032912 80 26
-1.7162977 0.22355333 0.11799403 72 25
-1.6554388 0.44067422 0.078260154 80 24
-1.7024816 0.22237174 0.039052162 75 23
-1.6547087 0.44078824 0 83 22
-1.7098398 0.22392912 -0.039226241 77 21
-1.6528727 0.4406057 -0.078143694 80 20
-1.7038153 0.22315496 -0.11653879 72 19
-1.6527216 0.44148624 -0.15044211 80 18
-1.7166581 0.22482453 -0.19418277 70 17
-1.6603568 0.44415122 -0.23394962 74 16
-1.7098811 0.22335821 -0.29456353 66 15
-1.6561056 0.4454436 -0.48079664 60 13
-1.7043487 0.22235955 -0.38566458 63 14
-1.6531644 0.44647434 -0.58022624 56 12
-1.708142 0.21899506 -0.68237299 59 11
-1.6522551 0.45200625 -0.89111745 76 9
-1.7091756 0.21735027 -0.79290009 67 10
nan nan nan 0 8
-0.81737238 0.10185904 -0.533871 88 7
-0.6815905 0.18842514 -0.51194286 45 6
-0.62933695 0.076765865 -0.50720733 84 5
-0.34362376 0.095145464 -0.30749881 38 4
-0.25235909 0.031551264 -0.23288728 90 3
-0.2266511 0.062760636 -0.23660207 55 2
-0.29485813 0.035058033 -0.34404227 7 1
-0.33442163 0.095096081 -0.44016898 28 0
-1.7061683 0.22472645 0.44987386 59 31
-1.6443142 0.44443005 0.38610229 74 30
-1.708795 0.22656094 0.32583368 67 29
-1.6457115 0.44421202 0.26116911 77 28
-1.6998502 0.22687286 0.20509103 69 27
-1.6579027 0.44753233 0.16080487 78 26
-1.7105621 0.22888842 0.11764698 72 25
-1.6538904 0.44645005 0.078260154 78 24
-1.6992172 0.22798434 0.038994133 73 23
-1.6507473 0.44590649 0 78 22
-1.7040927 0.22923684 -0.039110187 76 21
-1.6489146 0.44571784 -0.078027233 78 20
-1.7030259 0.22910103 -0.11653879 70 19
-1.6559757 0.44856083 -0.15088919 78 18
-1.7158629 0.23081543 -0.19418277 68 17
-1.6587962 0.44994423 -0.23394962 72 16
-1.7090911 0.22932547 -0.29456353 67 15
-1.6568587 0.45185721 -0.4814845 59 13
-1.7059779 0.2286277 -0.38622272 62 14
-1.6538737 0.45286927 -0.58104342 58 12
-1.7073672 0.22495627 -0.68237299 56 11
-1.6549208 0.45895699 -0.89346248 72 9
-1.7084063 0.22331508 -0.79290009 67 10
nan nan nan 0 8
-0.81495738 0.10445531 -0.53246975 83 7
-0.6790154 0.19025962 -0.51042825 42 6
-0.63285369 0.079419993 -0.51043797 87 5
-0.34328955 0.096344352 -0.30749881 36 4
-0.25054437 0.032234009 -0.23106785 90 3
-0.2295303 0.064461932 -0.24041823 54 2
-0.29623967 0.036254622 -0.34603095 8 1
-0.32437071 0.093373477 -0.42590424 42 0
-1.7030195 0.23006319 0.44922933 59 31
-1.6475279 0.45117313 0.38722959 72 30
-1.7056015 0.23189904 0.32536009 68 29
-1.6418478 0.44901231 0.26078278 76 28
-1.6990885 0.23250853 0.20509103 71 27
-1.6540099 0.45236808 0.160567 81 26
-1.7122651 0.23489508 0.11782051 72 25
-1.6524007 0.4519321 0.078260154 80 24
-1.7009284 0.23395495 0.039052162 75 23
-1.6540804 0.45270419 0 83 22
-1.703323 0.23488656 -0.039110187 77 21
-1.6474274 0.45118338 -0.078027233 80 20
-1.7047279 0.2350844 -0.11671145 75 19
-1.6496785 0.45272562 -0.15044211 80 18
-1.7126269 0.23616835 -0.19389845 70 17
-1.659682 0.45610183 -0.23429367 67 16
-1.7058809 0.23465966 -0.29413414 68 15
-1.6530353 0.45670593 -0.48079664 60 13
-1.7027956 0.23395546 -0.38566458 64 14
-1.6478111 0.45708209 -0.579409 59 12
-1.7066119 0.23061687 -0.68237299 58 11
-1.6491401 0.46324223 -0.89111745 76 9
-1.7054132 0.22868183 -0.79183722 68 10
nan nan nan 0 8
-0.81460649 0.10715725 -0.53246975 88 7
-0.68411499 0.19415995 -0.51497209 42 6
-0.63637394 0.081988536 -0.51366854 87 5
-0.33603027 0.095453426 -0.30058873 37 4
-0.25384089 0.033471875 -0.23470671 90 3
-0.22931528 0.065222725 -0.24041823 53 2
-0.29310757 0.036891691 -0.34205356 8 1
-0.31989902 0.093196519 -0.4197908 28 0
-1.702206 0.23600644 0.44922933 60 31
-1.6389049 0.45495757 0.38553864 76 30
-1.7047817 0.23785128 0.32536009 67 29
-1.6402706 0.4547407 0.26078278 77 28
-1.7007244 0.23877954 0.20539397 72 27
-1.6500233 0.45747092 0.16032912 81 26
-1.7089645 0.24052647 0.11764698 72 25
-1.653219 0.45836762 0.078376614 77 24
-1.7001016 0.23989087 0.039052162 73 23
-1.650082 0.45780382 0 81 22
-1.7024928 0.24083081 -0.039110187 76 21
-1.6458427 0.45693123 -0.078027233 78 20
-1.7014271 0.24068776 -0.11653879 70 19
-1.648088 0.45848137 -0.15044211 78 18
-1.7093323 0.24180071 -0.19361414 69 17
-1.6580799 0.46189237 -0.23429367 64 16
-1.7074906 0.24095349 -0.29456353 64 15
-1.6537447 0.46312454 -0.4814845 59 13
-1.699555 0.23956126 -0.38510644 63 14
-1.6507528 0.46411625 -0.58104342 58 12
-1.7057965 0.23657264 -0.68237299 56 11
-1.6496357 0.46960345 -0.89228994 73 9
-1.7068467 0.23493859 -0.79290009 67 10
nan nan nan 0 8
-0.81422746 0.11000009 -0.53246975 86 7
-0.67961407 0.19543366 -0.51194286 45 6
-0.63986927 0.084692962 -0.51689917 86 5
-0.34609118 0.099705294 -0.31095386 37 4
-0.2554242 0.034567282 -0.23652615 90 3
-0.23063292 0.066488586 -0.2423263 51 2
-0.28846353 0.037381191 -0.33608752 6 1
-0.31264532 0.092201591 -0.40960172 15 0
-1.7037638 0.24228339 0.44987386 58 31
-1.6419944 0.46200117 0.38666594 73 30
-1.7039409 0.24380064 0.32536009 68 29
-1.6386732 0.46046355 0.26078278 76 28
-1.6974238 0.24436462 0.20509103 69 27
-1.6508116 0.46390417 0.160567 81 26
-1.7056458 0.24613772 0.11747347 72 25
-1.6516088 0.46413568 0.078376614 78 24
-1.6967367 0.24576569 0.038994133 73 23
-1.6460681 0.462881 0 81 22
-1.7016417 0.24677217 -0.039110187 76 21
-1.6465597 0.46364045 -0.078143694 78 20
-1.6981077 0.24627097 -0.11636614 74 19
-1.651269 0.46558908 -0.15088919 78 18
-1.7108932 0.2484175 -0.19389845 69 17
-1.6540751 0.46700141 -0.23394962 64 16
-1.6992822 0.24616143 -0.29327536 68 15
-1.6520362 0.46918276 -0.4814845 60 13
-1.6987084 0.24549237 -0.38510644 63 14
-1.6490406 0.47016343 -0.58104342 58 12
-1.7026229 0.24249977 -0.6814357 58 11
-1.6479864 0.47535887 -0.89228994 70 9
-1.7014921 0.24056621 -0.79077435 68 10
nan nan nan 0 8
-0.81587052 0.11326142 -0.533871 86 7
-0.68080062 0.1984868 -0.51345748 41 6
-0.63387918 0.086291462 -0.51205325 86 5
-0.35091585 0.1025319 -0.31613642 37 4
-0.25529578 0.035503231 -0.23652615 90 3
-0.23348953 0.068235621 -0.24614246 51 2
-0.28682071 0.038254894 -0.33409885 6 1
-0.30677032 0.091637753 -0.40145043 9 0
-1.7004735 0.24818102 0.44922933 58 31
-1.6402899 0.46801627 0.38666594 73 30
-1.703036 0.25004426 0.32536009 67 29
-1.6417234 0.46782646 0.26155546 77 28
-1.6989721 0.25094345 0.20539397 73 27
-1.6514925 0.47063667 0.16080487 79 26
-1.7071996 0.25274929 0.11764698 74 25
-1.6474956 0.46949846 0.078260154 77 24
-1.6933959 0.25132349 0.038936108 74 23
-1.6491669 0.4702884 0 81 22
-1.6982533 0.25264311 -0.039052162 76 21
-1.6425307 0.46869683 -0.078027233 79 20
-1.6971937 0.25249317 -0.11636614 72 19
-1.6495514 0.47163814 -0.15088919 78 18
-1.7075583 0.25402614 -0.19361414 68 17
-1.6499727 0.4723762 -0.23360558 67 16
-1.7057226 0.25316572 -0.29456353 67 15
-1.6526971 0.47561422 -0.48217231 60 13
-1.6977973 0.25171679 -0.38510644 63 14
-1.6473893 0.4759168 -0.58104342 58 12
-1.701766 0.24844156 -0.6814357 60 11
-1.6483514 0.4820185 -0.89346248 73 9
-1.7006421 0.24650407 -0.79077435 68 10
nan nan nan 0 8
-0.81957155 0.11667849 -0.53667343 85 7
-0.68582004 0.20257267 -0.51800138 51 6
-0.63924682 0.089269564 -0.51689917 87 5
-0.36957461 0.10953818 -0.33513916 37 4
-0.24836974 0.035507295 -0.22924842 90 3
-0.22860791 0.067660391 -0.24041823 54 2
-0.29119498 0.039821547 -0.34006488 8 1
-0.30644861 0.092708029 -0.40145043 9 0
-1.6972076 0.25376159 0.44858482 58 31
-1.6386464 0.47373909 0.38666594 73 30
-1.6997248 0.25562587 0.3248865 69 29
-1.6353362 0.47217774 0.26078278 77 28
-1.6956316 0.25650477 0.20509103 69 27
-1.6498396 0.47639859 0.16080487 79 26
-1.7038406 0.25833663 0.11747347 74 25
-1.6482452 0.47594231 0.078376614 78 24
-1.6925082 0.25723305 0.038936108 74 23
-1.6451145 0.47534513 0 81 22
-1.6998323 0.25894243 -0.039110187 76 21
-1.6408848 0.47442749 -0.078027233 78 20
-1.693836 0.25804386 -0.1161935 74 19
-1.6502857 0.47808918 -0.15111272 79 18
-1.7066612 0.25998509 -0.19361414 68 17
-1.6506909 0.47882572 -0.23394962 69 16
-1.7048284 0.25911829 -0.29456353 67 15
-1.6487204 0.48070461 -0.4814845 60 13
-1.6969082 0.25764167 -0.38510644 64 14
-1.6457181 0.48166439 -0.58104342 58 12
-1.7008885 0.25438032 -0.6814357 58 11
-1.6466589 0.48776945 -0.89346248 77 9
-1.7020099 0.25276786 -0.79183722 65 10
nan nan nan 0 8
-0.82325876 0.12012278 -0.53947592 78 7
-0.67749494 0.20265797 -0.51194286 53 6
-0.62948126 0.090190798 -0.50882262 83 5
-0.38300711 0.11508089 -0.34895933 49 4
-0.25334236 0.037057001 -0.23470671 90 3
-0.22837034 0.068457969 -0.24041823 55 2
-0.28955171 0.040643953 -0.3380762 6 1
-0.30198094 0.092466384 -0.39533696 6 0
-1.6963115 0.25968438 0.44858482 58 31
-1.6369827 0.47945616 0.38666594 73 30
-1.698822 0.26155746 0.3248865 69 29
-1.6360476 0.47857976 0.26116911 78 28
-1.6922731 0.26204586 0.20478809 73 27
-1.6434753 0.48046425 0.16032912 81 26
-1.7029287 0.26428258 0.11747347 74 25
-1.6489698 0.48239711 0.078493066 77 24
-1.69407 0.26352006 0.038994133 74 23
-1.6434453 0.48108476 0 81 22
-1.6940241 0.2638157 -0.038994133 77 21
-1.6416143 0.48085743 -0.078143694 78 20
-1.6929249 0.26395488 -0.1161935 73 19
-1.6486911 0.48355913 -0.15111272 78 18
-1.7106527 0.26669911 -0.19418277 72 17
-1.653844 0.48569855 -0.23463769 67 16
-1.7014796 0.26469263 -0.29413414 68 15
-1.6516407 0.48782444 -0.48286018 59 13
-1.6960446 0.2632674 -0.38510644 64 14
-1.6462911 0.48808065 -0.58186066 56 12
-1.697744 0.25967228 -0.68049836 58 11
-1.6450324 0.49322724 -0.89346248 73 9
-1.6988797 0.25837067 -0.79077435 67 10
nan nan nan 0 8
-0.81259108 0.1214996 -0.53246975 79 7
-0.68062228 0.20606983 -0.51497209 53 6
-0.63673526 0.093350485 -0.51528388 87 5
-0.39815164 0.12118688 -0.36450699 49 4
-0.25151947 0.037663627 -0.23288728 90 3
-0.2296821 0.069702245 -0.2423263 54 2
-0.29392093 0.042200293 -0.34404227 6 1
nan nan nan 0 0
-1.6978279 0.26567808 0.44922933 58 31
-1.6307153 0.48349109 0.38553864 77 30
-1.6955199 0.26681143 0.32441291 67 29
-1.636819 0.48470691 0.26155546 77 28
-1.6913949 0.26765621 0.20478809 73 27
-1.641788 0.48619813 0.16032912 79 26
-1.7020428 0.26992828 0.11747347 74 25
-1.6449674 0.48715046 0.078376614 79 24
-1.6906711 0.26904261 0.038936108 74 23
-1.6418408 0.486532 0 81 22
-1.6955618 0.27011704 -0.039052162 76 21
-1.6399258 0.48658484 -0.078143694 78 20
-1.6920403 0.26956737 -0.1161935 76 19
-1.6422213 0.48788682 -0.15066564 81 18
-1.7023512 0.27150571 -0.19332983 72 17
-1.6473935 0.49005041 -0.23394962 69 16
-1.7005453 0.27063027 -0.29413414 67 15
-1.6476259 0.49289486 -0.48217231 60 13
-1.6951152 0.26918608 -0.38510644 64 14
-1.6445774 0.4938243 -0.58186066 58 12
-1.6944908 0.26553777 -0.67956102 59 11
-1.6411887 0.49832207 -0.89228994 73 9
-1.7002039 0.26464388 -0.79183722 65 10
-0.92781609 0.28252 -0.56512874 90 8
-0.81830484 0.12525448 -0.53667343 77 7
-0.67986238 0.20856306 -0.51497209 50 6
-0.63827699 0.095958725 -0.51689917 90 5
-0.38219437 0.11775196 -0.34895933 50 4
-0.25307748 0.038824748 -0.23470671 90 3
-0.2248224 0.069025397 -0.23660207 51 2
-0.29226315 0.043072991 -0.34205356 6 1
nan nan nan 0 0
-1.6944571 0.27152047 0.44858482 59 31
-1.6405905 0.49298462 0.38835692 73 30
-1.6969547 0.27341101 0.3248865 68 29
-1.6326668 0.48998976 0.26116911 77 28
-1.6879523 0.27346033 0.20448515 73 27
-1.6423779 0.49293077 0.160567 78 26
-1.6985795 0.27576855 0.11729994 72 25
-1.643171 0.49317628 0.078376614 78 24
-1.6897218 0.27494252 0.038936108 74 23
-1.6400466 0.49254635 0 81 22
-1.6945603 0.27632979 -0.039052162 76 21
-1.6382173 0.49230629 -0.078143694 81 20
-1.6959652 0.27656299 -0.11653879 74 19
-1.6451887 0.49534446 -0.15111272 79 18
-1.7013931 0.27744636 -0.19332983 69 17
-1.6479563 0.49680293 -0.23429367 72 16
-1.6995902 0.27656463 -0.29413414 67 15
-1.6481949 0.49934307 -0.48286018 59 13
-1.6941173 0.27539721 -0.38510644 64 14
-1.640584 0.49887156 -0.58104342 58 12
-1.6958424 0.27181435 -0.68049836 58 11
-1.6435702 0.5056383 -0.89463496 73 9
-1.6947994 0.26987228 -0.78971148 67 10
-0.92478132 0.28512144 -0.56383556 90 8
-0.81172299 0.12716953 -0.53246975 85 7
-0.68102753 0.21153171 -0.5164867 51 6
-0.63793808 0.098186143 -0.51689917 88 5
-0.38694543 0.12073454 -0.35414189 49 4
-0.24784975 0.038971618 -0.22924842 90 3
-0.23071396 0.071842365 -0.24423438 51 2
-0.29211104 0.044092916 -0.34205356 8 1
-0.29411578 0.093366779 -0.38514787 4 0
-1.6958833 0.27782056 0.44922933 58 31
-1.6342013 0.49728411 0.38722959 74 30
-1.69599 0.27933282 0.3248865 68 29
-1.6333088 0.49640724 0.26155546 77 28
-1.6869874 0.27935073 0.20448515 73 27
-1.6477876 0.50084108 0.16128062 83 26
-1.7000676 0.2821008 0.11747347 74 25
-1.6486048 0.5010969 0.078725986 79 24
-1.6912177 0.28124553 0.038994133 73 23
-1.6430991 0.49972925 0 81 22
-1.6960512 0.28265056 -0.039110187 76 21
-1.6364888 0.49802169 -0.078143694 78 20
-1.690068 0.28166834 -0.1161935 73 19
-1.638688 0.49962571 -0.15066564 79 18
-1.7028649 0.28378847 -0.19361414 70 17
-1.6462121 0.50255233 -0.23429367 65 16
-1.6961843 0.28209504 -0.29370472 68 15
-1.6464417 0.50509334 -0.48286018 58 13
-1.6907411 0.28091317 -0.38454834 64 14
-1.6410897 0.50529349 -0.58186066 58 12
-1.6948833 0.27773228 -0.68049836 58 11
-1.6439024 0.51203191 -0.89580756 72 9
-1.6983149 0.27650702 -0.79183722 64 10
-0.92582107 0.28899041 -0.56512874 91 8
-0.81127417 0.1300022 -0.53246975 58 7
-0.67838979 0.21330428 -0.51497209 50 6
-0.63759148 0.10041237 -0.51689917 90 5
-0.3968389 0.12541886 -0.36450699 47 4
-0.25449628 0.040841952 -0.23652615 90 3
-0.22892702 0.072143555 -0.2423263 51 2
-0.28745633 0.044467993 -0.33608752 8 1
-0.29653704 0.095305189 -0.38922352 4 0
-1.6925204 0.28334329 0.44858482 59 31
-1.6324556 0.50298554 0.38722959 74 30
-1.6950046 0.28525123 0.3248865 68 29
-1.6292062 0.50137591 0.26116911 80 28
-1.6884495 0.28564817 0.20478809 75 27
-1.6389846 0.50409859 0.160567 81 26
-1.6990726 0.28803343 0.11747347 74 25
-1.6396879 0.50463569 0.078376614 81 24
-1.6877612 0.28673223 0.038936108 76 23
-1.6413447 0.50546169 0 83 22
-1.6901754 0.28744227 -0.038994133 79 21
-1.6347405 0.50373113 -0.078143694 80 20
-1.6866152 0.28715101 -0.11602084 75 19
-1.6394006 0.50579417 -0.15088919 81 18
-1.6994147 0.28931746 -0.19332983 76 17
-1.6469014 0.50874251 -0.23463769 76 16
-1.6951894 0.28801417 -0.29370472 68 15
-1.6423742 0.51012141 -0.48217231 60 13
-1.6898003 0.28651837 -0.38454834 67 14
-1.6393161 0.51101887 -0.58186066 59 12
-1.693953 0.28335118 -0.68049836 60 11
-1.6421955 0.51748049 -0.89580756 74 9
-1.7018046 0.2831696 -0.79396296 66 10
-0.90651035 0.28621417 -0.55348992 90 8
-0.80877119 0.13250548 -0.5310685 47 7
-0.6719991 0.21372372 -0.51042825 51 6
-0.63725501 0.10252614 -0.51689917 90 5
-0.38267925 0.12224271 -0.35068685 50 4
-0.25096908 0.041171715 -0.23288728 90 3
-0.22868651 0.072902314 -0.2423263 51 2
-0.28430939 0.044981506 -0.33211017 7 1
-0.29896528 0.097209446 -0.39329916 4 0
-1.6915715 0.28895435 0.44858482 59 31
-1.6307787 0.50839621 0.38722959 75 30
-1.6940494 0.29087049 0.3248865 70 29
-1.629892 0.50751323 0.26155546 79 28
-1.6874928 0.29124567 0.20478809 75 27
-1.63959 0.51055956 0.16080487 81 26
-1.6931919 0.2928232 0.11712643 76 25
-1.6380055 0.51007032 0.078376614 81 24
-1.6818236 0.29177445 0.038820054 76 23
-1.6372736 0.51015502 0 83 22
-1.6891619 0.29334033 -0.038994133 79 21
-1.6353551 0.51018113 -0.078260154 80 20
-1.6856537 0.29274243 -0.11602084 75 19
-1.6400008 0.51225907 -0.15111272 81 18
-1.7008423 0.2956697 -0.19361414 72 17
-1.6427532 0.51374602 -0.23429367 76 16
-1.6893193 0.29309469 -0.29284593 70 15
-1.6428756 0.51657528 -0.48286018 60 13
-1.68879 0.29241511 -0.38454834 66 14
-1.6397743 0.51745206 -0.5826779 58 12
-1.6906182 0.28917062 -0.67956102 60 11
-1.6382765 0.5225358 -0.89463496 74 9
-1.6941118 0.28798085 -0.79077435 68 10
-0.91563624 0.2928192 -0.55995595 90 8
-0.81034684 0.13566273 -0.53246975 43 7
-0.67121124 0.21618529 -0.51042825 50 6
-0.6425274 0.10576548 -0.52174515 90 5
-0.37879741 0.12250905 -0.34723181 50 4
-0.25251073 0.042354479 -0.23470671 90 3
-0.22843066 0.07370013 -0.2423263 53 2
-0.29013515 0.046924189 -0.34006488 7 1
-0.29723573 0.097838819 -0.39126134 4 0
-1.6881208 0.29474032 0.44794029 60 31
-1.6289043 0.51436985 0.38722959 75 30
-1.6929718 0.29707754 0.3248865 69 29
-1.6280209 0.5134837 0.26155546 77 28
-1.6839696 0.29700115 0.20448515 73 27
-1.6424526 0.51806885 0.16128062 82 26
-1.6921073 0.29902709 0.11712643 74 25
-1.6337442 0.51531619 0.078260154 79 24
-1.6881797 0.29894018 0.038994133 74 23
-1.637776 0.51690799 0 81 22
-1.6880753 0.29952946 -0.038994133 77 21
-1.6335644 0.51588649 -0.078260154 78 20
-1.6870257 0.29935095 -0.1161935 73 19
-1.6381122 0.5182665 -0.15111272 79 18
-1.6973535 0.30117449 -0.19332983 70 17
-1.6408592 0.51976359 -0.23429367 74 16
-1.6931373 0.29984167 -0.29370472 68 15
-1.6387727 0.52157485 -0.48217231 60 13
-1.6877068 0.29860288 -0.38454834 65 14
-1.6357085 0.52245092 -0.58186066 58 12
-1.6918819 0.2954655 -0.68049836 60 11
-1.6384504 0.52921844 -0.89580756 70 9
-1.6930963 0.29389265 -0.79077435 67 10
-0.89833736 0.29070163 -0.54961038 90 8
-0.81803614 0.13985884 -0.53807467 38 7
-0.67611891 0.22039652 -0.51497209 54 6
-0.63085586 0.10615951 -0.51205325 88 5
-0.36979929 0.12096201 -0.3385942 46 4
-0.25066805 0.042966545 -0.23288728 90 3
-0.22968839 0.075056635 -0.24423438 49 2
-0.28398025 0.047014814 -0.33211017 6 1
-0.29963166 0.099816829 -0.39533696 4 0
-1.6894603 0.30105147 0.44858482 58 31
-1.6294178 0.52079719 0.38779324 74 30
-1.6895077 0.30255613 0.32441291 70 29
-1.6285706 0.51991761 0.26194182 77 28
-1.6829226 0.30287752 0.20448515 73 27
-1.6358947 0.52227914 0.16080487 81 26
-1.693508 0.30537087 0.11729994 74 25
-1.6366916 0.52254111 0.078493066 79 24
-1.6822058 0.30394948 0.03887808 76 23
-1.638342 0.52338552 0 82 22
-1.6845596 0.3049784 -0.038936108 77 21
-1.6341312 0.52234894 -0.078376614 78 20
-1.6859705 0.30523795 -0.1161935 74 19
-1.6362932 0.52398145 -0.15111272 79 18
-1.6962918 0.30709749 -0.19332983 74 17
-1.6413919 0.52624702 -0.23463769 74 16
-1.6872319 0.3048811 -0.29284593 69 15
-1.6415159 0.52877194 -0.48354799 59 13
-1.6842554 0.30406278 -0.3839902 64 14
-1.6338748 0.52815747 -0.58186066 58 12
-1.6908402 0.30136949 -0.68049836 58 11
-1.6386908 0.53562337 -0.89698005 70 9
-1.6942886 0.30019224 -0.79183722 65 10
-0.88919085 0.29115131 -0.54443759 90 8
-0.81346142 0.14201508 -0.53527224 37 7
-0.68100524 0.22464463 -0.51951599 54 6
-0.6323635 0.10867555 -0.51366854 90 5
-0.36595157 0.12109275 -0.33513916 45 4
-0.24882421 0.043566268 -0.23106785 90 3
-0.22789742 0.07533285 -0.2423263 50 2
-0.28830397 0.048712865 -0.3380762 6 1
-0.29517746 0.099436201 -0.38922352 4 0
-1.6883992 0.30694693 0.44858482 58 31
-1.6275901 0.52648175 0.38779324 76 30
-1.6884413 0.30845174 0.32441291 70 29
-1.6243964 0.52483684 0.26155546 78 28
-1.6818552 0.30875018 0.20448515 73 27
-1.6365209 0.52846885 0.16104275 83 26
-1.6899786 0.31083283 0.11712643 76 25
-1.6396081 0.52979273 0.078725986 79 24
-1.6835932 0.31026906 0.038936108 77 23
-1.6317495 0.52755702 0 81 22
-1.6884561 0.3114627 -0.039052162 77 21
-1.627548 0.52650654 -0.078143694 81 20
-1.6848948 0.31112123 -0.1161935 76 19
-1.6345466 0.52940476 -0.15111272 79 18
-1.6976527 0.31346431 -0.19361414 69 17
-1.6419923 0.53245407 -0.23498175 74 16
-1.6837347 0.31032592 -0.29241657 69 15
-1.6373758 0.53375077 -0.48286018 59 13
-1.6856353 0.31008372 -0.38454834 65 14
-1.6342659 0.53459507 -0.5826779 56 12
-1.6898317 0.30697483 -0.68049836 58 11
-1.6285237 0.53827113 -0.89228994 73 9
-1.6887759 0.30530626 -0.78971148 67 10
-0.89227915 0.295454 -0.54702395 90 8
-0.81500036 0.14521006 -0.53667343 37 7
-0.68214107 0.22753774 -0.5210306 54 6
-0.6338805 0.11109279 -0.51528388 90 5
-0.35699955 0.11937883 -0.32650155 45 4
-0.25206122 0.0449524 -0.23470671 90 3
-0.22917217 0.076618314 -0.24423438 51 2
-0.28664511 0.049427997 -0.33608752 6 1
-0.29347974 0.099934667 -0.38718569 6 0
-1.6849962 0.31210771 0.44794029 58 31
-1.6258352 0.53187615 0.38779324 74 30
-1.687409 0.31404912 0.32441291 70 29
-1.6249938 0.53099078 0.26194182 77 28
-1.6832621 0.31477836 0.20478809 73 27
-1.6323018 0.53340209 0.16080487 81 26
-1.6864865 0.31597951 0.1169529 76 25
-1.6330969 0.53366947 0.078493066 79 24
-1.6800981 0.31539273 0.03887808 77 23
-1.6323663 0.53374523 0 79 22
-1.6849015 0.31689611 -0.038994133 79 21
-1.630538 0.5334599 -0.078376614 81 20
-1.6838537 0.31670681 -0.1161935 76 19
-1.6303235 0.53432864 -0.15088919 78 18
-1.6966039 0.31909221 -0.19361414 72 17
-1.6401236 0.53818244 -0.23498175 74 16
-1.6875387 0.31680954 -0.29327536 69 15
-1.6378785 0.53993297 -0.48354799 59 13
-1.6821467 0.31552002 -0.3839902 65 14
-1.6347263 0.54075658 -0.58349514 56 12
-1.6887498 0.31287158 -0.68049836 58 11
-1.6329141 0.54606193 -0.89580756 72 9
-1.6877543 0.31090477 -0.78971148 67 10
-0.88110763 0.29514232 -0.54055792 90 8
-0.81043768 0.14718573 -0.533871 38 7
-0.67757809 0.22863224 -0.51800138 51 6
-0.63160908 0.11297737 -0.51366854 90 5
-0.35316545 0.11944164 -0.32304651 41 4
-0.25190276 0.045831986 -0.23470671 90 3
-0.2258554 0.076346852 -0.24041823 51 2
-0.28198618 0.049690671 -0.33012149 4 1
-0.29722321 0.10241231 -0.39329916 6 0
-1.6862708 0.31843233 0.44858482 59 31
-1.6239687 0.53754812 0.38779324 74 30
-1.6863027 0.31993738 0.32441291 69 29
-1.6231304 0.53665984 0.26194182 77 28
-1.682153 0.32065213 0.20478809 73 27
-1.6304299 0.53909659 0.16080487 79 26
-1.6927243 0.32325751 0.11747347 74 25
-1.6335942 0.54015386 0.078609534 79 24
-1.6789308 0.32154849 0.03887808 77 23
-1.6328658 0.54022831 0 82 22
-1.6837851 0.3227756 -0.038994133 79 21
-1.6214629 0.53706777 -0.078027233 79 20
-1.6827379 0.32258263 -0.1161935 76 19
-1.6308109 0.54080302 -0.15111272 79 18
-1.6905432 0.32437932 -0.19304553 74 17
-1.6382351 0.5439043 -0.23498175 74 16
-1.6887858 0.32345232 -0.29370472 69 15
-1.6358886 0.54593253 -0.48354799 60 13
-1.6834292 0.32184404 -0.38454834 65 14
-1.6349726 0.54749769 -0.58431232 56 12
-1.6853138 0.31863198 -0.67956102 59 11
-1.6289074 0.5510481 -0.89463496 73 9
-1.6888279 0.31750333 -0.79077435 67 10
-0.88609326 0.30044675 -0.54443759 90 8
-0.80989277 0.15015514 -0.533871 36 7
-0.67861551 0.23176365 -0.51951599 51 6
-0.63306934 0.11562586 -0.51528388 90 5
-0.34419799 0.11774737 -0.3144089 41 4
-0.24666497 0.045876797 -0.22924842 90 3
-0.2301538 0.078757159 -0.24614246 49 2
-0.28329614 0.050975211 -0.33211017 6 1
-0.29684585 0.103501 -0.39329916 6 0
-1.6827198 0.32415721 0.44794029 59 31
-1.6196792 0.54271984 0.38722959 76 30
-1.6851186 0.32611582 0.32441291 69 29
-1.6211525 0.54260534 0.26194182 77 28
-1.6785297 0.32634524 0.20448515 73 27
-1.6308019 0.54586184 0.16104275 82 26
-1.6866308 0.32851288 0.11712643 76 25
-1.6292362 0.54534197 0.078493066 79 24
-1.6753443 0.32693192 0.038820054 77 23
-1.6308746 0.54620934 0 82 22
-1.6825907 0.3289448 -0.038994133 77 21
-1.6266788 0.54511398 -0.078376614 81 20
-1.679096 0.32827297 -0.11602084 76 19
-1.6311773 0.54757202 -0.15133625 83 18
-1.6918389 0.33075151 -0.19332983 74 17
-1.6338842 0.54911315 -0.23463769 74 16
-1.6828105 0.32840884 -0.29284593 70 15
-1.6294205 0.55009592 -0.48217231 63 13
-1.6822385 0.32801193 -0.38454834 65 14
-1.6285781 0.55167943 -0.5826779 58 12
-1.6841915 0.32451287 -0.67956102 58 11
-1.6310526 0.55845088 -0.89698005 70 9
-1.6899321 0.32381895 -0.79183722 65 10
-0.88908309 0.30493674 -0.54702395 90 8
-0.80936372 0.15298127 -0.533871 38 7
-0.67404711 0.23281893 -0.5164867 51 6
-0.63829404 0.1188575 -0.5201298 90 5
-0.34548825 0.11955166 -0.31613642 40 4
-0.25325668 0.047931984 -0.23652615 90 3
-0.22682339 0.078507453 -0.2423263 49 2
-0.28162336 0.051707231 -0.33012149 4 1
-0.29376033 0.10354783 -0.38922352 6 0
-1.6792072 0.32956728 0.44729578 59 31
-1.6223863 0.54994005 0.38835692 74 30
-1.6839701 0.33199599 0.32441291 71 29
-1.6215872 0.54905605 0.26232815 79 28
-1.6798154 0.33268106 0.20478809 75 27
-1.6335989 0.5531534 0.1615185 84 26
-1.6903678 0.33536205 0.11747347 77 25
-1.6320512 0.55263364 0.078725986 81 24
-1.6766449 0.33326173 0.03887808 83 23
-1.6289582 0.55189884 0 83 22
-1.6863362 0.33578536 -0.039110187 79 21
-1.6224022 0.54998404 -0.078260154 81 20
-1.6779399 0.33413211 -0.11602084 77 19
-1.629256 0.55326265 -0.15133625 81 18
-1.6858008 0.33569196 -0.19276121 76 17
-1.6343011 0.55561322 -0.23498175 76 16
-1.6889029 0.335711 -0.29413414 70 15
-1.629764 0.55656004 -0.48286018 62 13
-1.6786921 0.3334108 -0.3839902 67 14
-1.6288764 0.55812973 -0.58349514 59 12
-1.6807735 0.32994679 -0.67862368 59 11
-1.6311787 0.5648663 -0.89815259 75 9
-1.6843485 0.32885551 -0.78971148 67 10
-0.88599372 0.30733192 -0.54573071 90 8
-0.80882478 0.15580556 -0.533871 42 7
-0.67510563 0.23583297 -0.51800138 50 6
-0.6303705 0.11969528 -0.51366854 90 5
-0.33145893 0.11588117 -0.30231625 39 4
-0.24633868 0.04759771 -0.22924842 90 3
-0.22958434 0.080402076 -0.24614246 50 2
-0.28591773 0.053475276 -0.33608752 7 1
-0.29475662 0.10507173 -0.39126134 8 0
-1.6780465 0.33542681 0.44729578 60 31
-1.6204567 0.55559999 0.38835692 75 30
-1.6828009 0.33787212 0.32441291 71 29
-1.6196607 0.55471313 0.26232815 77 28
-1.6737772 0.33756846 0.20418221 75 27
-1.629402 0.55775851 0.16128062 81 26
-1.6842963 0.3402797 0.11712643 77 25
-1.6348354 0.55995154 0.078958906 81 24
-1.6803721 0.34009686 0.038994133 79 23
-1.6293857 0.55839515 0 84 22
-1.6803126 0.34039012 -0.038994133 80 21
-1.6228336 0.55645704 -0.078376614 80 20
-1.6767634 0.33998719 -0.11602084 77 19
-1.6321205 0.56028533 -0.15178333 81 18
-1.6919235 0.34304473 -0.19361414 75 17
-1.6324495 0.56102973 -0.23498175 80 16
-1.6828915 0.34063408 -0.29327536 71 15
-1.6323528 0.5638209 -0.48423582 60 13
-1.6775774 0.33897573 -0.3839902 67 14
-1.6291496 0.56458873 -0.58431232 58 12
-1.6819435 0.33596918 -0.67956102 60 11
-1.6272137 0.56954008 -0.89698005 72 9
-1.6854105 0.33517095 -0.79077435 68 10
-0.89505565 0.31383398 -0.55219674 90 8
-0.80421001 0.15784422 -0.5310685 38 7
-0.67244673 0.23740159 -0.5164867 53 6
-0.63184512 0.12213861 -0.51528388 90 5
-0.32767439 0.11574947 -0.29886121 38 4
-0.25461084 0.049964823 -0.23834558 90 3
-0.22173473 0.078379445 -0.23660207 51 2
-0.28275618 0.053889684 -0.33211017 7 1
-0.29304871 0.10554498 -0.38922352 8 0
-1.6769249 0.34098959 0.44729578 60 31
-1.6209056 0.56177109 0.38892055 76 30
-1.6768596 0.34247521 0.3234657 70 29
-1.6224782 0.56170315 0.26310086 77 28
-1.6726487 0.34311703 0.20418221 73 27
-1.6297959 0.56426007 0.1615185 79 26
-1.680715 0.34536463 0.1169529 76 25
-1.6282518 0.56372976 0.078725986 78 24
-1.6742775 0.34495869 0.03887808 77 23
-1.627525 0.56379533 0 82 22
-1.6791143 0.34625345 -0.038994133 78 21
-1.6232398 0.5629397 -0.078493066 81 20
-1.6780702 0.34604588 -0.1161935 76 19
-1.6301547 0.56597906 -0.15178333 79 18
-1.6907157 0.34894854 -0.19361414 74 17
-1.6328191 0.56754053 -0.23532578 77 16
-1.6768667 0.34551933 -0.29241657 70 15
-1.6326429 0.57031107 -0.48492366 59 13
-1.6787716 0.34531701 -0.38454834 65 14
-1.6293976 0.57105649 -0.58512956 58 12
-1.678429 0.34167266 -0.67862368 58 11
-1.6252156 0.57521659 -0.89698005 72 9
-1.6820116 0.34060639 -0.78971148 68 10
-0.88382655 0.31350976 -0.54573071 87 8
-0.80771732 0.16144839 -0.533871 36 7
-0.66596013 0.23783755 -0.51194286 55 6
-0.62577206 0.12337217 -0.51043797 90 5
-0.31536934 0.11260038 -0.28676856 38 4
-0.25105572 0.050265126 -0.23470671 90 3
-0.22600296 0.080838948 -0.2423263 46 2
-0.28404713 0.055197857 -0.33409885 6 1
-0.2953718 0.10763552 -0.39329916 8 0
-1.6732979 0.34664702 0.44665125 59 31
-1.6188357 0.56770819 0.38892055 73 30
-1.685209 0.35060501 0.32536009 68 29
-1.6204088 0.56764615 0.26310086 78 28
-1.6738098 0.34974939 0.20448515 73 27
-1.6253692 0.56940395 0.16128062 82 26
-1.6818796 0.35202989 0.11712643 76 25
-1.6261748 0.5696938 0.078725986 79 24
-1.6730633 0.3508009 0.03887808 77 23
-1.6207314 0.5680967 0 82 22
-1.6802807 0.35291564 -0.039052162 78 21
-1.6236204 0.5694319 -0.078609534 79 20
-1.674349 0.35168484 -0.11602084 76 19
-1.6280694 0.57195014 -0.15178333 78 18
-1.6894873 0.35484815 -0.19361414 73 17
-1.6283932 0.57269681 -0.23498175 74 16
-1.6828836 0.35287645 -0.29370472 69 15
-1.6283768 0.57520306 -0.48423582 60 13
-1.6727228 0.35047516 -0.38343209 68 14
-1.6251683 0.57594848 -0.58431232 56 12
-1.6817664 0.348463 -0.68049836 59 11
-1.6272519 0.58266389 -0.89932507 73 9
-1.6808125 0.34647563 -0.78971148 67 10
nan nan nan 0 8
-0.8112092 0.16507894 -0.53667343 35 7
-0.67073071 0.24220738 -0.5164867 50 6
-0.62533754 0.12555577 -0.51043797 90 5
-0.30650055 0.11056429 -0.27813095 31 4
-0.25256276 0.051463325 -0.23652615 87 3
-0.22268051 0.080531657 -0.23851015 47 2
-0.27938461 0.055356883 -0.32813281 4 1
-0.29499429 0.10866591 -0.39329916 8 0
-1.6768062 0.35347533 0.44794029 59 31
-1.6191387 0.57417262 0.38948423 73 30
-1.6815727 0.35598043 0.3248865 69 29
-1.6160902 0.5724712 0.26271451 78 28
-1.6677225 0.35456482 0.20387927 74 27
-1.6280612 0.57674211 0.16175638 79 26
-1.6830804 0.35841453 0.11729994 77 25
-1.6288821 0.57704049 0.078958906 78 24
-1.6718285 0.35663885 0.03887808 81 23
-1.6234491 0.57542717 0 83 22
-1.6741488 0.35774121 -0.038936108 78 21
-1.6216228 0.57509595 -0.078609534 78 20
-1.6731111 0.35752726 -0.11602084 76 19
-1.6237175 0.57679313 -0.1515598 79 18
-1.6858087 0.36022779 -0.19332983 74 17
-1.6310482 0.58004284 -0.23566984 77 16
-1.6816416 0.35874867 -0.29370472 68 15
-1.6263591 0.58088368 -0.48423582 60 13
-1.6762576 0.35732108 -0.38454834 65 14
-1.6253712 0.58241779 -0.58512956 56 12
-1.6782714 0.35385659 -0.67956102 59 11
-1.6231331 0.58758605 -0.89815259 70 9
-1.679593 0.35234064 -0.78971148 67 10
nan nan nan 0 8
-0.81265682 0.1683227 -0.53807467 38 7
-0.66614938 0.24316972 -0.51345748 53 6
-0.63050896 0.12885851 -0.51528388 90 5
-0.29257223 0.10656822 -0.26431078 32 4
-0.25406444 0.052672654 -0.23834558 90 3
-0.22692904 0.083026923 -0.24423438 45 2
-0.27918968 0.056331784 -0.32813281 6 1
-0.30002272 0.11176716 -0.40145043 8 0
-1.6731997 0.35882333 0.44729578 59 31
-1.6171247 0.57982099 0.38948423 74 30
-1.6779195 0.36133477 0.32441291 70 29
-1.6140821 0.57810891 0.26271451 77 28
-1.668901 0.36090514 0.20418221 73 27
-1.6237978 0.58129603 0.1615185 82 26
-1.6818191 0.36428741 0.11729994 76 25
-1.6245079 0.58187783 0.078842446 79 24
-1.6730167 0.36299893 0.038936108 77 23
-1.6214305 0.58109051 0 82 22
-1.6729534 0.36329094 -0.038936108 79 21
-1.6149062 0.57906109 -0.078376614 81 20
-1.6767286 0.3644177 -0.11636614 76 19
-1.621796 0.58217442 -0.1515598 79 18
-1.6821133 0.36558616 -0.19304553 74 17
-1.6267865 0.58460796 -0.23532578 77 16
-1.6755639 0.36357895 -0.29284593 70 15
-1.6265811 0.58737648 -0.48492366 59 13
-1.6702985 0.36185279 -0.38343209 67 14
-1.6233282 0.58808786 -0.58512956 59 12
-1.6748217 0.35893777 -0.67862368 59 11
-1.6232481 0.59372658 -0.89932507 74 9
-1.6783527 0.35820138 -0.78971148 67 10
-1.5990714 0.58795518 -1.0086967 42 8
-0.81206429 0.17115836 -0.53807467 38 7
-0.66720295 0.24607235 -0.51497209 60 6
-0.62259853 0.12942962 -0.50882262 90 5
-0.28207448 0.10370522 -0.25394562 32 4
-0.25557017 0.053848483 -0.24016501 85 3
-0.22514403 0.08320117 -0.2423263 46 2
-0.27900136 0.057257302 -0.32813281 6 1
-0.29829976 0.11223892 -0.3994126 9 0
-1.6720005 0.36436987 0.44729578 62 31
-1.6174819 0.58601302 0.39004788 74 30
-1.676712 0.36689696 0.32441291 69 29
-1.612156 0.58345824 0.26271451 76 28
-1.6701194 0.36696649 0.20448515 73 27
-1.6240977 0.58781052 0.16175638 78 26
-1.6732926 0.36826485 0.11677939 77 25
-1.6225694 0.58726168 0.078842446 79 24
-1.6718037 0.36854485 0.038936108 77 23
-1.6218441 0.58731836 0 81 22
-1.671675 0.36912838 -0.038936108 79 21
-1.6176708 0.58612055 -0.078609534 79 20
-1.675511 0.36997592 -0.11636614 78 19
-1.624433 0.58953685 -0.15200688 79 18
-1.6833177 0.3716943 -0.19332983 74 17
-1.6293883 0.59198004 -0.23601387 77 16
-1.6743488 0.36913329 -0.29284593 69 15
-1.6246244 0.59276712 -0.48492366 60 13
-1.6737865 0.36872265 -0.38454834 65 14
-1.6258043 0.5950979 -0.58676398 55 12
-1.678089 0.36576211 -0.68049836 58 11
-1.6211656 0.59938914 -0.89932507 69 9
-1.6771556 0.363765 -0.78971148 67 10
-1.6190583 0.60176396 -1.0229218 69 8
-0.81351823 0.17427726 -0.53947592 38 7
-0.67564577 0.25190693 -0.52254522 65 6
-0.62401158 0.13198838 -0.51043797 90 5
-0.27158147 0.10082121 -0.24358052 35 4
-0.24865824 0.053382345 -0.23288728 87 3
-0.22937144 0.085735805 -0.24805054 45 2
-0.28474548 0.059401661 -0.33608752 6 1
-0.29925498 0.11380675 -0.40145043 9 0
-1.6730775 0.3707231 0.44794029 59 31
-1.6131406 0.59081489 0.38948423 73 30
-1.6730241 0.37221792 0.32393929 70 29
-1.6147466 0.59078544 0.26348719 77 28
-1.6639831 0.37171897 0.20387927 74 27
-1.6197 0.59261799 0.1615185 82 26
-1.6793005 0.37572667 0.11729994 76 25
-1.6205095 0.59292185 0.078842446 78 24
-1.6680021 0.37412632 0.03887808 78 23
-1.6174376 0.59211373 0 79 22
-1.6728156 0.37550527 -0.038994133 78 21
-1.6155117 0.59204572 -0.078609534 79 20
-1.6693408 0.37473676 -0.11602084 76 19
-1.6223652 0.59520364 -0.15200688 79 18
-1.67952 0.3773205 -0.19304553 74 17
-1.6273121 0.59766406 -0.23601387 73 16
-1.6729848 0.37526762 -0.29284593 70 15
-1.6224408 0.59871775 -0.48492366 58 13
-1.6701105 0.37403387 -0.3839902 67 14
-1.6213977 0.60022962 -0.5859468 59 12
-1.6722105 0.37091327 -0.67862368 58 11
-1.6231982 0.60659605 -0.90167016 67 9
-1.6758112 0.36990964 -0.78971148 67 10
-1.6208451 0.60920519 -1.0255083 72 8
-0.81489831 0.17769213 -0.54087716 38 7
-0.67285931 0.25367334 -0.5210306 67 6
-0.62539071 0.13466772 -0.51205325 90 5
-0.25772339 0.096609123 -0.22976033 33 4
-0.25014025 0.054638997 -0.23470671 90 3
-0.22907075 0.086535938 -0.24805054 45 2
-0.28601119 0.060743053 -0.3380762 6 1
-0.3001827 0.11543497 -0.40348825 9 0
-1.6693504 0.37632501 0.44729578 59 31
-1.6132472 0.59757239 0.39004788 73 30
-1.6740437 0.37888578 0.32441291 70 29
-1.6125704 0.59669983 0.26348719 78 28
-1.6650301 0.3783617 0.20418221 73 27
-1.6221828 0.6002838 0.16199426 81 26
-1.6779122 0.38187909 0.11729994 76 25
-1.6206665 0.59972697 0.078958906 79 24
-1.6666861 0.37994647 0.03887808 78 23
-1.6175998 0.5989089 0 82 22
-1.6689907 0.3810811 -0.038936108 79 21
-1.6157757 0.59855169 -0.078725986 79 20
-1.6679562 0.38085267 -0.11602084 78 19
-1.6201729 0.60114586 -0.15200688 82 18
-1.6781927 0.38318086 -0.19304553 74 17
-1.6251106 0.6036244 -0.23601387 73 16
-1.6716646 0.38110515 -0.29284593 70 15
-1.6203411 0.60437745 -0.48492366 59 13
-1.6687282 0.38015264 -0.3839902 65 14
-1.6192926 0.60588568 -0.5859468 56 12
-1.6731672 0.37725446 -0.67956102 59 11
-1.6188996 0.61175793 -0.90049762 69 9
-1.6767184 0.37624916 -0.79077435 65 10
-1.6207079 0.61562186 -1.0268015 74 8
-0.81427306 0.18053557 -0.54087716 49 7
-0.67196977 0.25602055 -0.5210306 72 6
-0.6286484 0.13764922 -0.51528388 90 5
-0.26580238 0.10079181 -0.23839796 35 4
-0.24994801 0.055511817 -0.23470671 82 3
-0.22875205 0.087374941 -0.24805054 46 2
-0.28579742 0.061741047 -0.3380762 6 1
-0.30112296 0.11701899 -0.40552607 9 0
-1.6680266 0.38214985 0.44729578 60 31
-1.6134312 0.60405695 0.39061153 74 30
-1.6727109 0.38472694 0.32441291 70 29
-1.6104778 0.60232508 0.26348719 77 28
-1.6636993 0.38417146 0.20418221 74 27
-1.6178533 0.60478538 0.16175638 78 26
-1.6717077 0.38661683 0.1169529 76 25
-1.6185632 0.60538048 0.078958906 79 24
-1.670221 0.38688299 0.038994133 77 23
-1.62018 0.60631013 0 79 22
-1.6701534 0.38717452 -0.038994133 78 21
-1.6183517 0.60594547 -0.078958906 77 20
-1.6690469 0.38723281 -0.1161935 78 19
-1.6158401 0.60563838 -0.15178333 79 18
-1.6816854 0.39015228 -0.19361414 74 17
-1.6254172 0.60988295 -0.23635793 74 16
-1.6751244 0.38804269 -0.29370472 69 15
-1.6204693 0.61088055 -0.4856115 59 13
-1.6698335 0.38622993 -0.38454834 65 14
-1.6171679 0.61153436 -0.5859468 56 12
-1.6719069 0.38280079 -0.67956102 58 11
-1.6168619 0.61712307 -0.90049762 73 9
-1.6709808 0.38110012 -0.78864861 65 10
-1.6186575 0.62099302 -1.0268015 73 8
-0.81363791 0.1833768 -0.54087716 38 7
-0.67111707 0.25824746 -0.5210306 73 6
-0.62259519 0.13851565 -0.51043797 90 5
-0.26042259 0.099685758 -0.23321539 35 4
-0.25311646 0.05705449 -0.23834558 86 3
-0.22546062 0.086935386 -0.24423438 44 2
-0.2855911 0.062688448 -0.3380762 6 1
-0.29804683 0.11693424 -0.40145043 9 0
-1.6691036 0.3882229 0.44794029 59 31
-1.6114193 0.60940397 0.39061153 72 30
-1.6714258 0.39027172 0.32441291 70 29
-1.610781 0.60853821 0.26387355 77 28
-1.6672498 0.3908121 0.20478809 74 27
-1.6157323 0.61042917 0.16175638 82 26
-1.6752739 0.39329132 0.11729994 76 25
-1.6188818 0.6116302 0.079075366 78 24
-1.6689287 0.39241952 0.038994133 77 23
-1.6134858 0.6099056 0 79 22
-1.6687917 0.39300206 -0.038994133 79 21
-1.6139989 0.61042249 -0.078842446 79 20
-1.6653252 0.39219719 -0.11602084 78 19
-1.618371 0.61304504 -0.15223041 79 18
-1.677964 0.39516085 -0.19332983 74 17
-1.6209643 0.61467212 -0.23601387 74 16
-1.6666338 0.39191458 -0.29241657 69 15
-1.6184347 0.61625087 -0.4856115 59 13
-1.6684752 0.39205644 -0.38454834 65 14
-1.615131 0.61689377 -0.5859468 56 12
-1.6705605 0.3886345 -0.67956102 58 11
-1.6167569 0.62356055 -0.90167016 69 9
-1.6763237 0.38816047 -0.79183722 65 10
-1.6184736 0.62741548 -1.0280946 73 8
-0.81100559 0.18561876 -0.53947592 36 7
-0.6720627 0.26131585 -0.52254522 78 6
-0.62583387 0.14151275 -0.51366854 90 5
