# .PCD v0.7 - Point Cloud Data file format
VERSION 0.7
FIELDS x y z intensity ring
SIZE 4 4 4 4 2
TYPE F F F F U
COUNT 1 1 1 1 1
WIDTH 1258
HEIGHT 1
VIEWPOINT 0 0 0 1 0 0 0
POINTS 1258
DATA ascii
nan nan nan 0 16
-1.9825776 -1.0354339 -0.38387725 56 15
-1.7432028 -0.63239872 -0.5206911 4 13
-1.9942371 -1.0419624 -0.5073359 54 14
-1.7080851 -0.61771691 -0.61618394 4 12
-0.47702742 -0.24837901 -0.20339964 7 11
-0.49170226 -0.17781948 -0.25912759 4 9
-0.47426829 -0.24751054 -0.23489399 4 10
-0.40312028 -0.1455061 -0.23794894 7 8
-0.31700882 -0.16604352 -0.21859284 35 7
-0.30044365 -0.10815158 -0.21659121 9 6
-0.258858 -0.13611425 -0.21806686 47 5
-0.26603615 -0.094923966 -0.23667043 30 4
-0.2157829 -0.11398225 -0.22197071 16 3
-0.24459264 -0.086411625 -0.26522329 7 2
nan nan nan 0 1
nan nan nan 0 0
-1.9846845 -1.0338575 0.5878008 53 31
-1.9066457 -0.68881446 0.46106812 62 30
-1.9759527 -1.0271314 0.42292073 55 29
-1.8979813 -0.68642443 0.3102349 64 28
-1.9804945 -1.0273306 0.26810274 54 27
-1.9096434 -0.69099146 0.19077738 66 26
-1.9883699 -1.0305525 0.15339224 54 25
-1.9092288 -0.69045877 0.09305039 68 24
-1.9818382 -1.026287 0.051005717 54 23
-1.9019811 -0.68747139 0 67 22
-1.9842356 -1.0270925 -0.051063746 55 21
-1.9024209 -0.68725455 -0.092701018 67 20
-1.9824947 -1.0257432 -0.15210471 55 19
-1.9065624 -0.68800014 -0.17883162 67 18
-1.9855049 -1.027298 -0.25189739 54 17
-1.7845714 -0.64343148 -0.25872076 2 16
-1.9839941 -1.027372 -0.38344783 56 15
-1.7476631 -0.627119 -0.52137893 4 13
-1.9890319 -1.0308485 -0.50510341 54 14
-1.7146821 -0.61333674 -0.61781836 4 12
-0.46963212 -0.2425022 -0.19965033 7 11
-0.4964537 -0.17765695 -0.26147261 4 9
-0.47512937 -0.24585351 -0.23489399 4 10
-0.4056195 -0.1448767 -0.23924215 7 8
-0.3194164 -0.16590442 -0.21999407 33 7
-0.29516399 -0.1051973 -0.21204734 9 6
-0.26267368 -0.13705373 -0.22129747 39 5
-0.2612204 -0.092285156 -0.23148786 37 4
-0.2161597 -0.11326606 -0.22197071 13 3
-0.25100017 -0.0876652 -0.27285561 7 2
nan nan nan 0 1
nan nan nan 0 0
-1.981668 -1.0239367 0.58586729 54 31
-1.9020362 -0.68003565 0.45937717 66 30
-1.9749869 -1.0183185 0.42197356 55 29
-1.9002471 -0.68012667 0.3102349 66 28
-1.9772742 -1.017344 0.26719391 54 27
-1.9073558 -0.68264925 0.19030163 67 26
-1.9873428 -1.0216678 0.15304519 55 25
-1.9068035 -0.68244582 0.09281747 68 24
-1.9785647 -1.0162762 0.050831638 58 23
-1.9066054 -0.68199986 0 68 22
-1.9833641 -1.0178727 -0.050947692 55 21
-1.902337 -0.68010396 -0.092584558 67 20
-1.983668 -1.0180223 -0.15193206 58 19
-1.9066063 -0.68050623 -0.17860807 68 18
-1.9822751 -1.0172987 -0.25104448 55 17
-1.8008063 -0.64217234 -0.26078501 3 16
-1.9830109 -1.0185319 -0.38258907 56 15
-1.7406693 -0.61811399 -0.51862758 4 13
-1.9904521 -1.0227832 -0.50454527 54 14
-1.7144784 -0.60686171 -0.61700112 4 12
-0.46841794 -0.23979518 -0.19871302 7 11
-0.48873168 -0.17301403 -0.25678253 4 9
-0.47594202 -0.24427658 -0.23489399 4 10
-0.39197302 -0.13855188 -0.23018974 7 8
-0.32363105 -0.1667691 -0.22279654 32 7
-0.30305398 -0.10674994 -0.21810584 9 6
-0.26146451 -0.13524257 -0.21968216 34 5
-0.26496437 -0.092531547 -0.23494291 42 4
-0.21655376 -0.11251083 -0.22197071 11 3
-0.252837 -0.087299451 -0.27476367 7 2
nan nan nan 0 1
nan nan nan 0 0
-1.9787843 -1.0137019 0.58393365 54 31
-1.9021012 -0.67258275 0.45881352 64 30
-1.9741604 -1.0091788 0.42102635 54 29
-1.8979511 -0.67184621 0.30946225 64 28
-1.9741853 -1.0070456 0.26628509 54 27
-1.9050332 -0.67433149 0.18982588 67 26
-1.9864554 -1.0124545 0.15269816 56 25
-1.9044641 -0.67412418 0.092584558 68 24
-1.9755979 -1.0056089 0.050657555 55 23
-1.8995432 -0.67201549 0 68 22
-1.9824524 -1.0086716 -0.050831638 55 21
-1.8977501 -0.67063844 -0.092235178 68 20
-1.978323 -1.0065581 -0.15124147 58 19
-1.9019235 -0.67136812 -0.17793746 68 18
-1.9793525 -1.0066414 -0.25019157 54 17
-1.8053732 -0.63670331 -0.26112905 3 16
-1.9845371 -1.0101373 -0.38215968 56 15
-1.747461 -0.61331642 -0.52000326 4 13
-1.9809891 -1.0091772 -0.5011965 56 14
-1.7189221 -0.60135114 -0.61781836 4 12
-0.47754055 -0.2423114 -0.20246232 7 11
-0.48933262 -0.17130698 -0.25678253 4 9
-0.47281045 -0.24045905 -0.23276827 4 10
-0.39045426 -0.13642056 -0.22889654 7 8
-0.31689358 -0.16175909 -0.21719161 32 7
-0.29967621 -0.10436048 -0.2150766 9 6
-0.26195842 -0.13428335 -0.21968216 41 5
-0.27044323 -0.093279101 -0.24012548 58 4
-0.21847896 -0.11252051 -0.22379012 11 3
-0.25927678 -0.088438712 -0.28239602 7 2
nan nan nan 0 1
nan nan nan 0 0
-1.973876 -1.002059 0.58135557 55 31
-1.9022535 -0.66480577 0.4582499 63 30
-1.9756576 -1.0008247 0.42055279 55 29
-1.8934039 -0.66244608 0.30830321 66 28
-1.9756495 -0.99868107 0.26598215 54 27
-1.9004421 -0.66488689 0.18911223 67 26
-1.9790285 -0.99953306 0.15183055 56 25
-1.8998476 -0.66467315 0.092235178 70 24
-1.9768661 -0.99757826 0.05059953 56 23
-1.9019935 -0.66504884 0 68 22
-1.9816751 -0.99914342 -0.050715584 55 21
-1.895363 -0.66236746 -0.092002258 66 20
-1.9775474 -0.99704969 -0.15089616 58 19
-1.8996675 -0.6627574 -0.17749038 68 18
-1.9828542 -0.999726 -0.25019157 55 17
-1.8053554 -0.62926966 -0.26078501 3 16
-1.983656 -1.00098 -0.3813009 56 15
-1.7427762 -0.60485703 -0.51793975 3 13
-1.9803263 -0.99970853 -0.50008029 56 14
-1.7120756 -0.59226894 -0.61454946 4 12
-0.47631806 -0.23959154 -0.20152499 7 11
-0.49204716 -0.17022464 -0.25795507 4 9
-0.47767785 -0.24086459 -0.23489399 4 10
-0.38687539 -0.13368344 -0.22631015 7 8
-0.32297617 -0.16349973 -0.22139531 30 7
-0.30192438 -0.10394619 -0.21659121 9 6
-0.25734857 -0.13072407 -0.21483622 33 5
-0.26561972 -0.090633139 -0.23494291 58 4
-0.21431917 -0.10936064 -0.21833181 11 3
-0.2580632 -0.086987846 -0.28048792 7 2
nan nan nan 0 1
nan nan nan 0 0
-1.9752055 -0.99407452 0.58071113 54 31
-1.8976536 -0.65578264 0.45655888 62 30
-1.9769468 -0.99281812 0.4200792 55 29
-1.8910346 -0.65422285 0.30753052 64 28
-1.9702543 -0.98732185 0.26477039 55 27
-1.9003987 -0.65743798 0.18887436 70 26
-1.9802766 -0.99149978 0.15165703 55 25
-1.8974345 -0.65640968 0.092002258 70 24
-1.9714001 -0.98618895 0.050367419 56 23
-1.8972124 -0.65596259 0 68 22
-1.976213 -0.98774052 -0.050483476 56 21
-1.8953022 -0.65493435 -0.091885805 67 20
-1.9743267 -0.98678821 -0.15037821 59 19
-1.8996146 -0.65531284 -0.17726684 70 18
-1.9841113 -0.99168551 -0.24990724 55 17
-1.7981731 -0.61974752 -0.25940883 3 16
-1.9827353 -0.99184102 -0.38044211 56 15
-1.7471514 -0.59954733 -0.51862758 3 13
-1.9794477 -0.99060374 -0.49896398 56 14
-1.7163689 -0.58705086 -0.6153667 8 12
-0.48335868 -0.24106015 -0.20433699 7 11
-0.48636106 -0.16639104 -0.25443748 4 9
-0.48053473 -0.24021737 -0.23595686 4 10
-0.39139718 -0.13369136 -0.22889654 8 8
-0.32170165 -0.16142851 -0.21999407 28 7
-0.3022854 -0.10289165 -0.21659121 9 6
-0.2645849 -0.13332669 -0.22129747 25 5
-0.26421669 -0.089144275 -0.23321539 55 4
-0.2146996 -0.10861186 -0.21833181 9 3
-0.25990301 -0.086581118 -0.28239602 7 2
nan nan nan 0 1
nan nan nan 0 0
-1.9765033 -0.98609298 0.58006656 53 31
-1.8976257 -0.64836967 0.45599529 62 30
-1.9738115 -0.98262191 0.41865841 54 29
-1.8909688 -0.6468212 0.30714417 67 28
-1.9714674 -0.97933179 0.26446745 56 27
-1.8978573 -0.64952594 0.1883986 67 26
-1.9770275 -0.98124754 0.15113647 55 25
-1.8973504 -0.64897686 0.091885805 70 24
-1.9681168 -0.97596294 0.05019334 59 23
-1.8947576 -0.64772391 0 68 22
-1.9727635 -0.97784442 -0.050309397 58 21
-1.8904847 -0.64590007 -0.091536425 67 20
-1.9710584 -0.97656131 -0.14986025 59 19
-1.8947049 -0.64660507 -0.17659622 70 18
-1.983112 -0.98254323 -0.24933861 54 17
-1.8025628 -0.61457747 -0.25975287 3 16
-1.9795697 -0.98162413 -0.37915394 56 15
-1.7401253 -0.59036732 -0.51587623 3 13
-1.9739953 -0.97969079 -0.49673149 56 14
-1.7072122 -0.57728618 -0.61128062 8 12
-0.47172034 -0.23323166 -0.19871302 7 11
-0.48691016 -0.16477729 -0.25443748 4 9
-0.48743808 -0.24158232 -0.23914547 4 10
-0.38777637 -0.13104698 -0.22631015 8 8
-0.33518896 -0.16685934 -0.22980274 28 7
-0.30451494 -0.10250823 -0.21810584 9 6
nan nan nan 0 5
-0.26623049 -0.08882305 -0.23494291 75 4
-0.21658106 -0.1086878 -0.22015125 8 3
-0.26788548 -0.088166244 -0.29193643 7 2
nan nan nan 0 1
nan nan nan 0 0
-1.9754347 -0.97738594 0.57877755 54 31
-1.8859155 -0.63740981 0.45261335 63 30
-1.9704595 -0.97280359 0.41723761 55 29
-1.883741 -0.63739067 0.3055988 66 28
-1.9680296 -0.96949148 0.26355863 56 27
-1.8953967 -0.64130712 0.18792285 68 26
-1.9757978 -0.97247845 0.15078942 55 25
-1.8947592 -0.64108586 0.091652885 70 24
-1.9668595 -0.96722031 0.050077289 59 23
-1.8921568 -0.63984072 0 68 22
-1.9694387 -0.96763819 -0.050135311 56 21
-1.8902495 -0.63883054 -0.091419972 67 20
-1.965337 -0.96561044 -0.14916965 59 19
-1.8969504 -0.63998735 -0.17659622 72 18
-1.9774474 -0.97157061 -0.24820139 55 17
-1.8000023 -0.60670525 -0.25906479 3 16
-1.9739785 -0.97069705 -0.37743637 56 15
-1.7420735 -0.58459359 -0.51587623 3 13
-1.9730321 -0.97063798 -0.49561527 56 14
-1.7136004 -0.57311475 -0.61291504 7 12
-0.4766838 -0.23364392 -0.20058766 7 11
-0.48328802 -0.1616952 -0.25209242 4 9
-0.4781068 -0.23492515 -0.23383114 4 10
-0.3922981 -0.13102412 -0.22889654 9 8
-0.32649228 -0.16109557 -0.22279654 25 7
-0.30108663 -0.10021871 -0.2150766 11 6
nan nan nan 0 5
-0.26309577 -0.086794332 -0.23148786 51 4
-0.2215348 -0.11028068 -0.22560956 8 3
-0.26819161 -0.087230623 -0.29193643 7 2
nan nan nan 0 1
nan nan nan 0 0
-1.9723319 -0.96728617 0.57684398 54 31
-1.8904401 -0.63159204 0.45317701 62 30
-1.9672322 -0.96267515 0.41581681 55 29
-1.8812679 -0.62924963 0.30482608 66 28
-1.962487 -0.95825046 0.26234686 55 27
-1.8976238 -0.63468713 0.18792285 68 26
-1.9702193 -0.96119159 0.15009534 56 25
-1.8946162 -0.63367856 0.091536425 70 24
-1.9679781 -0.95925117 0.05001926 59 23
-1.8920068 -0.63244194 0 70 22
-1.9683129 -0.9585641 -0.05001926 59 21
-1.8877288 -0.63065112 -0.091187052 67 20
-1.9642137 -0.95655537 -0.14882436 58 19
-1.892084 -0.63100648 -0.17592561 70 18
-1.9763633 -0.96248221 -0.24763279 55 17
-1.7950587 -0.59807849 -0.25803268 3 16
-1.9751421 -0.96271908 -0.37700695 56 15
-1.7463857 -0.57926297 -0.51656407 3 13
-1.9676518 -0.9594627 -0.49338278 56 14
-1.7021252 -0.56269729 -0.60801172 7 12
-0.48581529 -0.2360701 -0.20433699 7 11
-0.4859491 -0.16069062 -0.25326493 4 9
-0.48704177 -0.23725808 -0.2380826 7 10
-0.38664618 -0.12767796 -0.22501695 11 8
-0.33631694 -0.16457394 -0.22980274 26 7
-0.29954037 -0.09856075 -0.21356197 9 6
-0.26423946 -0.12973721 -0.21968216 20 5
-0.25995019 -0.084788606 -0.22803281 51 4
-0.22955811 -0.11339597 -0.23470671 8 3
-0.27157992 -0.087251395 -0.29575258 8 2
nan nan nan 0 1
nan nan nan 0 0
-1.9715211 -0.95793444 0.57555491 54 31
-1.8834872 -0.62161607 0.4509224 63 30
-1.9641246 -0.9522382 0.41439605 55 29
-1.8835616 -0.62235022 0.30482608 67 28
-1.9548222 -0.9456352 0.26083216 58 27
-1.8904816 -0.62461525 0.18697134 70 26
-1.9714848 -0.95287609 0.14992182 56 25
-1.8921819 -0.6251685 0.091303512 70 24
-1.962483 -0.94767427 0.049787153 60 23
-1.8919374 -0.62472194 0 70 22
-1.9650636 -0.9480778 -0.049845181 60 21
-1.8876554 -0.62294805 -0.091070592 67 20
-1.9632163 -0.94717723 -0.14847904 59 19
-1.8920183 -0.62329084 -0.17570207 71 18
-1.9754059 -0.95306838 -0.24706414 55 17
-1.7925328 -0.58995253 -0.25734457 3 16
-1.9720078 -0.95225304 -0.3757188 56 15
-1.7439271 -0.57136714 -0.5151884 3 13
-1.9689623 -0.95118195 -0.49282464 56 14
-1.7064232 -0.55718541 -0.6088289 4 12
-0.48251036 -0.23225741 -0.20246232 7 11
-0.48653477 -0.15890847 -0.25326493 4 9
-0.48790807 -0.23547138 -0.2380826 4 10
-0.39526364 -0.12886478 -0.23018974 12 8
-0.33877414 -0.1642572 -0.23120397 24 7
-0.30748546 -0.099859871 -0.21962045 11 6
-0.26300573 -0.12791616 -0.21806686 20 5
-0.26716104 -0.085983634 -0.23494291 49 4
-0.23150297 -0.11332608 -0.23652615 7 3
-0.27653134 -0.087674662 -0.30147681 7 2
nan nan nan 0 1
nan nan nan 0 0
-1.9705027 -0.9489457 0.5742659 54 31
-1.8856455 -0.61503774 0.4509224 63 30
-1.9674364 -0.94537628 0.41439605 55 29
-1.8810248 -0.61424339 0.3040534 66 28
-1.9581113 -0.93880576 0.26083216 56 27
-1.8855507 -0.61570287 0.18625772 70 26
-1.9680548 -0.94274867 0.14940126 58 25
-1.8896031 -0.61701471 0.091070592 68 24
-1.9590197 -0.93757373 0.049613073 58 23
-1.8869741 -0.61579514 0 71 22
-1.9661074 -0.94013184 -0.049787153 60 21
-1.8826933 -0.61403996 -0.09072122 67 20
-1.9620132 -0.93816179 -0.14813375 59 19
-1.8918139 -0.61591452 -0.17547853 71 18
-1.972002 -0.94294518 -0.24621123 54 17
-1.7992926 -0.58521813 -0.25803268 3 16
-1.9708788 -0.94323212 -0.37485999 56 15
-1.7527736 -0.56748891 -0.51725191 3 13
-1.9656802 -0.94113863 -0.49115029 59 14
-1.7016093 -0.54905754 -0.60637724 4 12
-0.48749208 -0.23258767 -0.20433699 7 11
-0.47656456 -0.15386736 -0.24740234 7 9
-0.49076357 -0.23475307 -0.23914547 4 10
-0.39571106 -0.12748426 -0.23018974 13 8
nan nan nan 0 7
-0.30593359 -0.098193154 -0.21810584 11 6
-0.26002979 -0.12530591 -0.21483622 14 5
-0.2622776 -0.083457351 -0.22976033 42 4
-0.24109796 -0.11711871 -0.24744275 7 3
-0.27683571 -0.086708851 -0.30147681 7 2
nan nan nan 0 1
nan nan nan 0 0
-1.9672672 -0.93893278 0.57233238 54 31
-1.8831428 -0.60696268 0.4497951 62 30
-1.9596493 -0.93321323 0.41202807 56 29
-1.8784547 -0.60616189 0.30328071 66 28
-1.9546558 -0.92876238 0.25992334 56 27
-1.8852129 -0.60868472 0.18601984 70 26
-1.9623265 -0.93158466 0.14870718 58 25
-1.8869903 -0.60888648 0.090837672 71 24
-1.9577662 -0.92858237 0.049497016 60 23
-1.886732 -0.60843998 0 70 22
-1.9601854 -0.92931396 -0.049555045 58 21
-1.8824472 -0.60670096 -0.09060476 70 20
-1.9585183 -0.92809564 -0.14761581 60 19
-1.8867328 -0.60735661 -0.17480791 71 18
-1.9707947 -0.93392342 -0.2456426 55 17
-1.7917905 -0.57622701 -0.2566565 3 16
-1.9652634 -0.93211496 -0.37314242 58 15
-1.7501637 -0.55990803 -0.51587623 3 13
-1.9621896 -0.93147218 -0.48947588 58 14
-1.7080195 -0.5445441 -0.60801172 3 12
-0.47780925 -0.22596455 -0.19965033 7 11
-0.47707218 -0.15228617 -0.24740234 7 9
-0.4895401 -0.23205942 -0.2380826 4 10
-0.39817408 -0.12680866 -0.23148295 18 8
nan nan nan 0 7
-0.30625755 -0.097178102 -0.21810584 9 6
-0.26558354 -0.12696303 -0.21968216 14 5
-0.25909474 -0.081536487 -0.22630529 45 4
-0.23994902 -0.11555675 -0.24562332 8 3
-0.28331238 -0.087640576 -0.30910915 7 2
nan nan nan 0 1
nan nan nan 0 0
-1.9681878 -0.93136817 0.57168782 54 31
-1.8805023 -0.59924084 0.44866779 64 30
-1.9582958 -0.92460835 0.41108084 55 29
-1.8733925 -0.59768516 0.30212167 67 28
-1.9509938 -0.91909504 0.25901452 58 27
-1.8873261 -0.60210037 0.18601984 70 26
-1.9608945 -0.92294306 0.14836015 58 25
-1.8842392 -0.6011129 0.09060476 68 24
-1.9563138 -0.91995293 0.049380966 60 23
-1.8887391 -0.60218 0 70 22
-1.9588956 -0.92033517 -0.049438987 58 21
-1.8844489 -0.60045516 -0.09060476 70 20
-1.9593292 -0.92053276 -0.14744316 59 19
-1.8912152 -0.60151911 -0.17503145 71 18
-1.9671404 -0.92420679 -0.24478969 55 17
-1.7937909 -0.56996894 -0.2566565 3 16
-1.9683435 -0.92559284 -0.37314242 59 15
-1.745133 -0.55193537 -0.51381272 3 13
-1.9632252 -0.92357731 -0.48891777 58 14
-1.7075615 -0.53816974 -0.60719448 4 12
-0.48278263 -0.22628281 -0.20152499 7 11
-0.46494749 -0.14669582 -0.2403672 7 9
-0.48009077 -0.22557287 -0.23276827 4 10
-0.3924804 -0.12352745 -0.22760335 26 8
nan nan nan 0 7
-0.31230256 -0.09784802 -0.22264971 11 6
-0.25401214 -0.12019683 -0.20837499 14 5
-0.26630139 -0.082708761 -0.23321539 43 4
-0.24496688 -0.11698779 -0.25108162 8 3
-0.28361654 -0.086651094 -0.30910915 7 2
nan nan nan 0 1
nan nan nan 0 0
-1.9648695 -0.921408 0.5697543 55 31
-1.8779346 -0.59121555 0.44754049 64 30
-1.954845 -0.91463858 0.40966007 55 29
-1.8731109 -0.59040236 0.30173534 67 28
-1.9519427 -0.91122687 0.25871158 58 27
-1.8846676 -0.5940178 0.18554407 71 26
-1.9618453 -0.91503578 0.14818662 58 25
-1.886326 -0.59453213 0.09060476 71 24
-1.9506148 -0.90854508 0.049148858 60 23
-1.8884444 -0.59483492 0 71 22
-1.9575671 -0.91137701 -0.049322937 60 21
-1.8818709 -0.59205073 -0.09037184 71 20
-1.9557509 -0.91052228 -0.14692521 60 19
-1.8885506 -0.59342629 -0.17458437 72 18
-1.9660133 -0.91488975 -0.24422108 55 17
-1.781589 -0.55927092 -0.25459221 3 16
-1.9605658 -0.9131602 -0.37099543 59 15
-1.7379638 -0.54268122 -0.51106137 3 13
-1.9620222 -0.91465437 -0.48780149 58 14
-1.7117794 -0.53260672 -0.60801172 4 12
-0.47731653 -0.22155359 -0.19871302 7 11
-0.47179019 -0.14701194 -0.24388477 7 9
-0.48091429 -0.22381173 -0.23276827 4 10
-0.38678974 -0.12022005 -0.22372375 30 8
nan nan nan 0 7
-0.30313578 -0.093838349 -0.2150766 11 6
-0.26476607 -0.12423156 -0.21806686 12 5
-0.26660272 -0.081732161 -0.23321539 42 4
-0.24847685 -0.11759076 -0.25472048 8 3
-0.28391731 -0.085660562 -0.30910915 7 2
nan nan nan 0 1
nan nan nan 0 0
-1.9616649 -0.91114008 0.56782073 54 31
-1.8800888 -0.58432865 0.44754049 64 30
-1.9559581 -0.90643287 0.40918648 56 29
-1.872903 -0.58280182 0.30134898 68 28
-1.9507666 -0.90197831 0.2581057 59 27
-1.8820778 -0.58563268 0.18506832 71 26
-1.9583972 -0.90469378 0.14766607 58 25
-1.8837217 -0.58613575 0.09037184 71 24
-1.9492381 -0.89963078 0.0490328 60 23
-1.8834476 -0.58569044 0 70 22
-1.9563571 -0.90209764 -0.049206879 60 21
-1.8767694 -0.5832628 -0.090022467 70 20
-1.9522839 -0.90020716 -0.14640725 62 19
-1.8930919 -0.58723545 -0.17480791 71 18
-1.9624316 -0.90489358 -0.24336813 56 17
-1.7883592 -0.55419767 -0.25528032 3 16
-1.9592714 -0.90424174 -0.37013668 62 15
-1.7398475 -0.53661126 -0.51106137 3 13
-1.9587274 -0.90438473 -0.48612714 59 14
-1.7068503 -0.52455473 -0.60556006 4 12
-0.48228869 -0.22184359 -0.20058766 7 11
-0.46809882 -0.14400391 -0.24153973 7 9
-0.48784307 -0.2250049 -0.23595686 4 10
-0.38105977 -0.11702256 -0.21984413 34 8
nan nan nan 0 7
-0.31299475 -0.095610753 -0.22264971 11 6
-0.26347601 -0.12248484 -0.21645153 11 5
-0.26341724 -0.079787247 -0.22976033 42 4
-0.25506192 -0.11970436 -0.26199818 9 3
-0.28578186 -0.085065432 -0.31101725 7 2
nan nan nan 0 1
nan nan nan 0 0
-1.958254 -0.90124971 0.56588715 55 31
-1.8774585 -0.57633799 0.44641316 64 30
-1.9501917 -0.89549202 0.4072921 58 29
-1.8702023 -0.57481468 0.3005763 68 28
-1.9471385 -0.89205486 0.25719687 59 27
-1.8840096 -0.57938832 0.18506832 71 26
-1.9615433 -0.89785218 0.14766607 62 25
-1.8785925 -0.57736391 0.090022467 71 24
-1.9478229 -0.89073712 0.048916742 60 23
-1.8854806 -0.57911241 0 70 22
-1.9479784 -0.89039719 -0.048916742 60 21
-1.8740175 -0.57524776 -0.089789554 71 20
-1.9508798 -0.8913089 -0.14606196 62 19
-1.8878846 -0.57877302 -0.17413729 72 18
-1.9633205 -0.89700323 -0.24308385 58 17
-1.7830815 -0.54609722 -0.25424817 3 16
-1.9557002 -0.89431673 -0.3688485 59 15
-1.7417101 -0.53053486 -0.51106137 3 13
-1.9550716 -0.8948341 -0.48445272 59 14
-1.7041475 -0.51722699 -0.60392559 4 12
-0.47460544 -0.21635596 -0.19683836 7 11
-0.46011129 -0.13992323 -0.23684964 7 9
-0.48041162 -0.21949831 -0.2317054 4 10
-0.38965023 -0.11819324 -0.22501695 42 8
nan nan nan 0 7
-0.30185899 -0.091212913 -0.21356197 11 6
-0.27077991 -0.12487461 -0.22291279 12 5
-0.26888913 -0.080416709 -0.23494291 47 4
-0.25700396 -0.11959818 -0.26381761 11 3
-0.29383224 -0.086321786 -0.32055762 7 2
nan nan nan 0 1
nan nan nan 0 0
-1.9568392 -0.89274073 0.56459814 54 31
-1.8770279 -0.5694046 0.44584951 63 30
-1.9486848 -0.88698101 0.40634492 58 29
-1.869734 -0.56789452 0.30018997 67 28
-1.9455698 -0.88353574 0.25659099 59 27
-1.8836385 -0.57208776 0.18483046 71 26
-1.9554302 -0.88721031 0.14697199 62 25
-1.8804969 -0.57113105 0.090022467 71 24
-1.9462155 -0.88220412 0.048800692 62 23
-1.8873906 -0.57285672 0 71 22
-1.9487989 -0.88255829 -0.048858721 62 21
-1.8759148 -0.56903017 -0.089789554 72 20
-1.9538248 -0.88483459 -0.14606196 62 19
-1.8875095 -0.5714606 -0.17391375 72 18
-1.9594998 -0.88740581 -0.24223091 58 17
-1.784977 -0.53986979 -0.25424817 3 16
-1.9564131 -0.8868072 -0.36841911 62 15
-1.7480645 -0.52613592 -0.51243705 3 13
-1.9515285 -0.8849771 -0.48277837 59 14
-1.7013254 -0.51022142 -0.60229117 4 12
-0.48168007 -0.21759123 -0.19965033 7 11
-0.46695036 -0.14018984 -0.2403672 7 9
-0.4790802 -0.21696022 -0.2306425 4 10
-0.3839007 -0.11502766 -0.22113733 41 8
nan nan nan 0 7
-0.31363827 -0.093478061 -0.22264971 11 6
-0.26948652 -0.12311862 -0.22129747 12 5
-0.25874031 -0.076507166 -0.22457777 50 4
-0.26206708 -0.120905 -0.26927593 12 3
-0.29257625 -0.084860124 -0.31864956 7 2
nan nan nan 0 1
nan nan nan 0 0
-1.9533436 -0.88291216 0.56266457 55 31
-1.8720021 -0.56076038 0.44415855 64 30
-1.9450594 -0.87713838 0.40492415 58 29
-1.8669716 -0.55995071 0.29941726 67 28
-1.939594 -0.87265575 0.2553792 59 27
-1.8832395 -0.56479692 0.18459257 71 26
-1.9448737 -0.87422854 0.14593084 59 25
-1.8776932 -0.56313401 0.089789554 72 24
-1.9447255 -0.87335211 0.048684638 62 23
-1.8821921 -0.56411982 0 71 22
-1.9473095 -0.87369895 -0.048742663 62 21
-1.8731036 -0.56105083 -0.089556634 70 20
-1.9478043 -0.87391496 -0.14537136 62 19
-1.8847197 -0.56344748 -0.17346667 71 18
-1.9512608 -0.8754639 -0.24080938 59 17
-1.7726095 -0.52940112 -0.25218391 3 16
-1.948269 -0.87491488 -0.36627212 63 15
-1.7406713 -0.51730353 -0.5096857 3 13
-1.9546059 -0.87815964 -0.48277837 59 14
-1.7008296 -0.50361168 -0.60147393 8 12
-0.4782151 -0.21399438 -0.19777569 7 11
-0.46107692 -0.13670768 -0.23684964 8 9
-0.48395443 -0.21715978 -0.23276827 4 10
-0.38018924 -0.11249808 -0.21855094 49 8
nan nan nan 0 7
-0.31013793 -0.091289565 -0.21962045 11 6
-0.27164507 -0.12298118 -0.22291279 12 5
-0.2607455 -0.076092526 -0.22630529 59 4
-0.26093587 -0.11926 -0.26745647 16 3
-0.29754174 -0.085128441 -0.32437378 7 2
nan nan nan 0 1
nan nan nan 0 0
-1.9498036 -0.87311912 0.56073105 55 31
-1.8692753 -0.55284631 0.44303125 66 30
-1.943629 -0.8683356 0.40397695 58 29
-1.8665457 -0.55273175 0.29903093 68 28
-1.9403632 -0.86486709 0.25507629 59 27
-1.8851994 -0.55821979 0.18459257 71 26
-1.9501905 -0.86845148 0.14610438 62 25
-1.8748569 -0.55516356 0.089556634 72 24
-1.9433485 -0.86418211 0.048568584 62 23
-1.8817518 -0.55683964 0 71 22
-1.9457821 -0.86486077 -0.048626613 62 21
-1.8727517 -0.55347675 -0.089440174 71 20
-1.9531206 -0.86812603 -0.14554399 64 19
-1.8842862 -0.55616295 -0.17324314 70 18
-1.9521879 -0.86729521 -0.24052507 59 17
-1.7815745 -0.52530277 -0.25321606 3 16
-1.9492134 -0.86676496 -0.36584273 60 15
-1.7425556 -0.51092017 -0.5096857 3 13
-1.9576594 -0.87133145 -0.48277837 59 14
-1.6958579 -0.49539578 -0.59902233 8 12
-0.47899619 -0.2122402 -0.19777569 7 11
-0.46367344 -0.1357071 -0.23802216 7 9
-0.48474711 -0.21538453 -0.23276827 7 10
-0.38059902 -0.11110386 -0.21855094 49 8
nan nan nan 0 7
-0.31047043 -0.090152249 -0.21962045 11 6
-0.26689389 -0.11959184 -0.21806686 14 5
-0.25753969 -0.074171089 -0.22285026 66 4
-0.27069697 -0.12264553 -0.27837309 16 3
-0.29939556 -0.084513918 -0.32628188 7 2
nan nan nan 0 1
nan nan nan 0 0
-1.9485763 -0.8640033 0.55944198 55 31
-1.8689501 -0.54531187 0.4424676 66 30
-1.9355801 -0.85622764 0.40160894 59 29
-1.8590726 -0.54312712 0.29748553 68 28
-1.9435199 -0.85774952 0.25507629 60 27
-1.8848433 -0.55061132 0.18435471 71 26
-1.9465179 -0.8582713 0.14558379 62 25
-1.8696854 -0.54619539 0.089207254 68 24
-1.9463532 -0.85739326 0.048568584 62 23
-1.8765781 -0.54784524 0 74 22
-1.9420795 -0.85469502 -0.04845253 62 21
-1.8746724 -0.54693621 -0.089440174 71 20
-1.9517263 -0.85894722 -0.1451987 62 19
-1.886312 -0.54925299 -0.17324314 71 18
-1.952931 -0.85947239 -0.24024075 59 17
-1.7787309 -0.51739186 -0.25252795 3 16
-1.9477217 -0.85796469 -0.36498398 63 15
-1.7304709 -0.50084245 -0.50555873 3 13
-1.9541534 -0.86119443 -0.48110402 60 14
-1.6975769 -0.48947307 -0.59902233 7 12
-0.48608693 -0.21339269 -0.20058766 7 11
-0.45779467 -0.13220096 -0.2345046 7 9
-0.48962909 -0.21553476 -0.23489399 4 10
-0.38304406 -0.11035433 -0.21984413 42 8
nan nan nan 0 7
-0.3146157 -0.090133674 -0.22264971 12 6
-0.27425429 -0.12182577 -0.22452809 18 5
-0.26128331 -0.07422474 -0.22630529 71 4
-0.27112341 -0.12169988 -0.27837309 17 3
-0.30438349 -0.084672682 -0.33200613 7 2
nan nan nan 0 1
nan nan nan 0 0
-1.9427388 -0.85330033 0.5568639 56 31
-1.8685009 -0.53811336 0.44190392 64 30
-1.9430515 -0.85144168 0.40255615 59 29
-1.860957 -0.53663439 0.29748553 70 28
-1.9442295 -0.84996343 0.25477335 62 27
-1.8795775 -0.54196811 0.18364106 71 26
-1.9472178 -0.85047066 0.14541028 62 25
-1.8739809 -0.54035485 0.089323714 72 24
-1.9447551 -0.8485896 0.04845253 62 23
-1.8736731 -0.53991234 0 71 22
-1.9404713 -0.84590805 -0.048336476 63 21
-1.8717688 -0.53901237 -0.089207254 71 20
-1.9478575 -0.84913135 -0.14468075 64 19
-1.8810359 -0.54060996 -0.17257251 72 18
-1.9468164 -0.84866947 -0.23910351 59 17
-1.7757643 -0.50981891 -0.25183988 3 16
-1.9461924 -0.84918547 -0.36412516 63 15
-1.7368325 -0.49611348 -0.5069344 3 13
-1.9526832 -0.85241276 -0.47998774 60 14
-1.6924553 -0.48161337 -0.59657061 3 12
-0.48894972 -0.21262917 -0.20152499 7 11
-0.45612687 -0.13000762 -0.23333207 7 9
-0.48416924 -0.21108055 -0.2317054 4 10
-0.3834269 -0.10901659 -0.21984413 46 8
nan nan nan 0 7
-0.31492841 -0.089034915 -0.22264971 16 6
-0.26598337 -0.11694016 -0.21645153 24 5
-0.25979602 -0.072841786 -0.22457777 77 4
-0.27310586 -0.12146565 -0.28019252 22 3
-0.30467722 -0.08360967 -0.33200613 7 2
nan nan nan 0 1
nan nan nan 0 0
-1.9412781 -0.84458119 0.55557489 56 31
-1.8703679 -0.53158778 0.44190392 64 30
-1.9370093 -0.84073406 0.4006618 59 29
-1.862819 -0.53013521 0.29748553 70 28
-1.9426323 -0.84119403 0.25416744 62 27
-1.8741817 -0.5336957 0.18292744 72 26
-1.9410235 -0.839697 0.1447162 62 25
-1.873453 -0.53312939 0.089207254 71 24
-1.9454123 -0.84080184 0.048394505 62 23
-1.8803571 -0.53473103 0 71 22
-1.9386791 -0.83748084 -0.048220422 62 21
-1.873639 -0.53247535 -0.089207254 71 20
-1.9439437 -0.83935285 -0.1441628 64 19
-1.8804224 -0.53369206 -0.17234898 72 18
-1.9474878 -0.84088135 -0.2388192 59 17
-1.7798283 -0.50460005 -0.25218391 3 16
-1.9423658 -0.83944774 -0.36283699 63 15
-1.7362393 -0.48939854 -0.50624651 3 13
-1.9510283 -0.84399253 -0.47887149 60 14
nan nan nan 0 12
-0.48115629 -0.20729661 -0.19777569 7 11
-0.45655549 -0.12849434 -0.23333207 7 9
-0.486976 -0.21029654 -0.23276827 7 10
-0.39203998 -0.11000708 -0.22501695 37 8
nan nan nan 0 7
-0.31522194 -0.087990083 -0.22264971 21 6
-0.2681112 -0.11683723 -0.21806686 30 5
-0.26702154 -0.073838547 -0.23148786 85 4
-0.27506882 -0.12126707 -0.28201193 17 3
-0.31120422 -0.084231913 -0.33963844 7 2
nan nan nan 0 1
nan nan nan 0 0
-1.9396341 -0.83622122 0.55428582 58 31
-1.8697747 -0.52472711 0.4413403 66 30
-1.9352788 -0.83236086 0.39971456 59 29
-1.8621881 -0.5232895 0.2970992 68 28
-1.9431318 -0.83376634 0.25386453 60 27
-1.8760333 -0.52715033 0.18292744 72 26
-1.9392148 -0.83128512 0.14436916 63 25
-1.8752106 -0.52691382 0.089207254 74 24
-1.9435971 -0.83237284 0.048278451 62 23
-1.8724893 -0.52580005 0 72 22
-1.9369973 -0.82873696 -0.048104368 63 21
-1.8681788 -0.52424318 -0.088857882 71 20
-1.9444247 -0.83191836 -0.14399016 64 19
-1.8798753 -0.52645618 -0.17212543 74 18
-1.9457008 -0.83245939 -0.2382506 60 17
-1.7839642 -0.49904841 -0.25252795 3 16
-1.9383504 -0.83008552 -0.36154884 64 15
-1.7309036 -0.4817138 -0.50418305 3 13
-1.9494846 -0.83525217 -0.47775522 63 14
nan nan nan 0 12
-0.48825851 -0.20837601 -0.20058766 8 11
-0.45274034 -0.12573981 -0.23098701 8 9
-0.4897466 -0.20958102 -0.23383114 7 10
-0.38622543 -0.10696261 -0.22113733 39 8
-0.35532951 -0.15294158 -0.23821014 3 7
-0.31360552 -0.086376123 -0.22113508 26 6
-0.27026162 -0.11667428 -0.21968216 33 5
-0.26727766 -0.072906017 -0.23148786 90 4
-0.27392632 -0.11960387 -0.28019252 16 3
-0.30993208 -0.082742289 -0.33773038 7 2
nan nan nan 0 1
nan nan nan 0 0
-1.9381006 -0.8275432 0.55299681 58 31
-1.8692467 -0.51754993 0.44077662 63 30
-1.9336581 -0.82367116 0.39876741 62 29
-1.8592414 -0.51547176 0.29632649 70 28
-1.939182 -0.82405877 0.25295568 62 27
-1.877862 -0.52059853 0.18292744 71 26
-1.9352212 -0.82157904 0.1438486 63 25
-1.872224 -0.51903611 0.088974342 71 24
-1.9397349 -0.82230908 0.048104368 63 23
-1.8719033 -0.51859587 0 72 22
-1.9352781 -0.82001501 -0.047988314 63 21
-1.8676802 -0.51672935 -0.088741422 70 20
-1.9404309 -0.82219881 -0.14347219 64 19
-1.8720982 -0.51724941 -0.17123127 72 18
-1.9418809 -0.82240856 -0.23739766 60 17
-1.7833076 -0.49216232 -0.25218391 3 16
-1.9391134 -0.82201171 -0.36111942 64 15
-1.7372952 -0.47663254 -0.50555873 3 13
-1.945662 -0.82557863 -0.47608086 60 14
-1.6951259 -0.46324408 -0.59575343 3 12
-0.48901895 -0.20658506 -0.20058766 8 11
-0.45104405 -0.12358611 -0.2298145 8 9
-0.48843226 -0.20689173 -0.23276827 7 10
-0.38248008 -0.10444458 -0.21855094 37 8
-0.33689949 -0.14338586 -0.22419778 3 7
-0.31584349 -0.085732169 -0.22264971 28 6
-0.27592853 -0.11798471 -0.22452809 33 5
-0.26579347 -0.071473747 -0.22976033 90 4
-0.26966283 -0.11650945 -0.27473423 16 3
-0.31491607 -0.082851946 -0.3434546 7 2
nan nan nan 0 1
nan nan nan 0 0
-1.936673 -0.81854808 0.55170774 59 31
-1.8687807 -0.51005673 0.44021299 63 30
-1.9321424 -0.81466568 0.39782017 62 29
-1.8611182 -0.50865376 0.29632649 68 28
-1.9376168 -0.81501621 0.25234982 60 27
-1.8725533 -0.51175231 0.1822138 72 26
-1.9382195 -0.8144806 0.1438486 63 25
-1.8741138 -0.51217055 0.088974342 71 24
-1.9356836 -0.81262279 0.047930289 63 23
-1.8689666 -0.51041973 0 72 22
-1.9359672 -0.81194705 -0.047930289 63 21
-1.8646528 -0.5088973 -0.088508509 71 20
-1.9457303 -0.8160485 -0.14364485 64 19
-1.8715782 -0.50973272 -0.17100772 72 18
-1.9378718 -0.81273526 -0.23654473 59 17
-1.7850996 -0.48562285 -0.25218391 3 16
-1.9351618 -0.81236994 -0.35983124 64 15
-1.7366273 -0.46994036 -0.50487089 3 13
-1.9441836 -0.81654924 -0.47496465 62 14
-1.6990147 -0.45793605 -0.59657061 3 12
-0.49400452 -0.20668647 -0.20246232 8 11
-0.44935948 -0.12136736 -0.22864197 7 9
-0.48706916 -0.20429991 -0.2317054 7 10
-0.38491166 -0.10365249 -0.21984413 38 8
-0.3278895 -0.13811597 -0.21719161 3 7
-0.3142156 -0.08412981 -0.22113508 26 6
-0.26759019 -0.11321505 -0.21645153 38 5
-0.26604134 -0.070545517 -0.22976033 90 4
-0.27320608 -0.11694959 -0.27837309 13 3
-0.31521764 -0.081697159 -0.3434546 7 2
nan nan nan 0 1
nan nan nan 0 0
-1.9350644 -0.80991232 0.55041873 59 31
-1.8634917 -0.50163919 0.43852201 66 30
-1.9281821 -0.80507076 0.39639941 60 29
-1.8581113 -0.50087398 0.2955538 68 28
-1.9358704 -0.8063339 0.25174391 64 27
-1.8719246 -0.50456774 0.18197592 72 26
-1.9341466 -0.80482751 0.14332804 63 25
-1.8662423 -0.5030368 0.088508509 71 24
-1.9338946 -0.80393678 0.047814235 63 23
-1.8683221 -0.50324523 0 72 22
-1.9341753 -0.8032617 -0.047814235 63 21
-1.8664178 -0.50238532 -0.088508509 71 20
-1.9370562 -0.80445552 -0.1427816 64 19
-1.8709407 -0.5025534 -0.17078419 72 18
-1.9384042 -0.80501056 -0.23626041 62 17
-1.7748219 -0.47619474 -0.25046369 3 16
-1.9311664 -0.80276591 -0.35854304 66 15
-1.7382572 -0.46387556 -0.50487089 3 13
-1.9402748 -0.8069424 -0.47329023 62 14
-1.6914661 -0.44958687 -0.59330177 3 12
-0.49258614 -0.20406343 -0.20152499 7 11
-0.44978037 -0.11979806 -0.22864197 7 9
-0.48986471 -0.20347682 -0.23276827 7 10
-0.38941354 -0.1033811 -0.22243053 38 8
-0.31122881 -0.12966293 -0.20458047 4 7
-0.32221529 -0.085002936 -0.22719359 29 6
-0.26973611 -0.11303534 -0.21806686 38 5
-0.26453319 -0.069176495 -0.22803281 90 4
-0.27204114 -0.11530961 -0.27655366 12 3
-0.32491177 -0.082913116 -0.3549031 7 2
nan nan nan 0 1
nan nan nan 0 0
-1.9311888 -0.80037028 0.54848522 59 31
-1.8628768 -0.49450913 0.43795839 64 30
-1.9264457 -0.79645407 0.3954522 62 29
-1.8598484 -0.49438491 0.2955538 70 28
-1.9317943 -0.79672498 0.25083512 62 27
-1.8711817 -0.49772051 0.18173805 72 26
-1.9346392 -0.79711837 0.14315452 63 25
-1.8704009 -0.49715808 0.088624962 71 24
-1.934379 -0.79622734 0.047756206 63 23
-1.8652337 -0.49544245 0 72 22
-1.9368284 -0.79684329 -0.047814235 64 21
-1.8609167 -0.49395344 -0.088159129 71 20
-1.9352416 -0.79578662 -0.14243631 64 19
-1.8677818 -0.495076 -0.17033711 72 18
-1.9343143 -0.79539746 -0.2354075 62 17
-1.7763911 -0.47030661 -0.25046369 3 16
-1.9339567 -0.79601997 -0.35854304 66 15
-1.7398657 -0.45780513 -0.50487089 3 13
-1.9406883 -0.79957289 -0.47273216 62 14
-1.6793076 -0.4401041 -0.58839846 2 12
-0.48470083 -0.19886769 -0.19777569 7 11
-0.44803685 -0.11775566 -0.22746944 9 9
-0.49474886 -0.20350772 -0.23489399 7 10
-0.3835353 -0.10050054 -0.21855094 35 8
-0.31167951 -0.12857574 -0.20458047 4 7
-0.31478095 -0.08198908 -0.22113508 29 6
-0.2718643 -0.11288947 -0.21968216 39 5
-0.26476115 -0.068298891 -0.22803281 90 4
-0.27399579 -0.11508724 -0.27837309 11 3
-0.32204542 -0.081073359 -0.35108691 7 2
nan nan nan 0 1
nan nan nan 0 0
-1.9315989 -0.79304177 0.54784065 59 31
-1.8621494 -0.48771453 0.43739471 62 30
-1.9222648 -0.78726226 0.39403144 62 29
-1.8566977 -0.48696703 0.29478112 70 28
-1.9344256 -0.79031456 0.25083512 62 27
-1.8680918 -0.48992872 0.1812623 72 26
-1.9372721 -0.79069853 0.14315452 63 25
-1.8647904 -0.48906061 0.088275589 71 24
-1.9300693 -0.78696918 0.047582127 62 23
-1.8668664 -0.48925439 0 72 22
-1.9326576 -0.78724104 -0.047640156 63 21
-1.8625444 -0.48777971 -0.088159129 74 20
-1.9332525 -0.78747761 -0.14209101 64 19
-1.8670887 -0.48792633 -0.17011358 74 18
-1.9346422 -0.78803897 -0.23512319 62 17
-1.7732286 -0.46285796 -0.24977562 3 16
-1.9343064 -0.78866976 -0.35811368 66 15
-1.7367201 -0.45083103 -0.50349522 3 13
-1.9389569 -0.79094744 -0.47161588 62 14
-1.6876227 -0.43629801 -0.59085011 3 12
-0.48967788 -0.19894017 -0.19965033 7 11
-0.44844517 -0.116191 -0.22746944 11 9
-0.4933297 -0.20100184 -0.23383114 4 10
-0.38803339 -0.10020576 -0.22113733 38 8
-0.32929435 -0.13473228 -0.21719161 4 7
-0.32085615 -0.082328252 -0.22567897 22 6
-0.27049926 -0.1111967 -0.21806686 41 5
-0.26148653 -0.066518299 -0.22457777 90 4
-0.27754813 -0.11547988 -0.28201193 9 3
-0.33489504 -0.082952246 -0.36635157 7 2
nan nan nan 0 1
nan nan nan 0 0
-1.9276457 -0.78355759 0.54590714 60 31
-1.8567635 -0.47939309 0.43570378 63 30
-1.9250014 -0.78054756 0.39403144 62 29
-1.8559942 -0.47986743 0.29439479 70 28
-1.9279749 -0.77982438 0.24962334 62 27
-1.8673804 -0.48278472 0.18102442 72 26
-1.9377091 -0.78299427 0.14298099 63 25
-1.8640676 -0.48192599 0.088159129 74 24
-1.9281712 -0.77835053 0.047466069 64 23
-1.861299 -0.48086709 0 72 22
-1.9330769 -0.77955252 -0.047582127 63 21
-1.8593981 -0.48003229 -0.087926209 72 20
-1.9336777 -0.77978903 -0.14191836 66 19
-1.8639565 -0.48016924 -0.1696665 74 18
-1.9304738 -0.77848607 -0.23427027 62 17
-1.7724347 -0.45605129 -0.24943158 2 16
-1.9370476 -0.78191292 -0.35811368 66 15
-1.726637 -0.44180176 -0.50005603 3 13
-1.937189 -0.78234398 -0.4704996 63 14
-1.6822643 -0.42866331 -0.58839846 3 12
-0.48607737 -0.19547904 -0.19777569 7 11
-0.44670588 -0.11408965 -0.22629693 12 9
-0.49612266 -0.20013538 -0.23489399 7 10
-0.38215098 -0.097305469 -0.21725774 38 8
-0.32784984 -0.1327897 -0.21579038 7 7
-0.33466521 -0.084516972 -0.23628132 17 6
-0.27088577 -0.11025181 -0.21806686 33 5
-0.26523152 -0.06644886 -0.22803281 90 4
-0.27637103 -0.11384097 -0.28019252 9 3
-0.32889307 -0.080302924 -0.35871926 8 2
nan nan nan 0 1
nan nan nan 0 0
-1.9258894 -0.77501512 0.54461807 62 31
-1.8584256 -0.47290885 0.43570378 66 30
-1.9277142 -0.77382326 0.39403144 63 29
-1.8528696 -0.47217157 0.29362211 70 28
-1.9260802 -0.77123946 0.24901748 62 27
-1.8618174 -0.47442812 0.18031079 70 26
-1.9334868 -0.77343857 0.14246044 63 25
-1.863318 -0.47480237 0.088042676 72 24
-1.9239173 -0.76882482 0.04729199 64 23
-1.8629662 -0.47436705 0 72 22
-1.9288259 -0.77001196 -0.047408048 66 21
-1.8562207 -0.47231284 -0.087693296 72 20
-1.9271269 -0.76932478 -0.14122775 66 19
-1.8607931 -0.47243994 -0.16921942 75 18
-1.9308738 -0.77081913 -0.23398596 62 17
-1.7716148 -0.44925579 -0.24908753 2 16
-1.9351932 -0.7733134 -0.35725489 66 15
-1.7281686 -0.43577197 -0.50005603 3 13
-1.9353848 -0.7737624 -0.46938336 64 14
-1.6860428 -0.42336091 -0.5892157 3 12
-0.4910548 -0.19551675 -0.19965033 7 11
-0.44710141 -0.11252965 -0.22629693 13 9
-0.49052632 -0.19585387 -0.2317054 7 10
-0.39288035 -0.09850999 -0.22372375 38 8
-0.32831135 -0.13164449 -0.21579038 8 7
-0.33302456 -0.082882255 -0.23476669 13 6
-0.27303153 -0.11003638 -0.21968216 32 5
-0.25842726 -0.063859716 -0.22112274 90 4
-0.27518594 -0.1122117 -0.27837309 9 3
-0.34805521 -0.08352796 -0.38161623 8 2
nan nan nan 0 1
nan nan nan 0 0
-1.9263399 -0.76739109 0.54397351 62 31
-1.8553387 -0.46523958 0.43457645 63 30
-1.9258431 -0.76527113 0.39308426 62 29
-1.8497139 -0.46450341 0.29284939 68 28
-1.9264545 -0.76359433 0.24871454 62 27
-1.8586334 -0.46671966 0.17983504 72 26
-1.9338573 -0.76576388 0.14228691 63 25
-1.8576956 -0.46647903 0.087693296 72 24
-1.9243989 -0.76084632 0.047233962 66 23
-1.8597597 -0.46664989 0 75 22
-1.9315019 -0.76327437 -0.047408048 64 21
-1.8555166 -0.46490216 -0.087576836 72 20
-1.9228454 -0.75983524 -0.1407098 66 19
-1.8575983 -0.46473864 -0.16877234 75 18
-1.9313771 -0.76282185 -0.23370166 62 17
-1.7755754 -0.44366634 -0.24943158 3 16
-1.931147 -0.7634908 -0.35596672 66 15
-1.7297542 -0.42943498 -0.50005603 3 13
-1.9312794 -0.76430362 -0.467709 63 14
-1.6807001 -0.41548648 -0.58676398 3 12
-0.48961595 -0.1928557 -0.19871302 7 11
-0.43890834 -0.10888704 -0.22160684 18 9
-0.49754208 -0.19658011 -0.23489399 7 10
-0.38699797 -0.095568769 -0.21984413 38 8
-0.33454689 -0.13277607 -0.21999407 9 7
-0.33913195 -0.083037816 -0.23931056 12 6
-0.27343303 -0.10903493 -0.21968216 29 5
-0.26394007 -0.06413994 -0.22630529 90 4
-0.27717859 -0.11186039 -0.28019252 8 3
-0.34834465 -0.082312509 -0.38161623 8 2
nan nan nan 0 1
nan nan nan 0 0
-1.9268936 -0.75943708 0.543329 60 31
-1.8546661 -0.45785528 0.4340128 63 30
-1.9217848 -0.75550485 0.39166343 62 29
-1.8490056 -0.45713073 0.29246306 68 28
-1.9223126 -0.75380224 0.24780568 62 27
-1.8579148 -0.45930982 0.17959715 71 26
-1.9320085 -0.75684583 0.14193986 63 25
-1.8593928 -0.45966712 0.087693296 74 24
-1.9223905 -0.75229716 0.047117911 63 23
-1.856602 -0.45863688 0 75 22
-1.922653 -0.75162613 -0.047117911 63 21
-1.8547028 -0.45782667 -0.087460376 71 20
-1.9232956 -0.75187165 -0.14053714 66 19
-1.8592892 -0.45792705 -0.16877234 75 18
-1.9317157 -0.75516832 -0.23341735 62 17
-1.7771896 -0.43715551 -0.24943158 3 16
-1.9338003 -0.75674516 -0.35596672 66 15
-1.7289072 -0.42282635 -0.49936819 3 13
-1.9272631 -0.75454652 -0.46603459 64 14
-1.6844364 -0.41017315 -0.58758122 3 12
-0.4967517 -0.19370273 -0.20152499 7 11
-0.44574752 -0.10881496 -0.2251244 24 9
-0.48770854 -0.19066983 -0.22957964 7 10
-0.38941118 -0.094710246 -0.22113733 39 8
-0.33500832 -0.13160747 -0.21999407 11 7
nan nan nan 0 6
-0.27381197 -0.1080798 -0.21968216 29 5
-0.26416236 -0.063218229 -0.22630529 90 4
-0.27281085 -0.1089346 -0.27473423 8 3
-0.35179648 -0.081741601 -0.38543239 8 2
nan nan nan 0 1
nan nan nan 0 0
-1.9250342 -0.75094527 0.54203999 60 31
-1.8491509 -0.44966033 0.43232182 63 30
-1.9221239 -0.74789912 0.39118987 62 29
-1.8481896 -0.45009211 0.29207671 71 28
-1.9179949 -0.74438554 0.24689688 63 27
-1.8570882 -0.45223564 0.17935929 74 26
-1.9299904 -0.74828869 0.14159283 63 25
-1.8561319 -0.45199773 0.087460376 74 24
-1.9203455 -0.74377131 0.047001854 64 23
-1.853332 -0.45097676 0 75 22
-1.925265 -0.74491018 -0.047117911 66 21
-1.8465806 -0.44900087 -0.086994544 72 20
-1.9235836 -0.74425083 -0.14036451 66 19
-1.853615 -0.44968146 -0.16810173 76 18
-1.9320246 -0.7475217 -0.23313303 62 17
-1.7666682 -0.42804852 -0.24771136 2 16
-1.9272478 -0.7464214 -0.35424915 63 15
-1.7327101 -0.41734865 -0.50005603 3 13
-1.9253429 -0.74604809 -0.46491838 64 14
-1.6789631 -0.40264705 -0.58512956 3 12
-0.50174105 -0.19365734 -0.20339964 8 11
-0.44827408 -0.1077633 -0.22629693 32 9
-0.48837113 -0.18896624 -0.22957964 7 10
-0.38348836 -0.091893397 -0.21725774 41 8
-0.3393133 -0.13196765 -0.22279654 12 7
nan nan nan 0 6
-0.27595782 -0.10783536 -0.22129747 29 5
-0.26261842 -0.06189876 -0.22457777 90 4
-0.27795276 -0.10992262 -0.28019252 7 3
-0.34892476 -0.079817712 -0.38161623 8 2
nan nan nan 0 1
nan nan nan 0 0
-1.9252616 -0.74368435 0.54139549 62 31
-1.850632 -0.44352588 0.43232182 62 30
-1.9223039 -0.74063569 0.39071628 62 29
-1.8424646 -0.44223979 0.29091766 71 28
-1.9181377 -0.73712832 0.24659392 63 27
-1.8537364 -0.44491881 0.17888352 75 26
-1.9254797 -0.73919475 0.14107227 63 25
-1.8576206 -0.44584006 0.087460376 72 24
-1.9181365 -0.73560363 0.046885803 64 23
-1.8523858 -0.4442482 0 75 22
-1.9207262 -0.73583102 -0.046943832 63 21
-1.84563 -0.44229576 -0.086878091 71 20
-1.921385 -0.73607785 -0.14001919 66 19
-1.8526735 -0.44295597 -0.16787818 76 18
-1.9298561 -0.73932809 -0.2325644 62 17
-1.7704871 -0.42275986 -0.24805541 2 16
-1.9297125 -0.74002624 -0.35424915 51 15
-1.7317451 -0.41104835 -0.49936819 3 13
-1.9187101 -0.73615658 -0.46268588 33 14
-1.6848893 -0.39815784 -0.58676398 3 12
-0.50238049 -0.19199245 -0.20339964 7 11
-0.44647789 -0.10577837 -0.2251244 37 9
-0.48899508 -0.18734571 -0.22957964 7 10
-0.39213213 -0.092536174 -0.22243053 42 8
-0.3358964 -0.12932411 -0.21999407 12 7
nan nan nan 0 6
-0.27276868 -0.1055074 -0.21806686 26 5
-0.26282224 -0.061027549 -0.22457777 90 4
-0.27672586 -0.10835857 -0.27837309 8 3
nan nan nan 0 2
nan nan nan 0 1
nan nan nan 0 0
-1.9255908 -0.73609418 0.54075092 62 31
-1.8497977 -0.43650666 0.4317582 63 30
-1.9202921 -0.73216647 0.38976908 62 29
-1.8415927 -0.43524042 0.29053134 68 28
-1.9137439 -0.72777367 0.24568512 63 27
-1.855278 -0.43844536 0.17888352 75 26
-1.9257176 -0.7315805 0.14089875 63 25
-1.8543034 -0.43820995 0.087227464 75 24
-1.916021 -0.72712445 0.046769746 64 23
-1.8490576 -0.43663603 0 75 22
-1.9209468 -0.72823316 -0.046885803 63 21
-1.849594 -0.4364213 -0.086994544 74 20
-1.9216118 -0.72847962 -0.13984655 66 19
-1.8517842 -0.43591848 -0.16765465 76 18
-1.9347466 -0.73347044 -0.23284872 63 17
-1.771952 -0.41657713 -0.24805541 3 16
-1.925379 -0.73065603 -0.35296097 8 15
-1.7238048 -0.40282515 -0.49661684 3 13
nan nan nan 0 14
-1.6724575 -0.38908035 -0.58186066 3 12
-0.50088382 -0.18940747 -0.20246232 7 11
-0.43823296 -0.102258 -0.22043432 45 9
-0.48331067 -0.18319938 -0.22639103 7 10
-0.38827884 -0.090223879 -0.21984413 43 8
-0.33248782 -0.12664668 -0.21719161 12 7
nan nan nan 0 6
-0.27136022 -0.10385468 -0.21645153 24 5
-0.26303369 -0.060109753 -0.22457777 90 4
-0.28187886 -0.10930047 -0.28383136 8 3
nan nan nan 0 2
nan nan nan 0 1
nan nan nan 0 0
-1.9236321 -0.7276535 0.53946191 62 31
-1.8465639 -0.4289504 0.43063089 62 30
-1.9159491 -0.7228511 0.38834828 62 29
-1.8406943 -0.42825252 0.29014498 72 28
-1.9116293 -0.71933544 0.24507925 63 27
-1.8519483 -0.4308444 0.17840777 72 26
-1.9282597 -0.72485405 0.14089875 63 25
-1.8509558 -0.43060848 0.086994544 74 24
-1.9139956 -0.71833515 0.046653695 66 23
-1.8530062 -0.43074217 0 75 22
-1.9164602 -0.71888167 -0.046711724 63 21
-1.8438812 -0.42795399 -0.086645171 74 20
-1.9194747 -0.7200101 -0.13950126 66 19
-1.8532945 -0.42945191 -0.16765465 74 18
-1.9257985 -0.72200072 -0.23142718 62 17
-1.7661561 -0.40872329 -0.24702327 2 16
nan nan nan 0 15
-1.7229266 -0.39596903 -0.49592903 3 13
nan nan nan 0 14
-1.6715682 -0.382424 -0.58104342 3 12
-0.49507403 -0.1851036 -0.19965033 7 11
-0.43858725 -0.10072767 -0.22043432 46 9
-0.48820841 -0.18303674 -0.22851677 7 10
-0.39278427 -0.089727789 -0.22243053 43 8
-0.33488151 -0.1261722 -0.21859284 13 7
nan nan nan 0 6
-0.27173904 -0.1028594 -0.21645153 22 5
-0.26325223 -0.059145283 -0.22457777 90 4
-0.27749416 -0.1063756 -0.27837309 8 3
nan nan nan 0 2
nan nan nan 0 1
nan nan nan 0 0
-1.9195021 -0.7180509 0.5375284 62 31
-1.8433734 -0.42110029 0.42950359 62 30
-1.913988 -0.71410215 0.38740107 62 29
-1.8374349 -0.42040706 0.2893723 70 28
-1.9119282 -0.71145588 0.24477629 63 27
-1.8535149 -0.42405376 0.17840777 75 26
-1.9192201 -0.71342283 0.14003114 63 25
-1.8476516 -0.42271325 0.086761624 72 24
-1.9118073 -0.7099039 0.046537638 66 23
-1.8472592 -0.42228478 0 75 22
-1.9143975 -0.71010858 -0.046595667 63 21
-1.8453639 -0.42151502 -0.086645171 75 20
-1.915089 -0.71035951 -0.13898331 67 19
-1.8475708 -0.42100519 -0.16698402 74 18
-1.9236516 -0.71354091 -0.23085856 62 17
-1.7628119 -0.40115428 -0.24633518 3 16
-1.78286 -0.6618138 -0.32547981 3 15
-1.7172632 -0.38837096 -0.49386552 3 13
-1.7734559 -0.65864187 -0.42529148 3 14
-1.665976 -0.37503943 -0.57859182 2 12
-0.50222635 -0.18581839 -0.20246232 7 11
-0.43032822 -0.097219944 -0.21574421 46 9
-0.48884436 -0.18133147 -0.22851677 7 10
-0.38473397 -0.086530104 -0.21725774 45 8
-0.34112281 -0.12721723 -0.22279654 18 7
nan nan nan 0 6
-0.27387649 -0.10259745 -0.21806686 25 5
-0.26522541 -0.058598332 -0.22630529 90 4
-0.27467045 -0.1041568 -0.27473423 8 3
-0.28988358 -0.062564187 -0.30910915 34 2
nan nan nan 0 1
nan nan nan 0 0
-1.9197325 -0.71050489 0.53688383 62 31
-1.8448322 -0.41466317 0.42950359 63 30
-1.9118654 -0.70571113 0.3864539 62 29
-1.8340704 -0.4129113 0.28859961 70 28
-1.9074169 -0.70219725 0.24386749 62 27
-1.8501267 -0.41649371 0.17793202 76 26
-1.9193591 -0.70585555 0.13985762 63 25
-1.8491158 -0.41626114 0.086761624 74 24
-1.9119288 -0.70236158 0.046479616 66 23
-1.8462822 -0.4152883 0 75 22
-1.9145191 -0.70255792 -0.046537638 63 21
-1.8419495 -0.41398135 -0.086412251 75 20
-1.9128761 -0.70194632 -0.138638 67 19
-1.8465989 -0.41401154 -0.16676049 76 18
-1.9284614 -0.70768023 -0.23114288 63 17
-1.7690355 -0.39607459 -0.24702327 3 16
-1.789781 -0.65729058 -0.32633859 3 15
-1.7209554 -0.38289323 -0.49455336 2 13
-1.7848892 -0.65582114 -0.42752397 3 14
-1.667275 -0.36922178 -0.57859182 3 12
-0.49418166 -0.18083574 -0.19871302 7 11
-0.44145477 -0.098054007 -0.22160684 51 9
-0.4915947 -0.18041421 -0.22957964 7 10
-0.38712558 -0.085635819 -0.21855094 46 8
-0.33575419 -0.12383123 -0.21859284 22 7
-0.54148895 -0.11711057 -0.39531684 8 6
-0.28314501 -0.1050458 -0.2261434 25 5
-0.26542833 -0.057672158 -0.22630529 90 4
-0.27183467 -0.10195902 -0.27109537 7 3
-0.27585074 -0.05867096 -0.29193643 37 2
nan nan nan 0 1
nan nan nan 0 0
-1.9176663 -0.70213294 0.53559476 60 31
-1.8438895 -0.40769795 0.42893991 62 30
-1.9097075 -0.69734347 0.38550669 62 29
-1.8330885 -0.40597549 0.28821328 70 28
-1.9075257 -0.6946829 0.24356453 62 27
-1.8442066 -0.40874913 0.17721839 76 26
-1.9147834 -0.69658512 0.13933706 63 25
-1.84568 -0.40872982 0.086528711 74 24
-1.9073249 -0.69311404 0.046305533 66 23
-1.8477206 -0.40884101 0 75 22
-1.912142 -0.69449323 -0.046421587 64 21
-1.8385054 -0.40647674 -0.086179331 75 20
-1.9106282 -0.6935572 -0.13829271 67 19
-1.8406652 -0.40628418 -0.16608986 75 18
-1.9215851 -0.69754303 -0.23000565 62 17
-1.760664 -0.3880859 -0.2456471 3 16
-1.7758683 -0.64513141 -0.32333285 4 15
-1.7152356 -0.37535125 -0.49248984 2 13
-1.777898 -0.64655513 -0.42529148 4 14
-1.6616261 -0.3619006 -0.57614011 3 12
-0.49912906 -0.18079577 -0.20058766 8 11
-0.43961799 -0.09612935 -0.22043432 46 9
-0.49646768 -0.1802628 -0.2317054 7 10
-0.38740742 -0.084351599 -0.21855094 49 8
-0.33618438 -0.12265848 -0.21859284 20 7
-0.59250331 -0.12584515 -0.43469703 7 6
-0.27992252 -0.10275611 -0.22291279 24 5
-0.26030561 -0.055710811 -0.22112274 90 4
-0.27857479 -0.10351253 -0.27837309 7 3
-0.26812214 -0.05618161 -0.28239602 46 2
nan nan nan 0 1
nan nan nan 0 0
-1.9154444 -0.69411838 0.53430575 60 31
-1.8357093 -0.39952064 0.4266853 64 30
-1.9050868 -0.6884954 0.38408592 62 29
-1.8295969 -0.39884809 0.28744057 71 28
-1.9028181 -0.6858207 0.24265571 63 27
-1.8456222 -0.40230918 0.17721839 76 26
-1.9147372 -0.68938398 0.13916354 64 25
-1.8470253 -0.40260708 0.086528711 72 24
-1.9002095 -0.68339062 0.046073426 64 23
-1.8441795 -0.4016532 0 75 22
-1.9098524 -0.6861186 -0.046305533 64 21
-1.8374026 -0.39984965 -0.086062878 75 20
-1.9082253 -0.68552536 -0.1379474 67 19
-1.8420722 -0.3998566 -0.16608986 75 18
-1.916878 -0.68863916 -0.22915271 49 17
-1.7644284 -0.38245925 -0.24599113 3 16
-1.7640988 -0.63422114 -0.32075649 4 15
-1.7141204 -0.36915824 -0.49180201 3 13
-1.7686843 -0.63620585 -0.42250085 4 14
-1.6605062 -0.35589644 -0.57532293 3 12
-0.5084691 -0.18222158 -0.20433699 7 11
-0.43778977 -0.094141558 -0.2192618 47 9
-0.49281135 -0.17706388 -0.22957964 7 10
-0.38979435 -0.083433747 -0.21984413 45 8
-0.33464748 -0.12082468 -0.21719161 22 7
