# .PCD v0.7 - Point Cloud Data file format
VERSION 0.7
FIELDS x y z intensity ring
SIZE 4 4 4 4 2
TYPE F F F F U
COUNT 1 1 1 1 1
WIDTH 1227
HEIGHT 1
VIEWPOINT 0 0 0 1 0 0 0
POINTS 1227
DATA ascii
-0.29774535 0.036422178 -0.34801963 6 1
-0.3313114 0.095437311 -0.43609333 41 0
-1.7054137 0.23038308 0.44987386 58 31
-1.640483 0.44923395 0.38553864 73 30
-1.7056015 0.23189904 0.32536009 67 29
-1.6442294 0.44966695 0.26116911 76 28
-1.7015476 0.23284145 0.20539397 69 27
-1.6516101 0.45170844 0.16032912 79 26
-1.7122651 0.23489508 0.11782051 70 25
-1.6548088 0.45259401 0.078376614 77 24
-1.7009284 0.23395495 0.039052162 73 23
-1.65167 0.45204115 0 81 22
-1.703323 0.23488656 -0.039110187 76 21
-1.6498352 0.45184612 -0.078143694 78 20
-1.7022568 0.23474723 -0.11653879 72 19
-1.6520786 0.45338768 -0.15066564 78 18
-1.7150879 0.23650417 -0.19418277 67 17
-1.6549083 0.45478332 -0.23360558 67 16
-1.7107617 0.23532389 -0.29499292 67 15
-1.6530353 0.45670593 -0.48079664 58 13
-1.7003809 0.23362726 -0.38510644 63 14
-1.6523627 0.45835119 -0.58104342 56 12
-1.7020173 0.23000303 -0.68049836 58 11
-1.6512649 0.46384233 -0.89228994 74 9
-1.7098995 0.22927646 -0.79396296 65 10
nan nan nan 0 8
-0.81460649 0.10715725 -0.53246975 86 7
-0.67646927 0.19196038 -0.50891364 42 6
-0.64205456 0.082694083 -0.51851451 85 5
-0.33429578 0.094946228 -0.29886121 37 4
-0.24873367 0.032861065 -0.22924842 90 3
-0.22931528 0.065222725 -0.24041823 51 2
-0.28859222 0.03637404 -0.33608752 8 1
-0.31989902 0.093196519 -0.4197908 27 0
-1.7045991 0.23633468 0.44987386 59 31
-1.6412511 0.45561218 0.38610229 73 30
-1.7047817 0.23785128 0.32536009 68 29
-1.6402706 0.4547407 0.26078278 77 28
-1.6982664 0.23843804 0.20509103 73 27
-1.6524208 0.45813894 0.160567 79 26
-1.7114347 0.24087057 0.11782051 70 25
-1.653219 0.45836762 0.078376614 77 24
-1.7000595 0.2401876 0.039052162 73 23
-1.650082 0.45780382 0 81 22
-1.7024928 0.24083081 -0.039110187 76 21
-1.6457628 0.4572185 -0.078027233 78 20
-1.7014271 0.24068776 -0.11653879 73 19
-1.650486 0.4591518 -0.15066564 78 18
-1.7142097 0.24278869 -0.19418277 68 17
-1.6580799 0.46189237 -0.23429367 64 16
-1.7050093 0.24091046 -0.29413414 64 15
-1.6559771 0.46406478 -0.48217231 58 13
-1.699555 0.23956126 -0.38510644 63 14
-1.6506717 0.46440434 -0.58104342 58 12
-1.7057551 0.23687036 -0.68237299 60 11
-1.6496357 0.46960345 -0.89228994 73 9
-1.7000794 0.23431987 -0.78971148 60 10
nan nan nan 0 8
-0.81831354 0.1106834 -0.53527224 85 7
-0.67957997 0.19555227 -0.51194286 41 6
-0.6379618 0.084562525 -0.51528388 87 5
-0.34087595 0.098225057 -0.30577129 36 4
-0.25711983 0.034821704 -0.23834558 90 3
-0.22908621 0.066022791 -0.24041823 51 2
-0.29297036 0.037965734 -0.34205356 8 1
-0.31678486 0.093523487 -0.41571516 14 0
-1.7013295 0.24224377 0.44922933 58 31
-1.6395701 0.46162459 0.38610229 73 30
-1.7038983 0.24409802 0.32536009 68 29
-1.6409695 0.46142122 0.26116911 76 28
-1.6973813 0.2446609 0.20509103 69 27
-1.6531254 0.46486902 0.16080487 79 26
-1.7080715 0.24678852 0.11764698 72 25
-1.6515278 0.46442387 0.078376614 77 24
-1.6967367 0.24576569 0.038994133 73 23
-1.6459873 0.46316832 0 81 22
-1.7015986 0.24706915 -0.039110187 73 21
-1.6465597 0.46364045 -0.078143694 78 20
-1.7005335 0.24692218 -0.11653879 73 19
-1.6535832 0.46655646 -0.15111272 77 18
-1.7108932 0.2484175 -0.19389845 69 17
-1.6563758 0.46796647 -0.23429367 64 16
-1.7041581 0.24686058 -0.29413414 67 15
-1.6497248 0.46852306 -0.48079664 60 13
-1.6986656 0.24578884 -0.38510644 63 14
-1.6513119 0.47081429 -0.58186066 58 12
-1.7003279 0.24217641 -0.68049836 60 11
-1.6500239 0.47626176 -0.89346248 69 9
-1.7037331 0.24087957 -0.79183722 67 10
nan nan nan 0 8
-0.81381881 0.11298365 -0.53246975 90 7
-0.68461549 0.19961393 -0.5164867 42 6
-0.64144641 0.087286368 -0.51851451 88 5
nan nan nan 0 4
-0.25359488 0.035287447 -0.23470671 90 3
-0.23038767 0.067333452 -0.2423263 50 2
-0.28982839 0.038621526 -0.3380762 6 1
-0.31645647 0.094628707 -0.41571516 8 0
-1.7052549 0.24887173 0.45051837 56 31
-1.6449724 0.46935898 0.38779324 73 30
-1.7054651 0.25039735 0.32583368 67 29
-1.6417234 0.46782646 0.26155546 77 28
-1.6916058 0.24986617 0.20448515 73 27
-1.6515746 0.47034845 0.16080487 78 26
-1.7071996 0.25274929 0.11764698 74 25
-1.6522973 0.47087348 0.078493066 76 24
-1.6958685 0.25168687 0.038994133 76 23
-1.6467638 0.46959972 0 81 22
-1.70077 0.25271049 -0.039110187 76 21
-1.6449313 0.46938521 -0.078143694 78 20
-1.7045959 0.25358358 -0.1168841 70 19
-1.6472403 0.47066304 -0.15066564 78 18
-1.7124728 0.2547501 -0.19418277 68 17
-1.6524348 0.47277242 -0.23394962 65 16
-1.7057226 0.25316572 -0.29456353 67 15
-1.6503882 0.47494653 -0.4814845 60 13
-1.6978412 0.25142047 -0.38510644 63 14
-1.6473893 0.4759168 -0.58104342 58 12
-1.7018094 0.24814455 -0.6814357 58 11
-1.6484356 0.48173085 -0.89346248 73 9
-1.7006421 0.24650407 -0.79077435 67 10
nan nan nan 0 8
-0.81957155 0.11667849 -0.53667343 79 7
-0.68204427 0.20131323 -0.51497209 42 6
-0.63737142 0.088903002 -0.51528388 81 5
nan nan nan 0 4
-0.25857705 0.036792465 -0.24016501 90 3
-0.23016313 0.06809707 -0.2423263 53 2
-0.29571164 0.040335625 -0.34603095 8 1
-0.31337631 0.094813868 -0.41163954 8 0
-1.6972519 0.25346535 0.44858482 56 31
-1.6340508 0.47209489 0.38553864 74 30
-1.7021974 0.25569034 0.32536009 69 29
-1.6354187 0.4718923 0.26078278 77 28
-1.6956766 0.25620884 0.20509103 69 27
-1.6499227 0.47611061 0.16080487 79 26
-1.7014192 0.2576693 0.11729994 74 25
-1.6459297 0.47495914 0.078260154 77 24
-1.6950245 0.2573092 0.038994133 74 23
-1.6475984 0.47575465 0 81 22
-1.6974062 0.25827333 -0.039052162 76 21
-1.6433657 0.47483739 -0.078143694 78 20
-1.693881 0.25774825 -0.1161935 73 19
-1.6479783 0.47710565 -0.15088919 79 18
-1.7116188 0.26042747 -0.19418277 68 17
-1.6507745 0.47853759 -0.23394962 67 16
-1.7000027 0.25808844 -0.29370472 67 15
-1.6488042 0.4804168 -0.4814845 60 13
-1.6969532 0.2573455 -0.38510644 64 14
-1.6480689 0.48204342 -0.58186066 56 12
-1.700933 0.25408345 -0.6814357 60 11
-1.6446277 0.48685235 -0.89228994 74 9
-1.6998154 0.25214222 -0.79077435 67 10
nan nan nan 0 8
-0.81918019 0.11939565 -0.53667343 82 7
-0.68133736 0.20369276 -0.51497209 41 6
-0.64272743 0.091912091 -0.5201298 86 5
-0.37611827 0.11288859 -0.34204921 46 4
-0.25674763 0.037467487 -0.23834558 90 3
-0.22992401 0.068900079 -0.2423263 50 2
-0.29256392 0.040980514 -0.34205356 8 1
-0.31028187 0.095033802 -0.40756389 6 0
-1.6963567 0.25938833 0.44858482 58 31
-1.639403 0.47985774 0.38722959 73 30
-1.6988677 0.26126096 0.3248865 68 29
-1.6385012 0.47899038 0.26155546 78 28
-1.6923188 0.26175049 0.20478809 70 27
-1.6458631 0.48116568 0.160567 79 26
-1.7054396 0.26436388 0.11764698 72 25
-1.6466579 0.4814055 0.078376614 77 24
-1.6891298 0.26275879 0.03887808 74 23
-1.6435292 0.48079792 0 81 22
-1.6989644 0.26457784 -0.039110187 76 21
-1.6440099 0.4815625 -0.078260154 78 20
-1.692971 0.26365942 -0.1161935 73 19
-1.6463027 0.48285529 -0.15088919 79 18
-1.7057433 0.26594087 -0.19361414 69 17
-1.6490941 0.48429695 -0.23394962 67 16
-1.6990454 0.26431754 -0.29370472 68 15
-1.6493365 0.48714057 -0.48217231 60 13
-1.6960446 0.2632674 -0.38510644 63 14
-1.6440268 0.48740605 -0.58104342 58 12
-1.6999903 0.26031598 -0.6814357 58 11
-1.6471465 0.49386433 -0.89463496 76 9
-1.7011173 0.25870746 -0.79183722 67 10
nan nan nan 0 8
-0.82283443 0.12299576 -0.53947592 82 7
-0.68438911 0.20735563 -0.51800138 41 6
-0.63860804 0.093730144 -0.51689917 85 5
-0.38950413 0.11856791 -0.35586941 49 4
-0.25830713 0.038641848 -0.24016501 90 3
-0.22660202 0.068727553 -0.23851015 55 2
-0.29090992 0.041853487 -0.34006488 6 1
-0.30717307 0.095286906 -0.40348825 4 0
-1.6977814 0.2659744 0.44922933 56 31
-1.6306309 0.48377571 0.38553864 76 30
-1.6954734 0.26710737 0.32441291 70 29
-1.632 0.48358297 0.26078278 79 28
-1.6913481 0.2679514 0.20478809 75 27
-1.6464736 0.48790497 0.16080487 81 26
-1.7019957 0.27022529 0.11747347 76 25
-1.642489 0.48672494 0.078260154 81 24
-1.6931399 0.26943186 0.038994133 77 23
-1.6417559 0.48681849 0 83 22
-1.6955146 0.27041301 -0.039052162 77 21
-1.6399258 0.48658484 -0.078143694 83 20
-1.6944567 0.27025199 -0.11636614 76 19
-1.644522 0.488886 -0.15088919 83 18
-1.7048047 0.27189341 -0.19361414 71 17
-1.6449357 0.48962849 -0.23360558 71 16
-1.6981125 0.27024671 -0.29370472 67 15
-1.6476259 0.49289486 -0.48217231 62 13
-1.6950684 0.26948196 -0.38510644 66 14
-1.6468393 0.49450678 -0.5826779 59 12
-1.6990712 0.26624846 -0.6814357 59 11
-1.6389902 0.4979637 -0.89111745 76 9
-1.6979676 0.26429927 -0.79077435 68 10
-0.92168057 0.28063479 -0.56124914 90 8
-0.81420964 0.12464171 -0.533871 88 7
-0.68745989 0.21092361 -0.5210306 53 6
-0.63827699 0.095958725 -0.51689917 90 5
-0.39253467 0.12101424 -0.35932446 49 4
-0.25647295 0.039303765 -0.23834558 90 3
-0.23096332 0.071036585 -0.24423438 53 2
-0.29376429 0.043277286 -0.34404227 7 1
-0.30132806 0.094572335 -0.39533696 4 0
-1.6992283 0.27227786 0.44987386 59 31
-1.6289321 0.48946476 0.38553864 76 30
-1.6969547 0.27341101 0.3248865 68 29
-1.6326668 0.48998976 0.26116911 77 28
-1.6904024 0.27385366 0.20478809 73 27
-1.6448467 0.49336216 0.16080487 78 26
-1.6985795 0.27576855 0.11729994 72 25
-1.6479529 0.49461824 0.078609534 77 24
-1.6921891 0.27534038 0.038994133 73 23
-1.6400466 0.49254635 0 81 22
-1.6946086 0.27603403 -0.039052162 76 21
-1.6382173 0.49230629 -0.078143694 78 20
-1.693503 0.27616507 -0.11636614 74 19
-1.6452751 0.49505726 -0.15111272 79 18
-1.7087492 0.27863514 -0.19418277 70 17
-1.6504129 0.49723265 -0.23463769 70 16
-1.6995902 0.27656463 -0.29413414 67 15
-1.6458954 0.49864313 -0.48217231 60 13
-1.6917595 0.27471444 -0.38454834 65 14
-1.6473627 0.50094271 -0.58349514 55 12
-1.6958898 0.27151838 -0.68049836 58 11
-1.6436585 0.50535148 -0.89463496 73 9
-1.6970346 0.27022472 -0.79077435 65 10
-0.90848637 0.27987859 -0.55348992 90 8
-0.81581604 0.12779659 -0.53527224 82 7
-0.68675667 0.21320215 -0.5210306 51 6
-0.63418084 0.097512066 -0.51366854 88 5
-0.38180175 0.11901873 -0.34895933 49 4
-0.24955347 0.039173499 -0.23106785 90 3
-0.23072648 0.071802095 -0.24423438 53 2
-0.28911781 0.043623388 -0.3380762 6 1
-0.29826051 0.094668806 -0.39126134 4 0
-1.6959318 0.27752459 0.44922933 58 31
-1.6319587 0.4962872 0.38666594 74 30
-1.6960386 0.27903679 0.3248865 68 29
-1.6357578 0.49684304 0.26194182 77 28
-1.6821383 0.27825338 0.20387927 74 27
-1.6407342 0.4983744 0.160567 81 26
-1.6976558 0.28139976 0.11729994 74 25
-1.6439151 0.49935144 0.078493066 79 24
-1.6863345 0.28013825 0.03887808 74 23
-1.6407954 0.49871236 0 81 22
-1.6911687 0.28154072 -0.038994133 77 21
-1.6365758 0.4977361 -0.078143694 78 20
-1.6876564 0.28096732 -0.11602084 74 19
-1.6387751 0.49933967 -0.15066564 79 18
-1.7029145 0.28349122 -0.19361414 69 17
-1.6462998 0.50226504 -0.23429367 65 16
-1.6913732 0.28099877 -0.29284593 68 15
-1.6465299 0.50480592 -0.48286018 59 13
-1.6955993 0.28140905 -0.38566458 64 14
-1.6456923 0.50640285 -0.58349514 56 12
-1.6949317 0.27743647 -0.68049836 58 11
-1.6418846 0.51108575 -0.89463496 73 9
-1.6938952 0.27549097 -0.78971148 63 10
-0.90546304 0.28240579 -0.55219674 90 8
-0.80925143 0.12954029 -0.5310685 58 7
-0.68790364 0.21620111 -0.52254522 47 6
-0.637609 0.10030108 -0.51689917 90 5
-0.39686078 0.12534961 -0.36450699 49 4
-0.25111127 0.040295422 -0.23288728 90 3
-0.22893961 0.072103605 -0.2423263 53 2
-0.29046351 0.04484684 -0.34006488 6 1
-0.29930279 0.09616527 -0.39329916 4 0
-1.6925697 0.28304788 0.44858482 59 31
-1.6325433 0.50270063 0.38722959 74 30
-1.6974757 0.28535882 0.32536009 67 29
-1.6340134 0.50254989 0.26194182 78 28
-1.6860518 0.28494343 0.20448515 73 27
-1.6413623 0.50483328 0.16080487 79 26
-1.6991228 0.28773689 0.11747347 72 25
-1.642162 0.50508672 0.078493066 77 24
-1.6877612 0.28673223 0.038936108 73 23
-1.6390444 0.50443673 0 81 22
-1.6901754 0.28744227 -0.038994133 77 21
-1.6347405 0.50373113 -0.078143694 78 20
-1.6891247 0.28727129 -0.1161935 73 19
-1.6417789 0.5065313 -0.15111272 79 18
-1.7018639 0.28973082 -0.19361414 72 17
-1.6445366 0.5080086 -0.23429367 74 16
-1.6951894 0.28801417 -0.29370472 67 15
-1.6446687 0.51083744 -0.48286018 59 13
-1.6898003 0.28651837 -0.38454834 65 14
-1.6415707 0.51172501 -0.5826779 58 12
-1.6939036 0.28364685 -0.68049836 59 11
-1.6421955 0.51748049 -0.89580756 74 9
-1.6951067 0.28206554 -0.79077435 65 10
-0.90849888 0.28702217 -0.55478317 90 8
-0.80877119 0.13250548 -0.5310685 50 7
-0.6814273 0.21689099 -0.51800138 51 6
-0.63723707 0.10263737 -0.51689917 87 5
-0.3895283 0.12455642 -0.35759693 50 4
-0.24926677 0.040958248 -0.23106785 90 3
-0.22715342 0.072393507 -0.24041823 51 2
-0.29179612 0.046131145 -0.34205356 6 1
-0.29208389 0.09495683 -0.38311005 4 0
-1.691521 0.28924957 0.44858482 58 31
-1.6306899 0.50868082 0.38722959 73 30
-1.6939985 0.29116616 0.3248865 68 29
-1.6298033 0.50779772 0.26155546 77 28
-1.6801041 0.29028326 0.20387927 74 27
-1.6418759 0.51158917 0.16104275 79 26
-1.6955987 0.2935406 0.11729994 72 25
-1.6402997 0.5111022 0.078493066 78 24
-1.6867499 0.29262185 0.038936108 74 23
-1.6371846 0.51044071 0 82 22
-1.6915739 0.29405972 -0.039052162 76 21
-1.6353551 0.51018113 -0.078260154 78 20
-1.6880604 0.29346031 -0.1161935 73 19
-1.6399114 0.51254535 -0.15111272 79 18
-1.7008423 0.2956697 -0.19361414 69 17
-1.6426636 0.51403272 -0.23429367 74 16
-1.6941737 0.2939297 -0.29370472 68 15
-1.6428756 0.51657528 -0.48286018 60 13
-1.6887388 0.29270989 -0.38454834 64 14
-1.6375222 0.51673806 -0.58186066 58 12
-1.692903 0.28955793 -0.68049836 58 11
-1.6402878 0.52349597 -0.89580756 72 9
-1.6941118 0.28798085 -0.79077435 67 10
-0.91360003 0.2921623 -0.55866271 90 8
-0.8144331 0.13633262 -0.53527224 41 7
-0.68822986 0.22173467 -0.52405989 53 6
-0.63875914 0.10516258 -0.51851451 83 5
-0.37708178 0.12194133 -0.34550428 46 4
-0.25589916 0.042880848 -0.23834558 90 3
-0.22688657 0.073225588 -0.24041823 51 2
-0.29313144 0.047374658 -0.34404227 6 1
-0.29312193 0.096441567 -0.38514787 4 0
-1.6881208 0.29474032 0.44794029 59 31
-1.6312259 0.51510632 0.38779324 73 30
-1.688135 0.29623601 0.32393929 69 29
-1.6256663 0.51273763 0.26116911 77 28
-1.6815251 0.29657364 0.20418221 73 27
-1.6377078 0.51656556 0.16080487 81 26
-1.6970204 0.29988807 0.11747347 74 25
-1.636125 0.51607049 0.078376614 79 24
-1.6832565 0.29807565 0.03887808 74 23
-1.6353928 0.5161525 0 81 22
-1.690537 0.29996261 -0.039052162 76 21
-1.6335644 0.51588649 -0.078260154 78 20
-1.6845694 0.29891872 -0.11602084 74 19
-1.6404853 0.51902068 -0.15133625 79 18
-1.6997998 0.30160496 -0.19361414 69 17
-1.6432188 0.52051431 -0.23463769 74 16
-1.6931373 0.29984167 -0.29370472 68 15
-1.6410623 0.5223068 -0.48286018 59 13
-1.690107 0.29902396 -0.38510644 64 14
-1.637958 0.52317274 -0.5826779 56 12
-1.6918819 0.2954655 -0.68049836 59 11
-1.6405505 0.52990001 -0.89698005 70 9
-1.6930963 0.29389265 -0.79077435 67 10
-0.90037125 0.29136562 -0.55090356 90 8
-0.81803614 0.13985884 -0.53807467 37 7
-0.6836741 0.2228893 -0.5210306 51 6
-0.63650501 0.10708358 -0.51689917 86 5
-0.36808568 0.12038831 -0.33686668 46 4
-0.25405464 0.043504745 -0.23652615 90 3
-0.22510017 0.073497362 -0.23851015 51 2
-0.28547758 0.047245275 -0.33409885 6 1
-0.29141387 0.096993633 -0.38311005 4 0
-1.6871341 0.30033675 0.44794029 56 31
-1.6295087 0.52051282 0.38779324 73 30
-1.6919773 0.30269 0.3248865 69 29
-1.6286612 0.51963341 0.26194182 78 28
-1.6854186 0.3030194 0.20478809 73 27
-1.6407255 0.5235126 0.16128062 79 26
-1.6960166 0.30551398 0.11747347 74 25
-1.6367828 0.52225542 0.078493066 78 24
-1.6822588 0.30365586 0.03887808 76 23
-1.6336721 0.52157283 0 83 22
-1.6870729 0.30512565 -0.038994133 77 21
-1.6366004 0.52282667 -0.078493066 78 20
-1.683569 0.30450329 -0.11602084 74 19
-1.6363846 0.52369589 -0.15111272 79 18
-1.7012351 0.30767858 -0.19389845 72 17
-1.6414837 0.52596056 -0.23463769 74 16
-1.6897094 0.30502063 -0.29327536 69 15
-1.6393212 0.52774584 -0.48286018 59 13
-1.6843083 0.30376881 -0.3839902 65 14
-1.6384615 0.52933097 -0.58349514 56 12
-1.6908929 0.30107439 -0.68049836 58 11
-1.6366864 0.53464878 -0.89580756 72 9
-1.6943411 0.29989654 -0.79183722 65 10
-0.89736837 0.29367906 -0.54961038 90 8
-0.81756783 0.14257078 -0.53807467 37 7
-0.68670458 0.22641414 -0.52405989 50 6
-0.63050038 0.10825092 -0.51205325 90 5
-0.36768442 0.12160827 -0.33686668 45 4
-0.25221658 0.044072267 -0.23470671 90 3
-0.23096591 0.076342732 -0.24614246 51 2
-0.28232619 0.047720838 -0.33012149 4 1
-0.29109061 0.097959459 -0.38311005 4 0
-1.69083 0.30708039 0.44922933 58 31
-1.6253654 0.52544546 0.38722959 76 30
-1.6884952 0.30815706 0.32441291 70 29
-1.6268375 0.52531523 0.26194182 77 28
-1.6819091 0.3084566 0.20448515 73 27
-1.6388881 0.52923661 0.16128062 82 26
-1.692486 0.31098509 0.11729994 76 25
-1.6373253 0.52873611 0.078609534 79 24
-1.6860516 0.31071851 0.038994133 77 23
-1.6342195 0.52804393 0 81 22
-1.683539 0.31056291 -0.038936108 77 21
-1.6299229 0.52727824 -0.078260154 81 20
-1.6824957 0.31037816 -0.11602084 76 19
-1.6345466 0.52940476 -0.15111272 79 18
-1.6927665 0.31256929 -0.19304553 69 17
-1.6396377 0.5316872 -0.23463769 74 16
-1.68858 0.31121171 -0.29327536 68 15
-1.6373758 0.53375077 -0.48286018 59 13
-1.6856353 0.31008372 -0.38454834 65 14
-1.6365105 0.53533262 -0.58349514 55 12
-1.6874973 0.30685857 -0.67956102 58 11
-1.6369057 0.54105455 -0.89698005 72 9
-1.6910032 0.30570543 -0.79077435 65 10
-0.88816917 0.29425335 -0.54443759 90 8
-0.80888176 0.14414109 -0.53246975 37 7
-0.68021697 0.22702041 -0.51951599 49 6
-0.6319803 0.11088226 -0.51366854 90 5
-0.35868832 0.1200268 -0.32822907 45 4
-0.25205335 0.044996392 -0.23470671 90 3
-0.22764635 0.07608816 -0.2423263 50 2
-0.28514081 0.049237117 -0.33409885 6 1
-0.29482856 0.10046595 -0.38922352 6 0
-1.6825662 0.31196493 0.44729578 59 31
-1.6234286 0.53139919 0.38722959 74 30
-1.6873544 0.31434363 0.32441291 69 29
-1.6202078 0.52973312 0.26116911 77 28
-1.6807673 0.31461906 0.20448515 73 27
-1.634573 0.53446341 0.16104275 81 26
-1.691335 0.31718624 0.11729994 74 25
-1.6353763 0.53473365 0.078609534 78 24
-1.6824999 0.31614405 0.038936108 76 23
-1.6346482 0.53481048 0 79 22
-1.6799326 0.31627241 -0.03887808 79 21
-1.6304448 0.53374451 -0.078376614 81 20
-1.6837986 0.31700069 -0.1161935 76 19
-1.6373252 0.53694993 -0.1515598 78 18
-1.6965482 0.31938836 -0.19361414 73 17
-1.6376779 0.5376932 -0.23463769 74 16
-1.6899046 0.31755543 -0.29370472 69 15
-1.6377844 0.54021895 -0.48354799 59 13
-1.6820916 0.31581357 -0.3839902 65 14
-1.6346319 0.54104185 -0.58349514 56 12
-1.6864159 0.31274715 -0.67956102 58 11
-1.6328187 0.5463469 -0.89580756 72 9
-1.6921517 0.31201321 -0.79183722 65 10
-0.88713658 0.2973519 -0.54443759 90 8
-0.80837369 0.14696375 -0.53246975 36 7
-0.67753828 0.2287505 -0.51800138 50 6
-0.63158941 0.11308761 -0.51366854 90 5
-0.35485214 0.1200949 -0.32477403 45 4
-0.25189474 0.045875948 -0.23470671 90 3
-0.23041371 0.077993512 -0.24614246 49 2
-0.27599815 0.048755366 -0.32216674 4 1
-0.29311147 0.10100964 -0.38718569 6 0
-1.6862152 0.31872663 0.44858482 58 31
-1.6261861 0.53860039 0.38835692 76 30
-1.6886591 0.32068616 0.3248865 69 29
-1.6230367 0.53694314 0.26194182 77 28
-1.6796588 0.3204841 0.20448515 73 27
-1.6326973 0.54016596 0.16104275 79 26
-1.6902175 0.32308817 0.11729994 74 25
-1.6334999 0.54043901 0.078609534 79 24
-1.6813861 0.32201511 0.038936108 77 23
-1.6303992 0.53972459 0 81 22
-1.686184 0.32353696 -0.039052162 78 21
-1.6285717 0.53943259 -0.078376614 78 20
-1.6802317 0.32240984 -0.11602084 76 19
-1.6259919 0.53951329 -0.15066564 81 18
-1.695423 0.32530844 -0.19361414 74 17
-1.6357911 0.54340655 -0.23463769 74 16
-1.6839467 0.32253271 -0.29284593 69 15
-1.6358886 0.54593253 -0.48354799 60 13
-1.6833732 0.32213783 -0.38454834 65 14
-1.6349726 0.54749769 -0.58431232 56 12
-1.6875917 0.31905907 -0.68049836 58 11
-1.632992 0.55275404 -0.89698005 72 9
-1.6888279 0.31750333 -0.79077435 65 10
-0.87597108 0.29698512 -0.53797156 90 8
-0.80581886 0.14941405 -0.5310685 36 7
-0.67485571 0.23046464 -0.5164867 51 6
-0.63119078 0.11529157 -0.51366854 90 5
-0.34419799 0.11774737 -0.3144089 41 4
-0.25004372 0.04646223 -0.23288728 90 3
-0.22100806 0.075550959 -0.23469399 49 2
-0.28030819 0.05047252 -0.32813281 6 1
-0.29548293 0.10301139 -0.39126134 6 0
-1.6850924 0.32461065 0.44858482 58 31
-1.6219876 0.54349667 0.38779324 76 30
-1.6875292 0.32657871 0.3248865 68 29
-1.6211525 0.54260534 0.26194182 77 28
-1.6785297 0.32634524 0.20448515 73 27
-1.6356153 0.54716229 0.1615185 82 26
-1.6890794 0.32898617 0.11729994 74 25
-1.6339704 0.54693335 0.078725986 79 24
-1.677798 0.32740712 0.03887808 77 23
-1.6308746 0.54620934 0 83 22
-1.6826482 0.32865116 -0.038994133 77 21
-1.6243119 0.54431748 -0.078260154 81 20
-1.679096 0.32827297 -0.11602084 76 19
-1.6289132 0.54649234 -0.15111272 83 18
-1.6918389 0.33075151 -0.19332983 74 17
-1.6339802 0.54882801 -0.23463769 76 16
-1.6876464 0.32934532 -0.29370472 69 15
-1.633973 0.5516395 -0.48354799 60 13
-1.6822957 0.32771832 -0.38454834 65 14
-1.6330515 0.55320144 -0.58431232 56 12
-1.684248 0.3242189 -0.67956102 58 11
-1.6311501 0.55816615 -0.89698005 70 9
-1.6854862 0.32297406 -0.78971148 67 10
-0.88306993 0.30268443 -0.54314435 90 8
-0.80529237 0.15222596 -0.5310685 40 7
-0.67033219 0.23138979 -0.51345748 54 6
-0.62892747 0.11704352 -0.51205325 90 5
-0.34550914 0.11949136 -0.31613642 41 4
-0.25833023 0.048782736 -0.24198443 90 3
-0.2253169 0.077921748 -0.24041823 50 2
-0.28013927 0.051401779 -0.32813281 4 1
-0.29513973 0.10399068 -0.39126134 6 0
-1.6768935 0.32881293 0.44665125 60 31
-1.6201764 0.54887235 0.38779324 74 30
-1.686437 0.33217296 0.3248865 69 29
-1.621683 0.54877305 0.26232815 77 28
-1.6750033 0.33143148 0.20418221 73 27
-1.6313391 0.55206746 0.16128062 82 26
-1.6879791 0.33458555 0.11729994 74 25
-1.6321478 0.55234873 0.078725986 79 24
-1.6766449 0.33326173 0.03887808 78 23
-1.6290544 0.55161458 0 81 22
-1.6839428 0.33500686 -0.039052162 77 21
-1.6271303 0.55159366 -0.078493066 79 20
-1.6828918 0.33480555 -0.11636614 76 19
-1.6293526 0.55297828 -0.15133625 79 18
-1.6931107 0.33713672 -0.19361414 74 17
-1.6320544 0.5545283 -0.23463769 74 16
-1.681654 0.33428094 -0.29284593 69 15
-1.6343111 0.55811954 -0.48423582 59 13
-1.6835324 0.33405945 -0.38510644 65 14
-1.6333444 0.55966735 -0.58512956 56 12
-1.6853232 0.33083281 -0.68049836 58 11
-1.6312773 0.56458157 -0.89815259 72 9
-1.6887915 0.32971594 -0.79183722 64 10
-0.89003277 0.30874482 -0.54831713 90 8
-0.8027218 0.1546513 -0.52966726 41 7
-0.66947967 0.23384513 -0.51345748 49 6
-0.6303705 0.11969528 -0.51366854 90 5
-0.34506884 0.12075691 -0.31613642 40 4
-0.2564624 0.04942473 -0.24016501 90 3
-0.22808008 0.079810597 -0.24423438 47 2
-0.27994898 0.052428197 -0.32813281 6 1
-0.29747555 0.10606996 -0.39533696 6 0
-1.6804157 0.33589679 0.44794029 59 31
-1.6204567 0.55559999 0.38835692 73 30
-1.6803935 0.33739239 0.32393929 69 29
-1.6196607 0.55471313 0.26232815 76 28
-1.6786438 0.3385427 0.20478809 73 27
-1.6269513 0.55723351 0.16104275 81 26
-1.6867415 0.34077007 0.11729994 74 25
-1.6324739 0.55913937 0.078842446 79 24
-1.6779219 0.33960459 0.038936108 76 23
-1.6222938 0.55595464 0 83 22
-1.6802533 0.3406834 -0.038994133 78 21
-1.6251948 0.55727005 -0.078493066 78 20
-1.6767634 0.33998719 -0.11602084 76 19
-1.6296686 0.55975831 -0.1515598 83 18
-1.6870537 0.34206459 -0.19304553 74 17
-1.6346922 0.56212282 -0.23532578 77 16
-1.6828915 0.34063408 -0.29327536 69 15
-1.6323528 0.5638209 -0.48423582 59 13
-1.6799074 0.33974808 -0.38454834 65 14
-1.6313809 0.56536531 -0.58512956 55 12
-1.6796114 0.33581176 -0.67862368 59 11
-1.6291971 0.57055676 -0.89815259 70 9
-1.6831905 0.33473298 -0.78971148 67 10
-0.89500087 0.31399021 -0.55219674 90 8
-0.81030893 0.15901978 -0.53527224 37 7
-0.67615134 0.23885727 -0.51951599 51 6
-0.62994885 0.12189494 -0.51366854 90 5
-0.33275151 0.11765287 -0.30404377 40 4
-0.25291589 0.049698867 -0.23652615 90 3
-0.22626978 0.080089048 -0.2423263 47 2
-0.27678177 0.052871127 -0.32415542 6 1
-0.29303029 0.10559612 -0.38922352 8 0
-1.679233 0.34176052 0.44794029 59 31
-1.6208075 0.56205398 0.38892055 74 30
-1.6816113 0.34374413 0.32441291 69 29
-1.6177145 0.56036341 0.26232815 77 28
-1.6725888 0.34340897 0.20418221 73 27
-1.6296973 0.56454456 0.1615185 82 26
-1.6855416 0.34665582 0.11729994 76 25
-1.6281533 0.5640139 0.078725986 79 24
-1.6767261 0.34545955 0.038936108 77 23
-1.6274267 0.5640794 0 82 22
-1.6815025 0.34704822 -0.039052162 77 21
-1.6232398 0.5629397 -0.078493066 81 20
-1.6755663 0.3458381 -0.11602084 76 19
-1.6253538 0.56462342 -0.15133625 79 18
-1.6858493 0.34795141 -0.19304553 74 17
-1.63272 0.56782544 -0.23532578 77 16
-1.6792793 0.34601286 -0.29284593 70 15
-1.6281068 0.56871986 -0.48354799 59 13
-1.6763237 0.34512204 -0.3839902 67 14
-1.627169 0.57027209 -0.58431232 58 12
-1.678429 0.34167266 -0.67862368 58 11
-1.6292757 0.57698011 -0.89932507 73 9
-1.6820116 0.34060639 -0.78971148 67 10
-0.89792854 0.31855345 -0.55478317 90 8
-0.80771732 0.16144839 -0.533871 36 7
-0.66783077 0.23851325 -0.51345748 53 6
-0.62951952 0.12409314 -0.51366854 90 5
-0.32046017 0.11446436 -0.29195112 36 4
-0.25442597 0.05089768 -0.23834558 90 3
-0.22750312 0.08144065 -0.24423438 46 2
-0.28106648 0.054653496 -0.33012149 6 1
-0.29672778 0.10814411 -0.39533696 8 0
-1.6780298 0.34762007 0.44794029 59 31
-1.6211331 0.56851721 0.38948423 72 30
-1.6828051 0.35010847 0.3248865 69 29
-1.6227386 0.56846571 0.26348719 77 28
-1.6713799 0.34924531 0.20418221 73 27
-1.6301641 0.57077104 0.16175638 82 26
-1.6818796 0.35202989 0.11712643 76 25
-1.6285306 0.57052249 0.078842446 81 24
-1.6706164 0.35029152 0.038820054 77 23
-1.6254478 0.56975669 0 79 22
-1.6778954 0.35211253 -0.038994133 78 21
-1.6236204 0.5694319 -0.078609534 77 20
-1.6767905 0.35219401 -0.1161935 76 19
-1.6258208 0.57083803 -0.1515598 79 18
-1.682193 0.35332692 -0.19276121 74 17
-1.6308281 0.5732367 -0.23532578 74 16
-1.6804725 0.35237449 -0.29327536 69 15
-1.6261116 0.57439959 -0.48354799 60 13
-1.6751699 0.35067904 -0.3839902 67 14
-1.6251683 0.57594848 -0.58431232 58 12
-1.6818272 0.34816948 -0.68049836 58 11
-1.6273534 0.58237982 -0.89932507 74 9
-1.6785954 0.34602213 -0.78864861 67 10
nan nan nan 0 8
-0.8112092 0.16507894 -0.53667343 36 7
-0.67077297 0.24209033 -0.5164867 54 6
-0.6291045 0.12618001 -0.51366854 90 5
nan nan nan 0 4
-0.25257173 0.051419247 -0.23652615 90 3
-0.22723182 0.082194626 -0.24423438 47 2
-0.27790487 0.055031002 -0.32614413 6 1
-0.29501325 0.10861442 -0.39329916 8 0
-1.6745036 0.35268834 0.44729578 62 31
-1.6146497 0.5722568 0.38835692 74 30
-1.6840372 0.35619143 0.32536009 68 29
-1.6161901 0.57218909 0.26271451 77 28
-1.6677845 0.35427374 0.20387927 74 27
-1.6281618 0.57645792 0.16175638 79 26
-1.680703 0.35760528 0.11712643 76 25
-1.6242766 0.57508326 0.078725986 78 24
-1.6743358 0.35686454 0.038936108 78 23
-1.6235495 0.57514375 0 85 22
-1.6766561 0.35796732 -0.038994133 78 21
-1.6193705 0.57397562 -0.078493066 78 20
-1.6731734 0.35723522 -0.11602084 76 19
-1.6238183 0.57650971 -0.1515598 79 18
-1.6883013 0.36044869 -0.19361414 73 17
-1.6311494 0.57975817 -0.23566984 77 16
-1.6792946 0.3579452 -0.29327536 69 15
-1.628723 0.58141077 -0.48492366 60 13
-1.6739357 0.35652435 -0.3839902 67 14
-1.6276962 0.58293372 -0.5859468 56 12
-1.6806016 0.35403806 -0.68049836 58 11
-1.6232356 0.5873028 -0.89815259 72 9
-1.6774387 0.35158667 -0.78864861 68 10
nan nan nan 0 8
-0.80659968 0.16694257 -0.533871 38 7
-0.6699239 0.24443027 -0.5164867 55 6
-0.6286602 0.12837523 -0.51366854 90 5
nan nan nan 0 4
-0.25070781 0.051972836 -0.23470671 90 3
-0.22694352 0.082987316 -0.24423438 46 2
-0.28515324 0.05741233 -0.33608752 6 1
-0.29463232 0.10964356 -0.39329916 8 0
-1.6779875 0.35953653 0.44858482 58 31
-1.6218094 0.58118802 0.39061153 72 30
-1.680383 0.36155477 0.3248865 69 29
-1.6141828 0.57782722 0.26271451 77 28
-1.6665376 0.36009324 0.20387927 74 27
-1.6237978 0.58129603 0.1615185 82 26
-1.6843212 0.36451799 0.11747347 74 25
-1.6246094 0.58159423 0.078842446 81 24
-1.6705734 0.36247244 0.03887808 77 23
-1.621532 0.58080757 0 82 22
-1.6729534 0.36329094 -0.038936108 78 21
-1.6219552 0.58159888 -0.078725986 79 20
-1.6767924 0.36412507 -0.11636614 76 19
-1.621796 0.58217442 -0.1515598 79 18
-1.6869689 0.36663422 -0.19361414 73 17
-1.6291158 0.58544838 -0.23566984 77 16
-1.6755639 0.36357895 -0.29284593 70 15
-1.622062 0.58573788 -0.48354799 59 13
-1.6750634 0.36287779 -0.38454834 67 14
-1.6255486 0.58889556 -0.5859468 59 12
-1.6770259 0.35971272 -0.67956102 59 11
-1.6253208 0.59448797 -0.90049762 74 9
-1.6783527 0.35820138 -0.78971148 67 10
-1.6069964 0.59120059 -1.0138694 42 8
-0.81003702 0.17073816 -0.53667343 38 7
-0.67275047 0.24827453 -0.51951599 63 6
-0.62631565 0.13029844 -0.51205325 90 5
-0.26684329 0.098002866 -0.23839796 31 4
-0.25219733 0.053225279 -0.23652615 87 3
-0.2236356 0.08262334 -0.24041823 46 2
-0.28196612 0.057881534 -0.33211017 6 1
-0.29152739 0.10967717 -0.38922352 9 0
-1.6742976 0.36517298 0.44794029 59 31
-1.6150908 0.58546227 0.38948423 74 30
-1.6766479 0.36718959 0.32441291 69 29
-1.6120541 0.58373958 0.26271451 76 28
-1.6676309 0.36672848 0.20418221 73 27
-1.6239952 0.588094 0.16175638 79 26
-1.6805373 0.37015584 0.11729994 74 25
-1.6201198 0.5866915 0.078725986 79 24
-1.6717393 0.36883661 0.038936108 77 23
-1.6193923 0.58674675 0 79 22
-1.6691692 0.3688843 -0.03887808 79 21
-1.6175684 0.58640295 -0.078609534 79 20
-1.6730105 0.36973369 -0.1161935 76 19
-1.6219907 0.58896756 -0.15178333 79 18
-1.6832527 0.37198806 -0.19332983 74 17
-1.6269591 0.59141546 -0.23566984 77 16
-1.6766903 0.36995271 -0.29327536 69 15
-1.6267775 0.59387785 -0.4856115 60 13
-1.6713415 0.36849356 -0.3839902 65 14
-1.6212655 0.59375077 -0.58512956 58 12
-1.67576 0.36556447 -0.67956102 58 11
-1.6210611 0.59967208 -0.89932507 70 9
-1.6770922 0.36405775 -0.78971148 65 10
-1.6209574 0.60279512 -1.024215 74 8
-0.80741024 0.1731374 -0.53527224 38 7
-0.67001867 0.24991961 -0.51800138 67 6
-0.62398851 0.13209729 -0.51043797 90 5
-0.26143524 0.096998841 -0.23321539 28 4
-0.25032946 0.053765517 -0.23470671 85 3
-0.23086275 0.086359188 -0.24995862 47 2
-0.28176236 0.058865432 -0.33211017 6 1
-0.2938402 0.11174907 -0.39329916 9 0
-1.6730127 0.37101513 0.44794029 59 31
-1.6130373 0.5910964 0.38948423 73 30
-1.675356 0.37303993 0.32441291 69 29
-1.6100068 0.58936316 0.26271451 77 28
-1.663918 0.3720094 0.20387927 74 27
-1.624372 0.59433419 0.16199426 82 26
-1.6743661 0.37493679 0.1169529 76 25
-1.6204062 0.59320474 0.078842446 78 24
-1.6704416 0.37466982 0.038936108 77 23
-1.622027 0.59412169 0 79 22
-1.6703762 0.37496138 -0.038936108 78 21
-1.613168 0.59118336 -0.078493066 81 20
-1.6717097 0.37557131 -0.1161935 76 19
-1.6200287 0.59434301 -0.15178333 79 18
-1.67952 0.3773205 -0.19304553 74 17
-1.6296353 0.5985207 -0.23635793 74 16
-1.6753887 0.3758032 -0.29327536 70 15
-1.6246946 0.59955281 -0.4856115 58 13
-1.6701105 0.37403387 -0.3839902 67 14
-1.6213977 0.60022962 -0.5859468 59 12
-1.676802 0.3716175 -0.68049836 58 11
-1.6231982 0.60659605 -0.90167016 68 9
-1.6758112 0.36990964 -0.78971148 67 10
-1.6189495 0.60816705 -1.024215 73 8
-0.81287402 0.17725779 -0.53947592 37 7
-0.6729036 0.25355592 -0.5210306 67 6
-0.62541419 0.13455857 -0.51205325 90 5
-0.25605428 0.095913574 -0.22803281 37 4
-0.25686741 0.055976719 -0.24198443 90 3
-0.22907075 0.086535938 -0.24805054 46 2
-0.2860218 0.060693137 -0.3380762 6 1
-0.2988559 0.11485064 -0.40145043 9 0
-1.6741304 0.37708834 0.44858482 59 31
-1.6110684 0.59644222 0.38948423 74 30
-1.6717147 0.37805557 0.32393929 70 29
-1.6103591 0.59555864 0.26310086 78 28
-1.6650962 0.37807113 0.20418221 73 27
-1.6222876 0.60000068 0.16199426 82 26
-1.6779789 0.38158622 0.11729994 76 25
-1.61843 0.59857488 0.078842446 79 24
-1.6667523 0.37965557 0.03887808 78 23
-1.615361 0.59775597 0 83 22
-1.6714946 0.3813422 -0.038994133 79 21
-1.6135395 0.59739965 -0.078609534 79 20
-1.6680225 0.38056153 -0.11602084 76 19
-1.6202778 0.60086304 -0.15200688 79 18
-1.6831042 0.38398591 -0.19361414 74 17
-1.625216 0.60334074 -0.23601387 76 16
-1.6693292 0.38026986 -0.29241657 70 15
-1.6226975 0.60493714 -0.4856115 59 13
-1.6711717 0.38039881 -0.38454834 65 14
-1.6216103 0.60643351 -0.58676398 59 12
-1.6709712 0.37645647 -0.67862368 59 11
-1.6190064 0.61147541 -0.90049762 73 9
-1.6745753 0.3754648 -0.78971148 67 10
-1.618816 0.6145767 -1.0255083 74 8
-0.80823594 0.17907028 -0.53667343 46 7
-0.67015827 0.25518885 -0.51951599 69 6
-0.62680662 0.13714018 -0.51366854 90 5
-0.25740159 0.097463235 -0.22976033 36 4
-0.24995768 0.055468194 -0.23470671 82 3
-0.22426043 0.085554264 -0.2423263 45 2
-0.28283951 0.061085023 -0.33409885 6 1
-0.29172766 0.11320993 -0.39126134 9 0
-1.6680932 0.38185871 0.44729578 60 31
-1.6135366 0.60377538 0.39061153 74 30
-1.675171 0.38498133 0.3248865 69 29
-1.6105828 0.60204399 0.26348719 76 28
-1.6661851 0.3844355 0.20448515 73 27
-1.6201833 0.60565984 0.16199426 78 26
-1.6766367 0.38744116 0.11729994 74 25
-1.6186688 0.60509795 0.078958906 79 24
-1.6653497 0.38576198 0.03887808 78 23
-1.615605 0.60426974 0 81 22
-1.6701534 0.38717452 -0.038994133 79 21
-1.6160142 0.60506684 -0.078842446 77 20
-1.6642537 0.38582197 -0.1158482 79 19
-1.6181705 0.60651523 -0.15200688 79 18
-1.676845 0.38903651 -0.19304553 74 17
-1.6231 0.6090101 -0.23601387 76 16
-1.6727244 0.38749036 -0.29327536 69 15
-1.6227173 0.61173135 -0.48629931 59 13
-1.6674585 0.38568422 -0.3839902 65 14
-1.6193767 0.61237299 -0.58676398 56 12
-1.6695802 0.38257834 -0.67862368 58 11
-1.6209854 0.61870337 -0.90284264 72 9
-1.6709808 0.38110012 -0.78864861 68 10
-1.618549 0.62127548 -1.0268015 73 8
-0.80959541 0.18247986 -0.53807467 40 7
-0.67107201 0.25836459 -0.5210306 70 6
-0.62443531 0.13903047 -0.51205325 90 5
-0.26040518 0.099731214 -0.23321539 35 4
-0.24807581 0.056026611 -0.23288728 85 3
-0.22846103 0.088133037 -0.24805054 41 2
-0.28409696 0.062429778 -0.33608752 6 1
-0.29668325 0.11644468 -0.3994126 9 0
-1.6690358 0.38851419 0.44794029 59 31
-1.609036 0.60882026 0.39004788 70 30
-1.6713576 0.39056346 0.32441291 70 29
-1.6083653 0.607943 0.26348719 78 28
-1.662348 0.3899765 0.20418221 74 27
-1.6179526 0.61159408 0.16199426 79 26
-1.6727767 0.39301682 0.11712643 76 25
-1.6164401 0.61102664 0.078958906 78 24
-1.6639929 0.39157277 0.03887808 77 23
-1.6157166 0.61107463 0 82 22
-1.6662897 0.39272347 -0.038936108 78 21
-1.6138923 0.61070406 -0.078842446 79 20
-1.6628284 0.39191917 -0.1158482 77 19
-1.6159366 0.61244208 -0.15200688 82 18
-1.6754768 0.39488739 -0.19304553 74 17
-1.6208569 0.61495501 -0.23601387 76 16
-1.6737597 0.39388764 -0.29370472 68 15
-1.620572 0.61739194 -0.48629931 58 13
-1.6684068 0.3923476 -0.38454834 65 14
-1.6172292 0.61802191 -0.58676398 56 12
-1.6682346 0.38840392 -0.67862368 59 11
-1.6187069 0.62464041 -0.90284264 70 9
-1.6696403 0.38693061 -0.78864861 64 10
-1.618364 0.62769794 -1.0280946 73 8
-0.80693388 0.18484926 -0.53667343 33 7
-0.66646385 0.25925016 -0.51800138 77 6
-0.62022042 0.14038399 -0.50882262 90 5
-0.25669757 0.099302657 -0.22976033 35 4
-0.24620312 0.056529015 -0.23106785 81 3
-0.22514048 0.087761149 -0.24423438 42 2
-0.27943087 0.062480018 -0.33012149 6 1
-0.29359254 0.11638708 -0.39533696 8 0
-1.6676694 0.39433786 0.44794029 59 31
-1.6091748 0.61530602 0.39061153 72 30
-1.667595 0.39583173 0.32393929 70 29
-1.6062335 0.61355364 0.26348719 76 28
-1.6609768 0.39577681 0.20418221 74 27
-1.6158078 0.61723804 0.16199426 82 26
-1.6738212 0.39942887 0.11729994 76 25
-1.6189609 0.61845368 0.079191819 79 24
-1.6650476 0.39795631 0.038936108 78 23
-1.6135738 0.61671078 0 79 22
-1.6673399 0.39911586 -0.038994133 81 21
-1.6117506 0.6163339 -0.078842446 79 20
-1.6638765 0.39829826 -0.11602084 78 19
-1.6161131 0.61897254 -0.15223041 78 18
-1.6765044 0.40130824 -0.19332983 74 17
-1.6163896 0.61971974 -0.23566984 77 16
-1.667582 0.39858955 -0.29284593 69 15
-1.620649 0.6239115 -0.48698717 59 13
-1.6646559 0.39760634 -0.3839902 68 14
-1.6150621 0.62366331 -0.58676398 56 12
-1.6713809 0.39528483 -0.68049836 59 11
-1.6165166 0.63028699 -0.90284264 73 9
-1.6682795 0.39275637 -0.78864861 67 10
-1.6161633 0.63334322 -1.0280946 72 8
-0.80830169 0.18812743 -0.53807467 37 7
-0.66740346 0.2623091 -0.51951599 58 6
-0.62531102 0.14380559 -0.51366854 90 5
-0.25970259 0.10154674 -0.23321539 36 4
-0.24935299 0.058126178 -0.23470671 82 3
-0.22483277 0.088546507 -0.24423438 42 2
-0.28365415 0.06441161 -0.33608752 6 1
-0.29184517 0.11686026 -0.39329916 6 0
-1.6662828 0.40015671 0.44794029 59 31
-1.6115588 0.62268084 0.39173883 72 30
-1.6685904 0.40222213 0.32441291 69 29
-1.6063852 0.62004906 0.26387355 77 28
-1.6619978 0.40215242 0.20448515 74 27
-1.6159639 0.62377363 0.16223213 81 26
-1.6724168 0.40526921 0.11729994 74 25
-1.6167922 0.6241011 0.079191819 79 24
-1.6636484 0.40376601 0.038936108 77 23
-1.6090801 0.62143576 0 82 22
-1.6635075 0.40434673 -0.038936108 79 21
-1.6095896 0.62195623 -0.078842446 79 20
-1.6649004 0.40468949 -0.1161935 76 19
-1.6116216 0.62370843 -0.15200688 79 18
-1.6726792 0.40657473 -0.19304553 74 17
-1.6165242 0.62625569 -0.23601387 76 16
-1.6661806 0.40440807 -0.29284593 69 15
-1.6162225 0.62869054 -0.48629931 59 13
-1.6608888 0.40284374 -0.38343209 68 14
-1.6150752 0.63015884 -0.58758122 58 12
-1.6722455 0.40165451 -0.6814357 58 11
-1.6143067 0.63592583 -0.90284264 70 9
-1.6668983 0.39857733 -0.78864861 67 10
-1.6159307 0.63977128 -1.0293878 72 8
-0.80764008 0.19094777 -0.53807467 37 7
-0.6646378 0.26389661 -0.51800138 59 6
-0.62108523 0.14513615 -0.51043797 90 5
-0.25599805 0.1010923 -0.22976033 38 4
-0.25082165 0.059371121 -0.23652615 87 3
-0.23049732 0.091789834 -0.2518667 44 2
-0.28194767 0.065077335 -0.33409885 6 1
-0.29411024 0.1189895 -0.39737478 6 0
-1.6672235 0.4065395 0.44858482 58 31
-1.6071079 0.62741381 0.39117518 72 30
-1.6671761 0.40804416 0.32441291 69 29
-1.5996109 0.62385172 0.26310086 76 28
-1.6581732 0.40736288 0.20418221 73 27
-1.6184113 0.63122505 0.16270788 78 26
-1.6685693 0.41051221 0.11712643 74 25
-1.6122785 0.62883061 0.079075366 78 24
-1.6622288 0.40957075 0.038936108 77 23
-1.6115568 0.62887222 0 81 22
-1.6620858 0.41015095 -0.038936108 78 21
-1.6120589 0.62939334 -0.079075366 78 20
-1.6610554 0.40990451 -0.11602084 78 19
-1.6094346 0.62933022 -0.15200688 78 18
-1.6736618 0.41300255 -0.19332983 74 17
-1.6143284 0.63189465 -0.23601387 74 16
-1.6647588 0.41022167 -0.29284593 70 15
-1.616254 0.63521045 -0.48698717 59 13
-1.6642067 0.40979728 -0.38454834 65 14
-1.6150626 0.63666207 -0.58839846 58 12
-1.6618234 0.40530625 -0.67768639 58 11
-1.6141275 0.6423763 -0.90401524 73 9
-1.6654969 0.40439349 -0.78864861 68 10
-1.6176586 0.6470027 -1.0319743 70 8
-0.80898345 0.19424246 -0.53947592 38 7
-0.66371256 0.26621503 -0.51800138 62 6
-0.62615037 0.14859968 -0.51528388 90 5
-0.26233101 0.10472935 -0.23667043 38 4
-0.25061285 0.060246289 -0.23652615 87 3
-0.22420913 0.09011396 -0.24423438 40 2
-0.28615513 0.067048684 -0.34006488 6 1
-0.2896868 0.1183346 -0.39126134 6 0
-1.6634486 0.41177973 0.44794029 59 31
-1.6049079 0.6330198 0.39117518 73 30
-1.6657417 0.41386122 0.32441291 70 29
-1.6043141 0.63215691 0.26425987 77 28
-1.6543324 0.41255149 0.20387927 74 27
-1.6138841 0.63595527 0.16247001 81 26
-1.6719673 0.41753572 0.11747347 74 25
-1.6123958 0.63537318 0.079191819 79 24
-1.660789 0.41537049 0.038936108 77 23
-1.6093516 0.63449383 0 82 22
-1.6630692 0.416554 -0.038994133 78 21
-1.6075301 0.63409728 -0.078958906 77 20
-1.6596144 0.4157002 -0.11602084 78 19
-1.6141721 0.63769788 -0.15267749 78 18
-1.67221 0.41884223 -0.19332983 74 17
-1.6167159 0.63935292 -0.23670195 74 16
-1.668097 0.41721854 -0.29370472 69 15
-1.611794 0.6399585 -0.48629931 59 13
-1.6627661 0.41560397 -0.38454834 65 14
-1.6128303 0.64229578 -0.58839846 58 12
-1.6648997 0.41221189 -0.67956102 58 11
-1.6118754 0.64800668 -0.90401524 72 9
-1.6662731 0.41074294 -0.78971148 67 10
-1.6114249 0.65103698 -1.0293878 73 8
-0.81232667 0.1980325 -0.54227841 37 7
-0.65725708 0.26626989 -0.51345748 59 6
-0.62005687 0.14946857 -0.51043797 90 5
-0.26363325 0.10633626 -0.23839796 40 4
-0.25541225 0.062280416 -0.24198443 83 3
-0.22836146 0.092771582 -0.24995862 40 2
-0.28739697 0.068381496 -0.34205356 8 1
-0.28660503 0.11821523 -0.38718569 4 0
-1.6643445 0.41816893 0.44858482 59 31
-1.6026884 0.63861817 0.39117518 72 30
-1.6642869 0.41967317 0.32441291 70 29
-1.6020975 0.63775319 0.26425987 77 28
-1.6528823 0.4183237 0.20387927 74 27
-1.6117663 0.64130354 0.16247001 81 26
-1.6680813 0.42276016 0.11729994 77 25
-1.6124872 0.6419242 0.079308279 79 24
-1.6569057 0.4205538 0.03887808 78 23
-1.6048058 0.63917965 0 83 22
-1.6641022 0.4226785 -0.039052162 79 21
-1.6076257 0.64063227 -0.079075366 79 20
-1.6605713 0.42210174 -0.1161935 76 19
-1.6120485 0.64304715 -0.15267749 81 18
-1.673146 0.42528525 -0.19361414 72 17
-1.60999 0.64286822 -0.23601387 74 16
-1.6618545 0.42183378 -0.29284593 70 15
-1.61178 0.64647847 -0.48698717 59 13
-1.6613789 0.42111561 -0.38454834 65 14
-1.6127694 0.64880639 -0.5892157 56 12
-1.6612748 0.41716951 -0.67862368 59 11
-1.6117623 0.65418154 -0.90518773 69 9
-1.6670253 0.41710272 -0.79077435 65 10
-1.6132171 0.65799868 -1.0319743 72 8
-0.80559629 0.19939473 -0.53807467 33 7
-0.66004694 0.26996702 -0.5164867 72 6
-0.62326884 0.1524135 -0.51366854 90 5
-0.26994771 0.1099994 -0.24530804 41 4
-0.24685875 0.061166547 -0.23288728 88 3
-0.22359055 0.091638014 -0.24423438 40 2
-0.29159811 0.070351906 -0.34801963 8 1
-0.27555868 0.11461021 -0.37088314 4 0
-1.6606071 0.42309284 0.44794029 59 31
-1.6028203 0.64484131 0.39173883 72 30
-1.6652651 0.42579448 0.3248865 72 29
-1.6022645 0.64398658 0.26464623 74 28
-1.6538906 0.42441595 0.20418221 74 27
-1.6095179 0.64692581 0.16247001 81 26
-1.6642538 0.42767212 0.11712643 76 25
-1.6149815 0.64913648 0.079541199 78 24
-1.6578487 0.42695481 0.038936108 81 23
-1.6049956 0.64543355 0 81 22
-1.6601952 0.4278644 -0.038994133 79 21
-1.6053796 0.64624 -0.079075366 78 20
-1.6591624 0.42760611 -0.1161935 76 19
-1.6074857 0.64773679 -0.15245394 81 18
-1.6692451 0.43050614 -0.19332983 74 17
-1.6146218 0.65127182 -0.237046 72 16
-1.6603719 0.42763218 -0.29284593 70 15
-1.6117398 0.65300608 -0.48767498 58 13
-1.6598986 0.42691234 -0.38454834 67 14
-1.608307 0.65353978 -0.58839846 58 12
-1.6597345 0.42325562 -0.67862368 59 11
-1.6115109 0.66064399 -0.90636027 69 9
-1.6655592 0.42291918 -0.79077435 67 10
-1.6068407 0.66227078 -1.0293878 72 8
-0.80690503 0.20270331 -0.53947592 38 7
-0.65721762 0.27161816 -0.51497209 74 6
-0.62641376 0.15560003 -0.51689917 90 5
-0.26288447 0.10817416 -0.23839796 41 4
-0.24830058 0.062469136 -0.23470671 85 3
-0.22326928 0.092417926 -0.24423438 40 2
-0.28986308 0.071075536 -0.34603095 8 1
-0.27247778 0.11447097 -0.36680749 4 0
-1.6590453 0.42917639 0.44794029 59 31
-1.6004461 0.6507116 0.39173883 72 30
-1.6636933 0.43189511 0.3248865 69 29
-1.5976063 0.64892232 0.26425987 76 28
-1.6499217 0.42985269 0.20387927 74 27
-1.607136 0.65282065 0.16247001 81 26
-1.665089 0.43439516 0.11729994 76 25
-1.6079664 0.65316576 0.079308279 77 24
-1.6587672 0.43336746 0.038994133 77 23
-1.6072489 0.65320027 0 81 22
-1.6586158 0.43394643 -0.038994133 79 21
-1.6008017 0.65089625 -0.078958906 79 20
-1.6575841 0.43368435 -0.1161935 76 19
-1.6051009 0.65362418 -0.15245394 82 18
-1.6677324 0.43633029 -0.19332983 74 17
-1.6145158 0.65812296 -0.23739004 74 16
-1.6636364 0.43466365 -0.29370472 70 15
-1.6094506 0.65862811 -0.48767498 59 13
-1.6606816 0.43360552 -0.38510644 67 14
-1.6082006 0.66004974 -0.5892157 59 12
-1.6604917 0.42962375 -0.67956102 58 11
-1.6090786 0.66654599 -0.90636027 72 9
-1.6640728 0.42873049 -0.79077435 67 10
-1.6064931 0.66870064 -1.030681 69 8
-0.79816085 0.20349976 -0.533871 35 7
-0.65993088 0.27545595 -0.51800138 78 6
-0.62216222 0.15686958 -0.51366854 90 5
-0.26416737 0.10980042 -0.24012548 42 4
-0.24974726 0.063739523 -0.23652615 83 3
-0.22144628 0.092594892 -0.2423263 40 2
-0.29108724 0.07243672 -0.34801963 8 1
-0.28004146 0.11889457 -0.37903443 4 0
-1.6528627 0.43374556 0.44665125 60 31
-1.6004169 0.65722239 0.39230248 72 30
-1.6598009 0.43707824 0.32441291 70 29
-1.5953313 0.65449506 0.26425987 77 28
-1.6508112 0.43623996 0.20418221 73 27
-1.6071485 0.65937406 0.16270788 78 26
-1.6659747 0.44083932 0.11747347 77 25
-1.6102951 0.6606763 0.079541199 77 24
-1.6524109 0.4378815 0.03887808 78 23
-1.6072706 0.65975887 0 81 22
-1.6546745 0.43909588 -0.038936108 79 21
-1.6031377 0.65838343 -0.079191819 79 20
-1.6584716 0.44010401 -0.11636614 76 19
-1.6074126 0.66112316 -0.15290102 78 18
-1.6661991 0.4421491 -0.19332983 74 17
-1.6122087 0.66375464 -0.23739004 74 16
-1.6597276 0.4398407 -0.29327536 69 15
-1.6071417 0.66424215 -0.48767498 59 13
-1.6568015 0.43877929 -0.38454834 65 14
-1.6080681 0.66656697 -0.59003288 56 12
-1.6567394 0.43483233 -0.67862368 59 11
-1.6067421 0.67215866 -0.90636027 69 9
-1.6625659 0.43453658 -0.79077435 67 10
-1.6061205 0.67513621 -1.0319743 69 8
-0.801458 0.20730811 -0.53667343 33 7
-0.66262549 0.27931598 -0.5210306 76 6
-0.62161082 0.15904038 -0.51366854 90 5
-0.25714403 0.10786153 -0.23321539 41 4
-0.24785841 0.064201064 -0.23470671 87 3
-0.22260228 0.094013229 -0.24423438 38 2
-0.29083261 0.073452368 -0.34801963 9 1
-0.2796247 0.11987137 -0.37903443 4 0
-1.6583439 0.44136602 0.44858482 59 31
-1.5936157 0.6609329 0.39117518 73 30
-1.6606376 0.44349927 0.3248865 69 29
-1.5975983 0.66195661 0.26503256 74 28
-1.6516762 0.44263861 0.20448515 74 27
-1.6049532 0.66470003 0.16270788 81 26
-1.6620159 0.44600898 0.11729994 76 25
-1.6056731 0.66533434 0.079424739 78 24
-1.6557014 0.4449372 0.038994133 77 23
-1.6049577 0.66536522 0 81 22
-1.6556238 0.44522613 -0.038994133 79 21
-1.6008298 0.66397536 -0.079191819 78 20
-1.6569252 0.44589046 -0.11636614 76 19
-1.602913 0.66549224 -0.15267749 81 18
-1.6670449 0.44860455 -0.19361414 74 17
-1.6122841 0.6700505 -0.23773409 76 16
-1.658182 0.44563156 -0.29327536 69 15
-1.6070303 0.67077678 -0.48836285 59 13
-1.6553372 0.444271 -0.38454834 65 14
-1.6057316 0.67217612 -0.59003288 59 12
-1.6597695 0.44150871 -0.68049836 58 11
-1.6065371 0.67834473 -0.90753275 70 9
-1.658851 0.43976086 -0.78971148 67 10
-1.6058412 0.68129694 -1.0332675 72 8
-0.79271203 0.20802952 -0.5310685 37 7
-0.6580407 0.27994153 -0.51800138 76 6
-0.61923087 0.16063018 -0.51205325 90 5
-0.26175663 0.11087541 -0.23839796 42 4
-0.25097108 0.065853372 -0.23834558 90 3
-0.21933249 0.09344925 -0.24041823 36 2
-0.29058743 0.074416399 -0.34801963 9 1
-0.28319624 0.12256163 -0.38514787 4 0
-1.652205 0.44561172 0.44729578 59 31
-1.5959063 0.66810077 0.39230248 69 30
-1.6615281 0.44964153 0.32536009 69 29
-1.5931169 0.66629487 0.26464623 76 28
-1.6478037 0.44746646 0.20418221 74 27
-1.6026231 0.67029822 0.16270788 81 26
-1.6581204 0.45086706 0.11712643 76 25
-1.6057607 0.67162186 0.079541199 76 24
-1.6517259 0.4500604 0.038936108 81 23
-1.6004375 0.66971582 0 81 22
-1.6516473 0.45034862 -0.038936108 79 21
-1.6054089 0.67246252 -0.079541199 76 20
-1.6554375 0.45138258 -0.11636614 76 19
-1.6028754 0.67204905 -0.15290102 81 18
-1.667866 0.45507121 -0.19389845 72 17
-1.6076534 0.67471319 -0.23739004 74 16
-1.6589936 0.45206106 -0.29370472 68 15
-1.6068926 0.67731869 -0.48905066 58 13
-1.6561286 0.45068297 -0.38510644 65 14
-1.6055505 0.67869991 -0.59085011 59 12
-1.6581401 0.4475891 -0.68049836 58 11
-1.6041595 0.68394852 -0.90753275 63 9
-1.6573057 0.44554865 -0.78971148 67 10
-1.6033334 0.68717802 -1.0332675 70 8
-0.79798859 0.21237251 -0.53527224 36 7
-0.66065931 0.28393513 -0.5210306 73 6
-0.61863804 0.16289869 -0.51205325 90 5
-0.2530756 0.10820077 -0.22976033 42 4
-0.24574223 0.065508403 -0.23288728 88 3
-0.22343332 0.096182227 -0.24614246 36 2
-0.29178303 0.075846173 -0.35000831 9 1
-0.29331589 0.1283406 -0.40145043 4 0
-1.6552222 0.4529326 0.44858482 59 31
-1.5912048 0.6729939 0.39173883 70 30
-1.6551329 0.45443535 0.32441291 70 29
-1.5906641 0.67212951 0.26464623 73 28
-1.6509392 0.45481426 0.20478809 73 27
-1.6047379 0.6781109 0.16318363 81 26
-1.6588618 0.45760107 0.11729994 76 25
-1.6032883 0.67750281 0.079541199 78 24
-1.6525548 0.45648521 0.038994133 77 23
