# .PCD v0.7 - Point Cloud Data file format
VERSION 0.7
FIELDS x y z intensity ring
SIZE 4 4 4 4 2
TYPE F F F F U
COUNT 1 1 1 1 1
WIDTH 1205
HEIGHT 1
VIEWPOINT 0 0 0 1 0 0 0
POINTS 1205
DATA ascii
0.91446805 -0.090674445 -0.041226331 68 20
0.91930038 -0.094064996 0.13908415 48 28
0.92846674 -0.095037445 0.085873604 10 26
0.91914606 -0.094067208 0.041459247 65 24
0.9101451 -0.093284912 0 7 22
0.90917885 -0.093343906 -0.040993415 67 20
0.92142195 -0.097539276 0.13947049 46 28
0.93309498 -0.098650776 0.086349361 11 26
0.91136384 -0.096468545 0.041109871 62 24
0.91478479 -0.097000472 0 7 22
0.90884733 -0.096516959 -0.040993415 67 20
0.93091232 -0.10169043 0.14101587 45 28
0.93027157 -0.10163117 0.086111486 10 26
0.91103888 -0.09949021 0.041109871 59 24
0.90700454 -0.099200055 0 9 22
0.90852231 -0.09953028 -0.040993415 67 20
0.96403706 -0.10911843 0.21644275 89 30
0.93055165 -0.10493931 0.14101587 44 28
0.92991114 -0.10487781 0.086111486 11 26
0.9156478 -0.10324118 0.041342791 56 24
0.90913635 -0.10265196 0 10 22
0.90815145 -0.10285951 -0.040993415 61 20
0.94670117 -0.11063236 0.21249717 84 30
0.92525542 -0.10776605 0.14024319 35 28
0.92952055 -0.1082854 0.086111486 12 26
0.9078238 -0.10571203 0.040993415 57 24
0.91123641 -0.106279 0 11 22
0.90282744 -0.10543755 -0.040760498 57 20
0.94389176 -0.11363946 0.21193352 82 30
0.92487359 -0.11099514 0.14024319 9 28
0.92666668 -0.11122695 0.085873604 32 26
0.90497047 -0.10857681 0.040876955 52 24
0.91085988 -0.10945916 0 13 22
0.9024539 -0.10858836 -0.040760498 51 20
0.941073 -0.1166283 0.21136987 80 30
0.91641599 -0.11305679 0.084922098 48 26
0.90458596 -0.11173508 0.040876955 45 24
0.90799189 -0.11232509 0 16 22
0.89959174 -0.11142486 -0.040644038 51 20
0.93343472 -0.11880853 0.20967892 80 30
0.92095196 -0.11689347 0.085397854 49 26
0.90916377 -0.11537488 0.041109871 22 24
0.9026559 -0.11469323 0 17 22
0.90167385 -0.11488598 -0.040760498 49 20
0.92575026 -0.12126256 0.20798795 77 30
0.90652192 -0.11839343 0.13753878 6 28
0.92298424 -0.12059642 0.085635729 50 26
0.90625942 -0.11837693 0.040993415 10 24
0.90222943 -0.11800086 0 45 22
0.89631659 -0.11737215 -0.040527578 46 20
0.93014759 -0.12515439 0.20911525 76 30
0.9207865 -0.12356322 0.13985683 7 28
0.91762614 -0.12314373 0.08515998 50 26
0.91326344 -0.12255382 0.041342791 9 24
0.90428895 -0.12148836 0 52 22
0.89095306 -0.11982232 -0.040294662 26 20
0.92729306 -0.12806149 0.2085516 73 30
0.9725768 -0.0070659332 0.18091348 9 29
0.91545749 -0.12609081 0.13908415 9 28
0.91472614 -0.1260006 0.084922098 49 26
0.90541089 -0.12470089 0.040993415 9 24
0.90633512 -0.12499169 0 55 22
0.89547533 -0.12362671 -0.040527578 10 20
0.93409574 -0.13217671 0.21024257 69 30
0.9848212 -0.010389613 0.18328145 30 29
0.91503435 -0.12912589 0.13908415 12 28
0.96542495 -0.011052096 0.11360286 6 27
0.91183984 -0.12867957 0.084684223 49 26
0.90993613 -0.12841243 0.041226331 9 24
0.90591562 -0.1279965 0 57 22
0.90000409 -0.12730704 -0.040760498 9 20
0.92880952 -0.13472573 0.20911525 71 30
0.97741526 -0.01374239 0.18186066 37 29
0.9194653 -0.13303825 0.13985683 23 28
0.95049214 -0.014237488 0.11178521 30 27
0.90646088 -0.13113719 0.084208466 51 26
0.9575541 -0.014653226 0.064202629 11 25
0.90948242 -0.13158791 0.041226331 9 24
0.9570291 -0.015141645 0.021411955 7 23
0.90546328 -0.13115796 0 57 22
0.90447247 -0.13133448 -0.040993415 9 20
0.9355343 -0.13922173 0.21080622 66 30
0.97244942 -0.01725016 0.18091348 43 29
0.91897154 -0.13640735 0.13985683 23 28
0.95043349 -0.017721118 0.11178521 39 27
0.91089571 -0.13520122 0.084684223 48 26
0.95998758 -0.018203653 0.064376153 35 25
0.90405536 -0.13417532 0.040993415 9 24
0.94197655 -0.018230962 0.021063795 18 23
0.90250456 -0.13410237 0 56 22
0.94446915 -0.01860252 -0.021121822 7 21
0.89660084 -0.13337058 -0.040644038 9 20
0.93263561 -0.14211389 0.21024257 66 30
0.97238332 -0.020644538 0.18091348 44 29
0.91116673 -0.13848329 0.1386978 30 28
0.95532811 -0.021135656 0.11239109 41 27
0.90306371 -0.13708279 0.083970591 48 26
0.96241176 -0.021604143 0.064549677 40 25
0.89617741 -0.13618666 0.040644038 10 24
0.95190251 -0.021721352 0.021295901 39 23
0.90203094 -0.13725188 0 57 22
0.92940944 -0.021428188 -0.02077366 32 21
0.89859772 -0.13688155 -0.040760498 10 20
0.9225229 -0.021454722 -0.061463423 9 19
0.92975348 -0.14482525 0.20967892 66 30
0.96740127 -0.023761006 0.17996629 44 29
0.90826273 -0.14111894 0.13831146 28 28
0.95525277 -0.024303522 0.11239109 39 27
0.90257972 -0.14023423 0.083970591 48 26
0.96482807 -0.024853384 0.064723194 41 25
0.90558791 -0.14071523 0.041109871 10 24
0.95432389 -0.024936739 0.021353928 44 23
0.90157086 -0.14024238 0 55 22
0.94182205 -0.024971081 -0.021063795 41 21
0.90060544 -0.14025088 -0.040876955 10 20
0.91995335 -0.024454171 -0.061290774 34 19
0.92924225 -0.1480698 0.20967892 67 30
0.96485841 -0.027075177 0.17949268 45 29
0.91264147 -0.14507575 0.13908415 28 28
0.9601236 -0.027768616 0.11299698 17 27
0.90699846 -0.14417718 0.084446348 46 26
0.95725626 -0.028021341 0.064202629 35 25
0.90016043 -0.1430795 0.040876955 11 24
0.94423735 -0.027997378 0.021121822 48 23
0.89860785 -0.14298974 0 51 22
0.94672596 -0.028395455 -0.021179849 44 21
0.89024949 -0.14179836 -0.040411122 11 20
0.92235547 -0.02773359 -0.061463423 44 19
0.92151076 -0.15012041 0.20798795 66 30
0.95739692 -0.030229667 0.1780719 46 29
0.89994442 -0.14624992 0.13715242 45 28
0.95505983 -0.030971799 0.11239109 10 27
0.90157872 -0.14653195 0.083970591 48 26
0.95216691 -0.031212036 0.063855588 20 25
0.89472759 -0.14540762 0.040644038 11 24
0.94663209 -0.031369537 0.021179849 45 23
0.89563674 -0.14571816 0 55 22
0.94412285 -0.031622775 -0.021121822 45 21
0.88974905 -0.14490505 -0.040411122 17 20
0.92225307 -0.030953042 -0.061463423 45 19
0.9233827 -0.15374193 0.2085516 63 30
0.96464592 -0.033810444 0.17949268 46 29
0.8969928 -0.1489798 0.13676608 68 28
0.95494586 -0.03430539 0.11239109 6 27
0.89615363 -0.14885068 0.083494842 43 26
0.95703727 -0.034703512 0.064202629 12 25
0.90406466 -0.15019064 0.041109871 11 24
0.94651067 -0.034838907 0.021179849 45 23
0.8926574 -0.14842756 0 52 22
0.94400674 -0.034918185 -0.021121822 28 21
0.89167434 -0.14858164 -0.040527578 21 20
0.91964686 -0.034086384 -0.061290774 46 19
0.9204129 -0.1567107 0.20798795 66 30
0.95960921 -0.037168488 0.17854549 46 29
0.90374291 -0.15352511 0.13792512 77 28
0.94489431 -0.037438013 0.11117933 6 27
0.89560211 -0.15213425 0.083494842 24 26
0.94942689 -0.037931614 0.063682072 11 25
0.89366412 -0.15180638 0.040644038 12 24
0.9438858 -0.038048431 0.021121822 46 23
0.89703465 -0.15254849 0 52 22
0.9313848 -0.037902549 -0.020831687 17 21
0.87884593 -0.14956795 -0.039945286 26 20
0.90954685 -0.037077349 -0.060600173 29 19
0.92705619 -0.16119142 0.20967892 62 30
0.96192646 -0.040615156 0.17901909 44 29
0.89347118 -0.15496662 0.13637973 78 28
0.94723725 -0.040836535 0.11148227 4 27
0.89019048 -0.15424159 0.083019085 16 26
0.95178062 -0.041347329 0.063855588 9 25
0.88575035 -0.15362656 0.040294662 45 24
0.93375838 -0.040931311 0.020889714 48 23
0.89157248 -0.15481141 0 51 22
0.93874556 -0.041300982 -0.021005768 11 21
0.8807779 -0.15306844 -0.040061742 28 20
0.90941191 -0.040252034 -0.060600173 28 19
0.91932493 -0.16297208 0.20798795 62 30
0.96178657 -0.043804795 0.17901909 44 29
0.89538354 -0.15836473 0.13676608 78 28
0.94709671 -0.043977462 0.11148227 6 27
0.89944488 -0.15910567 0.083970591 11 26
0.94914669 -0.044393227 0.063682072 7 25
0.88277793 -0.156122 0.040178202 49 24
0.94110811 -0.044361133 0.021063795 48 23
0.89597547 -0.15865085 0 32 22
0.93859565 -0.044577565 -0.021005768 9 21
0.88272333 -0.15643014 -0.040178202 28 20
0.90927339 -0.043267529 -0.060600173 32 19
0.91395903 -0.16530161 0.20686065 63 30
0.96162778 -0.047161788 0.17901909 43 29
0.89482528 -0.16148925 0.13676608 76 28
0.95437384 -0.047635172 0.11239109 6 27
0.89888406 -0.16224435 0.083970591 11 26
0.95396829 -0.04794367 0.064029112 7 25
0.88468415 -0.15965205 0.040294662 54 24
0.93345815 -0.047286205 0.020889714 49 23
0.88312072 -0.1595252 0 21 22
0.93344158 -0.047612038 -0.020889714 7 21
0.86989021 -0.15725859 -0.039595909 48 20
0.91409904 -0.04668228 -0.060945474 34 19
0.91334713 -0.16865033 0.20686065 60 30
0.95409346 -0.050317287 0.17759831 41 29
0.89179939 -0.16431436 0.13637973 76 28
0.94427943 -0.05062715 0.11117933 7 27
0.90072972 -0.16599479 0.084208466 11 26
0.95378613 -0.051439818 0.064029112 6 25
0.88409305 -0.16289352 0.040294662 54 24
0.92828661 -0.050449058 0.02077366 50 23
0.88498759 -0.16322039 0 16 22
0.93575674 -0.051162887 -0.020947741 7 21
0.87912673 -0.16228335 -0.040061742 66 20
0.91143119 -0.049902648 -0.060772825 38 19
0.91514528 -0.17229386 0.2074243 56 30
0.96126562 -0.054041788 0.17901909 39 29
0.88879406 -0.16696434 0.13599339 72 28
0.94905269 -0.054193117 0.11178521 9 27
0.90258962 -0.16960339 0.084446348 16 26
0.94613016 -0.054359008 0.063508548 7 25
0.87615931 -0.16457731 0.039945286 48 24
0.93309587 -0.053964619 0.020889714 49 23
0.88441247 -0.16630858 0 13 22
0.93557245 -0.054428976 -0.020947741 7 21
0.88100785 -0.16581902 -0.040178202 74 20
0.91374153 -0.053222183 -0.060945474 43 19
0.91453826 -0.17548726 0.2074243 49 30
0.95371896 -0.056976836 0.17759831 39 29
0.88335627 -0.1691249 0.13522071 68 28
0.95133519 -0.057649314 0.11208815 11 27
0.90690851 -0.17354271 0.084922098 16 26
0.9409551 -0.057370685 0.063161507 9 25
0.88783747 -0.17001294 0.040527578 46 24
0.93539691 -0.057367891 0.020947741 48 23
0.88382655 -0.16939475 0 15 22
0.92291176 -0.056796547 -0.020657606 7 21
0.8828752 -0.16936982 -0.040294662 76 20
0.91106057 -0.056264371 -0.060772825 46 19
0.90439403 -0.17662835 0.20516968 48 30
0.95352477 -0.060139172 0.17759831 37 29
0.88279063 -0.17205328 0.13522071 57 28
0.9387542 -0.060044099 0.11057345 16 27
0.89897269 -0.17526104 0.084208466 24 26
0.9457382 -0.060797807 0.063508548 9 25
0.87991875 -0.17150483 0.040178202 40 24
0.93270695 -0.0603147 0.020889714 49 23
0.88325995 -0.17232469 0 15 22
0.93268585 -0.060640275 -0.020889714 9 21
0.87740904 -0.17132734 -0.040061742 77 20
0.90589058 -0.05897465 -0.060427524 49 19
0.9061597 -0.1802652 0.20573334 45 30
0.94840956 -0.063153826 0.17665112 21 29
0.88944912 -0.17659457 0.13637973 54 28
0.94349164 -0.063641742 0.11117933 20 27
0.90079522 -0.17888859 0.084446348 28 26
0.9380542 -0.06361194 0.062987991 11 25
0.8842113 -0.17555994 0.040411122 35 24
0.93247962 -0.06373284 0.020889714 48 23
0.87530047 -0.17392692 0 18 22
0.92498678 -0.063402586 -0.020715633 10 21
0.87432712 -0.17404845 -0.039945286 79 20
0.90816784 -0.062300421 -0.060600173 49 19
0.90072113 -0.18260574 0.20460603 44 30
0.95796829 -0.067292206 0.17854549 10 29
0.8863762 -0.17935756 0.13599339 49 28
0.93334895 -0.066420794 0.10996757 16 27
0.89525747 -0.18118984 0.083970591 33 26
0.94776702 -0.067735113 0.063682072 11 25
0.87377602 -0.17679435 0.039945286 35 24
0.93225145 -0.066987418 0.020889714 46 23
0.87710607 -0.17763615 0 20 22
0.92973471 -0.06713935 -0.020831687 11 21
0.87616062 -0.17760152 -0.040061742 79 20
0.91042143 -0.065801717 -0.060772825 55 19
0.89769405 -0.18525065 0.20404238 68 30
0.95038188 -0.070113055 0.17712471 6 29
0.89058059 -0.18345901 0.13676608 48 28
0.93311143 -0.069678381 0.10996757 15 27
0.89708811 -0.18466526 0.084208466 37 26
0.94006234 -0.070502877 0.063161507 39 25
0.87559831 -0.18035316 0.040061742 32 24
0.92702651 -0.069878563 0.02077366 45 23
0.8691389 -0.17916431 0 22 22
0.91953611 -0.069495142 -0.020599579 11 21
0.8730908 -0.18014811 -0.039945286 78 20
0.91018617 -0.068979278 -0.060772825 55 19
0.89707476 -0.18822649 0.20404238 83 30
0.95014423 -0.073264241 0.17712471 4 29
0.88513488 -0.18538673 0.13599339 39 28
0.94029897 -0.073331796 0.11087639 15 27
0.88183081 -0.1846987 0.082781211 41 26
0.94231021 -0.073808141 0.063335031 44 25
0.87743837 -0.1837737 0.040178202 28 24
0.92180538 -0.072573163 0.020657606 22 23
0.87832218 -0.18412118 0 27 22
0.92676413 -0.073275812 -0.02077366 18 21
0.87248856 -0.18304239 -0.039945286 77 20
0.90746564 -0.071807146 -0.060600173 57 19
0.89641225 -0.19135673 0.20404238 89 30
0.95232993 -0.076771311 0.17759831 4 29
0.88931125 -0.18951669 0.13676608 13 28
0.93014163 -0.075833067 0.10966463 13 27
0.88604611 -0.18882503 0.08325696 41 26
0.94204688 -0.077096976 0.063335031 48 25
0.8767916 -0.18683541 0.040178202 27 24
0.92402464 -0.076149963 0.020715633 11 23
0.87767416 -0.18718599 0 32 22
0.9265027 -0.076510377 -0.02077366 43 21
0.87669361 -0.18729447 -0.040178202 73 20
0.90472341 -0.074775644 -0.060427524 59 19
0.89808375 -0.19516398 0.20460603 89 30
0.94959551 -0.080061406 0.17712471 6 29
0.87896043 -0.19065672 0.13522071 10 28
0.93727696 -0.079854302 0.11057345 10 27
0.88777888 -0.19260482 0.083494842 23 26
0.93927252 -0.080343135 0.063161507 50 25
0.8736617 -0.18951236 0.040061742 28 24
0.9212625 -0.079167545 0.020657606 9 23
0.87209862 -0.18932875 0 35 22
0.92123479 -0.079489127 -0.020657606 49 21
0.8809126 -0.19142608 -0.040411122 68 20
0.90444326 -0.078091115 -0.060427524 62 19
0.89502001 -0.19776636 0.20404238 89 30
0.94686449 -0.083167225 0.17665112 6 29
0.8879323 -0.19587557 0.13676608 9 28
0.93946493 -0.08333835 0.11087639 9 27
0.88467228 -0.19516054 0.08325696 11 26
0.93650174 -0.083406568 0.062987991 49 25
0.87543213 -0.19310476 0.040178202 48 24
0.93094039 -0.083247244 0.020889714 6 23
0.86411285 -0.19073698 0 39 22
0.92095172 -0.08270435 -0.020657606 52 21
0.86805326 -0.19177604 -0.039828826 68 20
0.90416515 -0.081247739 -0.060427524 60 19
0.89432424 -0.20088936 0.20404238 87 30
0.95390379 -0.087122686 0.1780719 7 29
0.88483447 -0.19842747 0.13637973 11 28
0.93916821 -0.086617187 0.11087639 7 27
0.89612067 -0.20099999 0.084446348 9 26
0.93868876 -0.086898483 0.063161507 54 25
0.86988193 -0.19505458 0.039945286 63 24
0.91819817 -0.085372411 0.020599579 6 23
0.86587971 -0.19430558 0 39 22
0.91070092 -0.08501596 -0.020425498 62 21
0.86981374 -0.19535822 -0.039945286 66 20
0.89890832 -0.083953016 -0.060082223 60 19
0.89602643 -0.20440142 0.20460603 84 30
0.9511652 -0.090060428 0.17759831 10 29
0.88417155 -0.2013606 0.13637973 12 28
0.93887591 -0.089731105 0.11087639 7 27
0.88817364 -0.20229484 0.083732717 7 26
0.93591231 -0.089779153 0.062987991 49 25
0.87409741 -0.19905911 0.040178202 71 24
0.91542155 -0.088183761 0.020541552 6 23
0.86523062 -0.19717588 0 26 22
0.9178791 -0.088737205 -0.020599579 61 21
0.86672777 -0.19768021 -0.039828826 63 20
0.90110809 -0.087166846 -0.060254876 62 19
0.90242165 -0.20919518 0.206297 77 30
0.95328867 -0.093613632 0.1780719 12 29
0.88586825 -0.20500846 0.13676608 13 28
0.92620641 -0.091816455 0.10936169 9 27
0.88261569 -0.20425989 0.08325696 7 26
0.93807554 -0.093285881 0.063161507 49 25
0.87339729 -0.20210907 0.040178202 73 24
0.92504251 -0.092506975 0.02077366 7 23
0.87183952 -0.20190497 0 12 22
0.91507626 -0.091698073 -0.020541552 61 21
0.86842877 -0.20142584 -0.039945286 39 20
0.89831609 -0.090069696 -0.060082223 62 19
0.90164882 -0.21250133 0.206297 68 30
0.95049644 -0.096864462 0.17759831 12 29
0.88511091 -0.20825395 0.13676608 16 28
0.93080211 -0.095705219 0.10996757 9 27
0.88186115 -0.20749345 0.08325696 9 26
0.93524587 -0.096474044 0.062987991 49 25
0.87508023 -0.20588678 0.040294662 76 24
0.91725385 -0.0949829 0.020599579 7 23
0.86379749 -0.20336223 0 10 22
0.91224736 -0.094799668 -0.020483525 61 21
0.86286175 -0.20329852 -0.039712369 39 20
0.89797986 -0.093361586 -0.060082223 66 19
0.89143223 -0.21335649 0.20404238 66 30
0.94526881 -0.099679627 0.17665112 15 29
0.88918042 -0.2125022 0.13753878 16 28
0.91812062 -0.09767399 0.10845286 10 27
0.88600653 -0.21158452 0.083732717 9 26
0.93242282 -0.099479981 0.062814467 48 25
0.86707371 -0.20718101 0.039945286 76 24
0.92188829 -0.098703168 0.020715633 9 23
0.86065239 -0.20578879 0 10 22
0.90944219 -0.097564317 -0.020425498 61 21
0.85486507 -0.20454758 -0.039362993 40 20
0.90012896 -0.096755385 -0.060254876 66 19
0.90254688 -0.21921425 0.20686065 60 30
0.94005096 -0.10229541 0.17570391 33 29
0.88367295 -0.21427384 0.13676608 17 28
0.92025912 -0.10098218 0.1087558 12 27
0.88284546 -0.21408361 0.083494842 10 26
0.93456751 -0.10283778 0.062987991 48 25
0.86880744 -0.21064961 0.040061742 73 24
0.91161609 -0.10068869 0.020483525 10 23
0.86724937 -0.21042813 0 10 22
0.91406578 -0.10127553 -0.020541552 56 21
0.85903263 -0.20857182 -0.039595909 43 20
0.894844 -0.099203676 -0.059909575 69 19
0.89941281 -0.22177458 0.206297 56 30
0.93236786 -0.10477318 0.17428313 41 29
0.88531649 -0.21795341 0.13715242 18 28
0.91743451 -0.10392113 0.10845286 15 27
0.88209283 -0.21716402 0.083494842 12 26
0.93420285 -0.1060994 0.062987991 45 25
0.86564338 -0.21307814 0.039945286 72 24
0.91372496 -0.10430612 0.020541552 11 23
0.86408359 -0.21285015 0 10 22
0.92115843 -0.10529748 -0.020715633 50 21
0.85099316 -0.20990649 -0.039246533 45 20
0.89944953 -0.10288008 -0.060254876 66 19
0.89623272 -0.22447212 0.20573334 55 30
0.92709941 -0.10763656 0.17333594 46 29
0.88690639 -0.22180185 0.13753878 20 28
0.92444402 -0.10812834 0.10936169 43 27
0.88370377 -0.22100522 0.083732717 17 26
0.92389679 -0.10838649 0.062293906 37 25
0.87212032 -0.21808475 0.040294662 67 24
0.9158383 -0.10778051 0.020599579 12 23
0.85602647 -0.21417721 0 11 22
0.9182834 -0.10838658 -0.020657606 50 21
0.85509717 -0.21410091 -0.039479453 49 20
0.8965888 -0.10589024 -0.060082223 67 19
0.89308465 -0.22699347 0.20516968 32 30
0.93647051 -0.11201256 0.17523032 51 29
0.87894899 -0.22305612 0.13637973 20 28
0.924061 -0.11135459 0.10936169 46 27
0.87569487 -0.2222344 0.083019085 22 26
0.92103606 -0.11131812 0.062120385 15 25
0.86651552 -0.21988726 0.040061742 62 24
0.91049248 -0.11038832 0.020483525 13 23
0.86011678 -0.21840662 0 11 22
0.91541761 -0.11129627 -0.020599579 49 21
0.86160111 -0.21894762 -0.039828826 54 20
0.90116692 -0.10960815 -0.060427524 66 19
0.88050199 -0.22703978 0.20235142 12 30
0.93363672 -0.11498714 0.17475672 54 29
0.8829459 -0.2273664 0.13715242 27 28
0.92613018 -0.11487848 0.10966463 50 27
0.87254453 -0.22451103 0.082781211 26 26
0.92311758 -0.11483381 0.062293906 11 25
0.85849214 -0.22102468 0.039712369 63 24
0.91010165 -0.11356587 0.020483525 44 23
0.85692984 -0.2207779 0 15 22
0.9100818 -0.11372471 -0.020483525 46 21
0.85841495 -0.22132434 -0.039712369 65 20
0.89582777 -0.11214698 -0.060082223 67 19
0.93081409 -0.11778085 0.17428313 51 29
0.87502205 -0.22840405 0.13599339 49 28
0.9183566 -0.11702754 0.1087558 62 27
0.86694258 -0.2262865 0.082305454 28 26
0.92273164 -0.11789434 0.062293906 9 25
0.86016929 -0.22450699 0.039828826 59 24
0.90228039 -0.11564999 0.020309445 50 23
0.85377568 -0.22298059 0 22 22
0.90967929 -0.11690079 -0.020483525 21 21
0.85767627 -0.22416972 -0.039712369 66 20
0.89297634 -0.11480574 -0.059909575 69 19
0.93283242 -0.12133949 0.17475672 49 29
0.87660557 -0.23209506 0.13637973 59 28
0.92286533 -0.12086399 0.10936169 57 27
0.86855167 -0.22995415 0.082543328 41 26
0.92478812 -0.12143276 0.062467426 6 25
0.85696781 -0.22686309 0.039712369 51 24
0.90432918 -0.11927641 0.020367472 59 23
0.848162 -0.22466706 0 23 22
0.9018296 -0.11911365 -0.020309445 12 21
0.8520245 -0.22601907 -0.039479453 73 20
0.89751703 -0.11856198 -0.060254876 66 19
0.88747782 -0.23880215 0.20460603 7 30
0.9275136 -0.12411942 0.17380953 51 29
0.86383009 -0.23207259 0.13444801 57 28
0.92241615 -0.12424565 0.10936169 56 27
0.87010491 -0.23378769 0.082781211 61 26
0.92433685 -0.12482145 0.062467426 6 25
0.85372043 -0.22934859 0.039595909 49 24
0.90142971 -0.12210357 0.020309445 63 23
0.85215825 -0.22908431 0 26 22
0.9088195 -0.12340727 -0.020483525 9 21
0.85605019 -0.23030135 -0.039712369 76 20
0.8896597 -0.12086377 -0.059736926 69 19
0.88663882 -0.24189858 0.20460603 7 30
0.92464191 -0.12702866 0.17333594 49 29
0.8630147 -0.2350865 0.13444801 62 28
0.9219768 -0.12746471 0.10936169 56 27
0.87652367 -0.23865065 0.083494842 68 26
0.918953 -0.12737547 0.062120385 6 25
0.85773033 -0.23365191 0.039828826 23 24
0.90347445 -0.12558687 0.020367472 63 23
0.848943 -0.23139404 0 28 22
0.90840524 -0.12642035 -0.020483525 7 21
0.85764873 -0.2339513 -0.039828826 74 20
0.89170349 -0.12430615 -0.059909575 66 19
0.88113976 -0.24352829 0.20347872 10 30
0.92664725 -0.13042988 0.17380953 48 29
0.85747176 -0.23662113 0.13367532 63 28
0.91663313 -0.12983839 0.1087558 57 27
0.87808263 -0.24237682 0.083732717 72 26
0.91852558 -0.13042213 0.062120385 7 25
0.86176211 -0.23783557 0.040061742 10 24
0.90550572 -0.12908593 0.020425498 62 23
0.85539538 -0.23622234 0 41 22
0.9005329 -0.12855087 -0.020309445 6 21
0.84961092 -0.23492889 -0.039479453 77 20
0.88634652 -0.12657084 -0.05956427 67 19
0.88961565 -0.24940889 0.20573334 13 30
0.91644132 -0.13244693 0.17191516 45 29
0.8613525 -0.24110571 0.13444801 62 28
0.92352122 -0.1342487 0.10966463 51 27
0.8795833 -0.24627028 0.083970591 73 26
0.92051017 -0.13414094 0.062293906 7 25
0.85848141 -0.24031335 0.039945286 9 24
0.90504962 -0.13224594 0.020425498 61 23
0.85452384 -0.23935594 0 67 22
0.90747738 -0.13291746 -0.020483525 6 21
0.85599458 -0.23993306 -0.039828826 77 20
0.88587666 -0.1298186 -0.05956427 66 19
0.88171583 -0.25049865 0.20404238 28 30
0.91354418 -0.13529201 0.17144156 45 29
0.85338199 -0.24207094 0.13328896 66 28
0.918136 -0.13675338 0.10905875 52 27
0.87393332 -0.24796885 0.083494842 72 26
0.9126336 -0.13626808 0.061773345 9 25
0.86243886 -0.24468356 0.040178202 7 24
0.90210986 -0.13504097 0.020367472 61 23
0.85127991 -0.24164864 0 73 22
0.90453523 -0.13572009 -0.020425498 7 21
0.85275126 -0.24223122 -0.039712369 77 20
0.88788551 -0.13327357 -0.059736926 61 19
0.97707105 -0.27842638 -0.088074572 4 18
0.88317502 -0.2542544 0.20460603 38 30
0.91549432 -0.13884161 0.17191516 44 29
0.85964823 -0.24711317 0.13444801 62 28
0.9127447 -0.13922213 0.10845286 49 27
0.86832577 -0.24947943 0.083019085 73 26
0.91215235 -0.13945293 0.061773345 10 25
0.86157948 -0.24769256 0.040178202 6 24
0.90163291 -0.13818911 0.020367472 60 23
0.84803033 -0.24392164 0 77 22
0.8917231 -0.13685669 -0.020135364 7 21
0.84470618 -0.24311623 -0.039362993 80 20
0.88741487 -0.13637206 -0.059736926 65 19
0.9952693 -0.28722909 -0.089862891 6 18
0.87765366 -0.25580719 0.20347872 37 30
0.91988236 -0.14261596 0.17286235 28 29
0.85645425 -0.24926639 0.13406166 63 28
0.91473097 -0.14262395 0.1087558 46 27
0.86744964 -0.25250894 0.083019085 69 26
0.90675473 -0.14171991 0.061426304 11 25
0.86314958 -0.25125214 0.040294662 7 24
0.89622927 -0.14041786 0.020251418 59 23
0.84961534 -0.24743746 0 78 22
0.89618015 -0.14073068 -0.020251418 9 21
0.85108262 -0.24803005 -0.039712369 74 20
0.88695782 -0.13931409 -0.059736926 63 19
0.87675536 -0.2588692 0.20347872 43 30
0.919379 -0.14582609 0.17286235 15 29
0.85794628 -0.25295883 0.13444801 57 28
0.91177595 -0.14543173 0.10845286 44 27
0.86417764 -0.25482565 0.082781211 63 26
0.91118205 -0.14565848 0.061773345 12 25
0.8646608 -0.25497577 0.040411122 9 24
0.90064621 -0.14448027 0.020367472 55 23
0.84155834 -0.24826154 0 82 22
0.89321476 -0.14346839 -0.020193391 10 21
0.85016793 -0.25114778 -0.039712369 76 20
0.88646609 -0.14240929 -0.059736926 66 19
0.8781324 -0.26278493 0.20404238 35 30
0.91883826 -0.14919479 0.17286235 9 29
0.85937822 -0.25681472 0.13483436 49 28
0.9161371 -0.14955924 0.10905875 20 27
0.86323792 -0.25799128 0.082781211 61 26
0.90325511 -0.14780867 0.061252784 22 25
0.85415655 -0.25525931 0.039945286 10 24
0.89273405 -0.14642961 0.020193391 55 23
0.84303612 -0.25206649 0 78 22
0.89021558 -0.14634249 -0.020135364 11 21
0.84450465 -0.25267029 -0.039479453 80 20
0.88101399 -0.14486161 -0.059391622 68 19
0.87022215 -0.26371223 0.20235142 49 30
0.92557991 -0.15358749 0.17428313 6 29
0.85611421 -0.25909165 0.13444801 46 28
0.90826309 -0.15155059 0.10814992 11 27
0.85999733 -0.26012611 0.082543328 54 26
0.91011643 -0.15217496 0.061773345 45 25
0.85803723 -0.25969794 0.040178202 11 24
0.88728529 -0.14873196 0.020077337 49 23
0.84454203 -0.25573823 0 74 22
0.8847934 -0.14847992 -0.020019308 12 21
0.8436175 -0.25561661 -0.039479453 78 20
0.88296366 -0.14834253 -0.05956427 66 19
0.86701602 -0.26587671 0.20178777 87 30
0.92506552 -0.15665598 0.17428313 6 29
0.85997009 -0.26338747 0.13522071 45 28
0.91265047 -0.15538166 0.1087558 7 27
0.85908401 -0.26312649 0.082543328 51 26
0.90714717 -0.15477929 0.061599825 55 25
0.85001338 -0.26033023 0.039828826 15 24
0.88925195 -0.15208817 0.020135364 26 23
0.83891237 -0.25706053 0 77 22
0.88180512 -0.151152 -0.019961281 15 21
0.84515095 -0.2591508 -0.039595909 78 20
0.87754822 -0.15044045 -0.059218969 71 19
0.86840701 -0.26962948 0.20235142 90 30
0.92935282 -0.16070792 0.17523032 7 29
0.84725881 -0.2627008 0.13328896 48 28
0.90231836 -0.15689228 0.10754404 4 27
0.8605355 -0.26686659 0.082781211 48 26
0.90414333 -0.15752338 0.061426304 62 25
0.8586331 -0.26627791 0.040294662 20 24
0.8862254 -0.15492271 0.020077337 12 23
0.84278166 -0.26148087 0 67 22
0.89605069 -0.15677387 -0.020309445 43 21
0.84657842 -0.26299348 -0.039712369 76 20
0.87947559 -0.15392597 -0.059391622 71 19
0.8581264 -0.26986471 0.20009682 90 30
0.92392081 -0.16327155 0.17428313 9 29
0.85099953 -0.26729646 0.13406166 61 28
0.90907073 -0.1614809 0.10845286 4 27
0.85006189 -0.26701215 0.081829697 46 26
0.90355986 -0.16083618 0.061426304 67 25
0.8481288 -0.26640609 0.039828826 23 24
0.89552581 -0.15974441 0.020309445 10 23
0.84420079 -0.26532355 0 65 22
0.89054698 -0.15919071 -0.020193391 57 21
0.84565526 -0.26594698 -0.039712369 74 20
0.87644923 -0.15671615 -0.059218969 72 19
0.86181724 -0.2743476 0.20122412 90 30
0.92334527 -0.16649565 0.17428313 9 29
0.8453573 -0.2687569 0.13328896 71 28
0.90605855 -0.16421713 0.10814992 7 27
0.85623401 -0.27225763 0.082543328 29 26
0.9029929 -0.1639892 0.061426304 67 25
0.85194969 -0.27089015 0.040061742 28 24
0.89004254 -0.16198766 0.020193391 7 23
0.84088904 -0.26750493 0 57 22
0.88752592 -0.16185661 -0.020135364 65 21
0.84234411 -0.26813385 -0.039595909 78 20
0.87835157 -0.16021538 -0.059391622 72 19
0.8631708 -0.27810693 0.20178777 90 30
0.91309685 -0.16796711 0.17238875 11 29
0.84911269 -0.273231 0.13406166 74 28
0.90792125 -0.16782345 0.10845286 7 27
0.85295922 -0.27432773 0.082305454 10 26
0.89996153 -0.16669258 0.061252784 69 25
0.83674687 -0.26923707 0.039362993 34 24
0.88701308 -0.16464405 0.020135364 7 23
0.84232789 -0.2712107 0 52 22
0.88698429 -0.16479886 -0.020135364 69 21
0.83665287 -0.26952913 -0.039362993 74 20
0.87778699 -0.16328041 -0.059391622 72 19
0.85992992 -0.2802074 0.20122412 90 30
0.92219055 -0.17277674 0.17428313 9 29
0.84350836 -0.27450475 0.13328896 78 28
0.8976 -0.16902268 0.1072411 9 27
0.84726727 -0.27575129 0.081829697 6 26
0.90185577 -0.17013183 0.061426304 67 25
0.84296775 -0.27434656 0.039712369 62 24
0.89380389 -0.16911341 0.020309445 7 23
0.83904868 -0.27322245 0 50 22
0.88640362 -0.16789401 -0.020135364 73 21
0.8404516 -0.27400795 -0.039595909 71 20
0.87724066 -0.16619036 -0.059391622 73 19
0.85889709 -0.28335735 0.20122412 90 30
0.91913885 -0.1757011 0.17380953 10 29
0.84718448 -0.27915221 0.13406166 74 28
0.89941269 -0.17277299 0.10754404 7 27
0.85569775 -0.28199375 0.082781211 6 26
0.89632553 -0.17250665 0.061079264 65 25
0.84432644 -0.27822182 0.039828826 72 24
0.88829744 -0.17129911 0.020193391 9 23
0.84041399 -0.27708459 0 35 22
0.88087189 -0.17020677 -0.020019308 77 21
0.83949006 -0.27693999 -0.039595909 71 20
0.87172568 -0.16847154 -0.059046321 74 19
0.85790277 -0.28635371 0.20122412 85 30
0.9161092 -0.17844549 0.17333594 11 29
0.84152246 -0.2805337 0.13328896 77 28
0.89393085 -0.17497127 0.10693816 10 27
0.84291339 -0.28101414 0.081591815 7 26
0.89816666 -0.17610766 0.061252784 61 25
0.84098291 -0.28037167 0.039712369 79 24
0.89260149 -0.17534916 0.020309445 9 23
0.83233297 -0.27762553 0 12 22
0.88272595 -0.17375658 -0.020077337 71 21
0.83851826 -0.27986866 -0.039595909 68 20
0.87113231 -0.17151339 -0.059046321 74 19
0.86381501 -0.29170135 0.20291507 78 30
0.91548073 -0.18164222 0.17333594 11 29
0.84287655 -0.28426465 0.13367532 76 28
0.89331466 -0.17809062 0.10693816 11 27
0.85140216 -0.28701091 0.082543328 7 26
0.89265245 -0.17827807 0.060905743 61 25
0.84472781 -0.28491345 0.039945286 80 24
0.88217574 -0.17652889 0.020077337 10 23
0.84082592 -0.28375024 0 9 22
0.88214493 -0.17668286 -0.020077337 71 21
0.83517212 -0.28198916 -0.039479453 71 20
0.87052822 -0.17455319 -0.059046321 73 19
0.8674491 -0.2961494 0.20404238 67 30
0.91246593 -0.18419775 0.17286235 34 29
0.83725762 -0.28545231 0.13290262 68 28
0.89028579 -0.1805653 0.10663522 13 27
0.85510212 -0.29159909 0.083019085 9 26
0.89694709 -0.18221715 0.061252784 56 25
0.83669341 -0.28527772 0.039595909 79 24
0.88403594 -0.17994519 0.020135364 11 23
0.83278805 -0.28409767 0 7 22
0.88642335 -0.1807465 -0.020193391 69 21
0.83423239 -0.28475711 -0.039479453 69 20
0.86749953 -0.1769473 -0.058873672 74 19
0.86180949 -0.2975744 0.20291507 71 30
0.89978844 -0.18494315 0.17049436 41 29
0.83858913 -0.28918421 0.13328896 65 28
0.89208174 -0.18416704 0.10693816 16 27
0.84467638 -0.29131335 0.082067572 10 26
0.89141828 -0.18434997 0.060905743 55 25
0.83569252 -0.28819659 0.039595909 77 24
0.88337052 -0.18318415 0.020135364 11 23
0.83415252 -0.28782424 0 7 22
0.87599283 -0.18183447 -0.019961281 72 21
0.83082479 -0.28699157 -0.039362993 72 20
0.86931998 -0.18047459 -0.059046321 72 19
0.86301035 -0.30154011 0.20347872 67 30
0.89910454 -0.1882398 0.17049436 44 29
0.83985364 -0.2930755 0.13367532 57 28
0.88897091 -0.18693137 0.10663522 41 27
0.84595066 -0.29523313 0.082305454 12 26
0.89317834 -0.1881234 0.061079264 49 25
0.83698642 -0.29208627 0.039712369 76 24
0.88027883 -0.18575716 0.020077337 12 23
0.82365924 -0.28755966 0 7 22
0.88266057 -0.18657468 -0.020135364 66 21
0.82510692 -0.28823093 -0.039130077 76 20
0.87109417 -0.18416876 -0.059218969 72 19
0.85506904 -0.30209962 0.20178777 59 30
0.89603978 -0.19087222 0.17002077 44 29
0.83184397 -0.29352209 0.13251628 61 28
0.89316916 -0.19105843 0.1072411 48 27
0.84027714 -0.29636955 0.081829697 12 26
0.8876363 -0.19020809 0.060732223 27 25
0.83831459 -0.29584303 0.039828826 72 24
0.88207006 -0.1893467 0.020135364 15 23
0.82265037 -0.29043305 0 9 22
0.87714702 -0.18846393 -0.020019308 66 21
0.82880098 -0.29278478 -0.039362993 71 20
0.86312681 -0.18565525 -0.05870102 76 19
0.86093789 -0.30740738 0.20347872 23 30
0.9074046 -0.19640693 0.17238875 43 29
0.84248799 -0.30045629 0.13444801 54 28
0.89495695 -0.19453983 0.10754404 59 27
0.83923745 -0.29930091 0.081829697 16 26
0.88943893 -0.19367461 0.060905743 12 25
0.83027869 -0.29608727 0.039479453 69 24
0.8741073 -0.1906926 0.019961281 33 23
0.81933028 -0.29231343 0 10 22
0.87892705 -0.1920515 -0.020077337 60 21
0.83252513 -0.29722258 -0.039595909 68 20
0.86250645 -0.18851647 -0.05870102 74 19
0.85757065 -0.30957809 0.20291507 9 30
0.90671355 -0.19957317 0.17238875 38 29
0.84143412 -0.30339527 0.13444801 48 28
0.88699895 -0.19607542 0.10663522 65 27
0.84988272 -0.30647829 0.083019085 20 26
0.89363033 -0.1978433 0.061252784 10 25
0.82924002 -0.29898369 0.039479453 65 24
0.8758778 -0.1942772 0.020019308 52 23
0.82300395 -0.2968801 0 11 22
0.8806926 -0.19565375 -0.020135364 48 21
0.82913566 -0.29927313 -0.039479453 71 20
0.86671543 -0.19259459 -0.059046321 71 19
0.84728694 -0.30935511 0.20066047 10 30
0.89878547 -0.20130496 0.17096797 34 29
0.85422647 -0.31158963 0.13676608 16 28
0.88627428 -0.19932511 0.10663522 67 27
0.83941019 -0.30615714 0.082067572 24 26
0.89046478 -0.20057578 0.061079264 7 25
0.82345074 -0.30029804 0.039246533 60 24
0.88247848 -0.19911668 0.020193391 65 23
0.82660306 -0.30162024 0 12 22
0.8750909 -0.19779164 -0.020019308 23 21
0.8233459 -0.30058545 -0.039246533 73 20
0.86356956 -0.19522676 -0.058873672 71 19
0.84848481 -0.31315979 0.20122412 10 30
0.90526223 -0.20605631 0.17238875 30 29
0.84618765 -0.3119891 0.13560705 9 28
0.88557309 -0.20241755 0.10663522 65 27
0.84533501 -0.31168535 0.082781211 26 26
0.89219177 -0.20423286 0.061252784 6 25
0.82239753 -0.30317056 0.039246533 56 24
0.87934041 -0.20164387 0.020135364 67 23
0.83257526 -0.30711684 0 16 22
0.86952031 -0.19973932 -0.019903254 15 21
0.8269729 -0.30519858 -0.039479453 68 20
0.86531502 -0.1987917 -0.059046321 68 19
0.84054685 -0.31354877 0.19953316 9 30
0.90453738 -0.209215 0.17238875 28 29
0.84509343 -0.31494093 0.13560705 9 28
0.88244241 -0.20495272 0.10633228 66 27
0.8373068 -0.31186369 0.082067572 48 26
0.88904274 -0.20678747 0.061079264 6 25
0.82133424 -0.30603942 0.039246533 49 24
0.87375987 -0.20359106 0.020019308 74 23
0.82447731 -0.30738363 0 20 22
0.87615991 -0.20430452 -0.020077337 11 21
0.82122737 -0.30632612 -0.039246533 71 20
0.85975522 -0.20069063 -0.05870102 69 19
0.85316473 -0.32152152 0.20291507 9 30
0.8942737 -0.20999461 0.17049436 26 29
0.84635389 -0.31861752 0.13599339 7 28
0.8769241 -0.20675212 0.1057264 68 27
0.84319395 -0.31743211 0.082781211 60 26
0.88592339 -0.20916796 0.060905743 6 25
0.82031488 -0.30876142 0.039246533 45 24
0.87794751 -0.20762463 0.020135364 71 23
0.82111603 -0.30922902 0 23 22
0.87544137 -0.20736164 -0.020077337 9 21
0.82254171 -0.30993411 -0.039362993 68 20
0.85908502 -0.20354058 -0.05870102 60 19
0.85203725 -0.32449761 0.20291507 10 30
0.90070313 -0.21480407 0.17191516 18 29
0.83601093 -0.31803411 0.13444801 6 28
0.88102692 -0.21095452 0.10633228 62 27
0.84208071 -0.32037348 0.082781211 65 26
0.88761461 -0.21283415 0.061079264 7 25
0.82156396 -0.31251666 0.039362993 15 24
0.87474895 -0.21026357 0.020077337 72 23
0.81769735 -0.31119829 0 23 22
0.8771438 -0.21099418 -0.020135364 7 21
0.81440598 -0.31026196 -0.039013617 73 20
0.85836929 -0.2065381 -0.05870102 59 19
0.84402978 -0.324976 0.20122412 12 30
0.89752257 -0.21753207 0.17144156 15 29
0.83944595 -0.32288089 0.13522071 9 28
0.88024783 -0.21418221 0.10633228 61 27
0.83393919 -0.32076025 0.082067572 67 26
0.88925326 -0.21666989 0.061252784 7 25
0.82274157 -0.31642801 0.039479453 7 24
0.86915034 -0.21214372 0.019961281 73 23
0.81188929 -0.31238589 0 43 22
0.86664677 -0.21186024 -0.019903254 9 21
0.82030278 -0.31581211 -0.039362993 68 20
0.85518223 -0.20909719 -0.058528371 57 19
0.84515798 -0.3288089 0.20178777 23 30
0.90152812 -0.22182393 0.17238875 12 29
0.83831376 -0.32580912 0.13522071 10 28
0.88431633 -0.2184307 0.10693816 50 27
0.84214115 -0.3271513 0.083019085 68 26
0.87637848 -0.21681085 0.060385179 9 25
0.81930655 -0.3183876 0.039362993 6 24
0.87083209 -0.21577081 0.020019308 69 23
0.8154496 -0.31704158 0 69 22
0.86836696 -0.21532789 -0.019961281 9 21
0.82152057 -0.31958476 -0.039479453 71 20
0.85444713 -0.21208104 -0.058528371 51 19
0.84179819 -0.33071354 0.20122412 20 30
0.89125454 -0.22246015 0.17049436 33 29
0.83263481 -0.3267712 0.13444801 11 28
0.87636065 -0.21957231 0.10602934 49 27
0.83405095 -0.32734412 0.082305454 67 26
0.88291663 -0.221517 0.060905743 9 25
0.83218068 -0.32661134 0.040061742 7 24
0.87011182 -0.2186574 0.020019308 68 23
0.81904328 -0.32158294 0 74 22
0.87488627 -0.22016786 -0.020135364 9 21
0.81581211 -0.32046947 -0.039246533 71 20
0.84889865 -0.21370916 -0.05818307 48 19
0.84742343 -0.3363623 0.20291507 24 30
0.89047259 -0.22556986 0.17049436 40 29
0.8291952 -0.32875958 0.13406166 18 28
0.87799567 -0.22323501 0.10633228 48 27
0.83521432 -0.33117652 0.082543328 62 26
0.87730098 -0.22337994 0.060558699 11 25
0.8240779 -0.32673562 0.039712369 7 24
0.86930448 -0.22184506 0.020019308 67 23
0.8155942 -0.32351238 0 77 22
0.87168908 -0.22260861 -0.020077337 9 21
0.81926936 -0.32531226 -0.039479453 68 20
0.85056567 -0.21728159 -0.058355723 46 19
0.83715183 -0.33581635 0.20066047 30 30
0.88963985 -0.22883208 0.17049436 46 29
0.83943695 -0.33641887 0.13599339 15 28
0.86755365 -0.22399637 0.10512052 37 27
0.82937938 -0.33237258 0.082067572 65 26
0.86922753 -0.22474082 0.060038138 11 25
0.82982224 -0.33255792 0.040061742 7 24
0.87094611 -0.22549802 0.020077337 62 23
0.814403 -0.32649949 0 77 22
0.86844629 -0.2251813 -0.020019308 10 21
0.81349802 -0.32629904 -0.039246533 67 20
0.84734762 -0.21977822 -0.05818307 46 19
0.84724987 -0.34333795 0.20347872 21 30
0.88408196 -0.23070937 0.16954719 49 29
0.83139586 -0.33654961 0.13483436 24 28
0.86676645 -0.22702333 0.10512052 21 27
0.83518666 -0.33793843 0.082781211 61 26
0.87326592 -0.22902587 0.060385179 21 25
0.82634383 -0.33450973 0.039945286 9 24
0.86773455 -0.22790849 0.020019308 59 23
0.81094348 -0.32839614 0 79 22
0.8676948 -0.22805993 -0.020019308 11 21
0.81466621 -0.33008027 -0.039362993 68 20
0.84898907 -0.22336251 -0.058355723 46 19
0.83709866 -0.34243461 0.20122412 40 30
0.88806164 -0.23488234 0.17049436 51 29
0.82799119 -0.33836472 0.13444801 18 28
0.86600888 -0.22989638 0.10512052 10 27
0.82939917 -0.3389574 0.082305454 57 26
0.87732571 -0.23318875 0.060732223 44 25
0.82292062 -0.33629769 0.039828826 9 24
0.86214012 -0.22951208 0.019903254 54 23
0.80984998 -0.33108348 0 77 22
0.85964316 -0.22917582 -0.019845227 12 21
0.81125814 -0.33182874 -0.039246533 71 20
0.85547853 -0.22808409 -0.058873672 44 19
0.84489322 -0.34909695 0.20347872 71 30
0.88486373 -0.2373513 0.17002077 55 29
0.8313666 -0.34314892 0.13522071 18 28
0.86040497 -0.23164088 0.10451463 7 27
0.82591283 -0.3408953 0.082067572 54 26
0.87409657 -0.23560721 0.060558699 48 25
0.82174176 -0.33916819 0.039828826 11 24
0.85404932 -0.23073488 0.019729175 32 23
0.81099778 -0.33486831 0 74 22
0.86125249 -0.23282073 -0.019903254 13 21
0.81234193 -0.33575961 -0.039362993 68 20
0.84503961 -0.22849192 -0.05818307 40 19
0.84360808 -0.3521913 0.20347872 77 30
0.88398784 -0.24059288 0.17002077 54 29
0.82327139 -0.34332466 0.13406166 35 28
0.86913294 -0.23738208 0.1057264 6 27
0.82006878 -0.34199291 0.081591815 52 26
0.87322718 -0.23880933 0.060558699 57 25
0.82279557 -0.34314469 0.039945286 12 24
0.86288804 -0.23632911 0.019961281 17 23
0.80976498 -0.33783853 0 76 22
0.85798126 -0.23532137 -0.019845227 30 21
0.81346709 -0.33956087 -0.039479453 63 20
0.83564758 -0.35227892 0.20178777 83 30
0.88077456 -0.24303061 0.16954719 52 29
0.81524605 -0.34330341 0.13290262 66 28
0.87069243 -0.24107012 0.10602934 4 27
0.8257435 -0.34776825 0.082305454 49 26
0.86757803 -0.24053648 0.060211658 63 25
0.82389188 -0.34698963 0.040061742 11 24
0.85964775 -0.23867767 0.019903254 11 23
0.80397791 -0.33871022 0 73 22
0.86197424 -0.23964061 -0.019961281 46 21
0.80767941 -0.34044686 -0.039246533 60 20
0.83665144 -0.35615322 0.20235142 82 30
0.88228667 -0.24675839 0.17002077 52 29
0.81631327 -0.3471193 0.13328896 74 28
0.87223673 -0.24477196 0.10633228 6 27
0.82458574 -0.35050458 0.082305454 45 26
0.86673307 -0.24356343 0.060211658 65 25
0.82267559 -0.34986344 0.040061742 11 24
0.85880935 -0.24167696 0.019903254 9 23
0.80738664 -0.34348348 0 61 22
0.85876721 -0.24182685 -0.019903254 59 21
0.80419075 -0.3422803 -0.039130077 63 20
0.83099484 -0.35699186 0.20122412 82 30
0.87673628 -0.24835758 0.16907358 49 29
0.81289035 -0.34884462 0.13290262 79 28
0.87142026 -0.24766305 0.10633228 6 27
0.82335722 -0.35338077 0.082305454 18 26
0.86352003 -0.24576016 0.060038138 63 25
0.81234127 -0.34862724 0.039595909 12 24
0.85555518 -0.24399443 0.019845227 9 23
0.80394846 -0.34516692 0 62 22
0.85791785 -0.24482302 -0.019903254 65 21
0.80986673 -0.34806073 -0.039479453 61 20
0.8319127 -0.36101031 0.20178777 82 30
0.87345892 -0.25089803 0.16859999 49 29
0.8161338 -0.35379776 0.13367532 77 28
0.87289304 -0.25153598 0.10663522 6 27
0.81977564 -0.35540062 0.082067572 7 26
0.86501163 -0.24960838 0.060211658 62 25
0.81792432 -0.35459921 0.039945286 29 24
0.85229534 -0.24629219 0.019787202 7 23
0.80267805 -0.34811124 0 57 22
0.85701478 -0.24796578 -0.019903254 67 21
0.80407006 -0.34888601 -0.039246533 60 20
0.82841903 -0.36292914 0.20122412 83 30
0.87021899 -0.25326592 0.16812639 48 29
0.81489384 -0.35664451 0.13367532 79 28
0.86247361 -0.25182536 0.10542346 7 27
0.81625265 -0.3572565 0.081829697 6 26
0.86892635 -0.25401288 0.060558699 57 25
0.80296999 -0.35141036 0.039246533 52 24
0.86103272 -0.25204822 0.020019308 7 23
0.80603307 -0.35292789 0 54 22
0.8465426 -0.24817003 -0.019671148 71 21
0.80513221 -0.35269839 -0.039362993 61 20
0.83159715 -0.3678 0.20235142 83 30
0.8716861 -0.25698978 0.16859999 46 29
0.80913049 -0.35747913 0.13290262 80 28
0.86158937 -0.25483441 0.10542346 7 27
0.82188559 -0.36299449 0.082543328 6 26
0.86324793 -0.25564119 0.060211658 60 25
0.80630189 -0.35624096 0.039479453 65 24
0.8529532 -0.25294027 0.019845227 7 23
0.80479622 -0.35573933 0 41 22
0.85051107 -0.25238472 -0.019787202 71 21
0.80161476 -0.35449094 -0.039246533 60 20
0.83037293 -0.37055564 0.20235142 82 30
0.87082905 -0.25987899 0.16859999 45 29
0.80794048 -0.36016035 0.13290262 76 28
0.86549807 -0.25910062 0.10602934 9 27
0.82061344 -0.36586121 0.082543328 6 26
0.86478633 -0.25921199 0.060385179 56 25
0.80739444 -0.35993531 0.039595909 66 24
0.85690129 -0.25719124 0.019961281 9 23
0.80817342 -0.36045417 0 12 22
0.84962487 -0.25535202 -0.019787202 68 21
0.80954683 -0.36124042 -0.039712369 59 20
0.83129269 -0.37445772 0.20291507 79 30
0.88167512 -0.26643589 0.17096797 28 29
0.80217862 -0.36094001 0.13212994 73 28
0.85983479 -0.26069313 0.10542346 10 27
0.81479752 -0.36666963 0.082067572 6 26
0.86865306 -0.2636649 0.060732223 54 25
0.8084079 -0.3637819 0.039712369 65 24
0.84638023 -0.25744736 0.019729175 9 23
0.80007911 -0.36017716 0 9 22
0.84872842 -0.25831622 -0.019787202 67 21
0.82548553 -0.37547424 0.20178777 84 30
0.87599444 -0.2682409 0.17002077 12 29
0.80309641 -0.36490512 0.13251628 76 28
0.85887361 -0.26384282 0.10542346 11 27
0.811185 -0.36861837 0.081829697 6 26
0.86290932 -0.26539356 0.060385179 54 25
0.80706918 -0.3667424 0.039712369 68 24
0.84786713 -0.26112926 0.019787202 9 23
0.80102688 -0.36414748 0 7 22
0.85016626 -0.26215509 -0.019845227 66 21
0.82859188 -0.38039666 0.20291507 78 30
0.8703596 -0.26985592 0.16907358 6 29
0.80406034 -0.36874151 0.13290262 76 28
0.8508324 -0.26464769 0.10451463 38 27
0.80763382 -0.37040457 0.081591815 7 26
0.8619777 -0.26840407 0.060385179 48 25
0.80351675 -0.36851069 0.039595909 67 24
0.84456235 -0.26334986 0.019729175 10 23
0.79521161 -0.36484489 0 6 22
0.8468582 -0.2643829 -0.019787202 68 21
0.82732588 -0.38314229 0.20291507 77 30
0.86711568 -0.27201232 0.16859999 6 29
0.79611582 -0.36827779 0.1317436 71 28
0.85468858 -0.26894447 0.10512052 44 27
0.81993735 -0.37938419 0.083019085 10 26
0.86108291 -0.27126101 0.060385179 38 25
0.80229032 -0.3711732 0.039595909 69 24
0.85084116 -0.26838505 0.019903254 11 23
0.79626358 -0.36853567 0 6 22
0.84359145 -0.26644358 -0.019729175 67 21
0.83039135 -0.38810116 0.20404238 73 30
0.86147767 -0.27356446 0.1676528 4 29
0.80153185 -0.37420598 0.13290262 68 28
0.85611117 -0.27267286 0.10542346 50 27
0.81185102 -0.37906867 0.082305454 10 26
0.85537446 -0.27276272 0.060038138 20 25
0.79646945 -0.37184724 0.039362993 68 24
0.84746891 -0.27074769 0.019845227 11 23
0.79497224 -0.37131289 0 6 22
0.8498044 -0.27165005 -0.019903254 63 21
0.81796247 -0.38591847 0.20122412 67 30
0.867486 -0.27895537 0.16907358 6 29
0.79792327 -0.37608254 0.13251628 68 28
0.85037833 -0.27429825 0.10481758 59 27
0.81495315 -0.38417509 0.082781211 10 26
0.85199356 -0.27513605 0.059864614 11 25
0.79961371 -0.37690473 0.039595909 65 24
0.84889895 -0.27446663 0.019903254 40 23
0.79586452 -0.37529606 0 7 22
0.83928329 -0.27171013 -0.019671148 59 21
0.81880689 -0.38982373 0.20178777 68 30
0.87117964 -0.28348827 0.17002077 6 29
0.80106145 -0.38099846 0.13328896 62 28
0.85177684 -0.27802852 0.10512052 62 27
0.81136245 -0.38594297 0.082543328 11 26
0.85814613 -0.280413 0.060385179 9 25
0.79153574 -0.37645885 0.039246533 67 24
0.84318066 -0.27588683 0.019787202 51 23
0.79905915 -0.3802315 0 7 22
0.84783876 -0.27772415 -0.019903254 40 21
0.88688987 -0.29114673 0.23976086 56 31
0.82401961 -0.39585972 0.20347872 61 30
0.87251836 -0.2872889 0.17049436 7 29
0.80195075 -0.3848666 0.13367532 55 28
0.85080117 -0.28100008 0.10512052 59 27
0.81456041 -0.39079535 0.083019085 9 26
0.85953218 -0.28418326 0.060558699 7 25
0.79471421 -0.38139173 0.039479453 67 24
0.84458727 -0.27960736 0.019845227 57 23
0.79547608 -0.38193074 0 7 22
0.8421638 -0.27897537 -0.019787202 23 21
0.86756337 -0.2880474 0.2346047 54 31
0.82270241 -0.39859009 0.20347872 59 30
0.86922973 -0.28941154 0.17002077 9 29
0.80289066 -0.38860545 0.13406166 50 28
0.84986466 -0.28381991 0.10512052 55 27
0.8042419 -0.38927716 0.082067572 24 26
0.858585 -0.28703201 0.060558699 6 25
0.79120004 -0.38293147 0.039362993 66 24
0.84835035 -0.28412834 0.019961281 66 23
0.7919578 -0.3834714 0 9 22
0.83881289 -0.28112569 -0.019729175 16 21
0.86421013 -0.29046196 0.23396018 52 31
0.82342136 -0.40267807 0.20404238 56 30
0.87281978 -0.29415086 0.17096797 9 29
0.81032729 -0.39590451 0.13560705 48 28
0.84646565 -0.28614464 0.10481758 57 27
0.80504304 -0.39332023 0.082305454 43 26
0.8646208 -0.29255593 0.061079264 7 25
0.78979123 -0.38582879 0.039362993 68 24
0.8473534 -0.28708789 0.019961281 66 23
0.79727697 -0.38968158 0 9 22
0.84488404 -0.28658727 -0.019903254 11 21
0.867769 -0.29501936 0.23524922 49 31
0.87178767 -0.29719579 0.17096797 9 29
0.80672759 -0.39763319 0.13522071 48 28
0.85016227 -0.29069054 0.10542346 54 27
0.79474711 -0.39170486 0.08135394 46 26
0.85178554 -0.29156601 0.060211658 7 25
0.79067683 -0.38969293 0.039479453 65 24
0.84161299 -0.28843635 0.019845227 68 23
0.79591185 -0.39246225 0 9 22
0.84624481 -0.29033935 -0.019961281 9 21
0.8598749 -0.29570895 0.23331566 51 31
0.870745 -0.30023709 0.17096797 10 29
0.81196147 -0.40376234 0.13637973 46 28
0.84914237 -0.29365638 0.10542346 51 27
0.80012131 -0.39767763 0.082067572 46 26
0.86019838 -0.29777545 0.060905743 9 25
0.78484505 -0.39021572 0.039246533 62 24
0.84532851 -0.2929965 0.019961281 63 23
0.80124384 -0.39859509 0 9 22
0.83345938 -0.28908169 -0.019671148 9 21
0.86802453 -0.30170599 0.23589374 49 31
0.86742437 -0.30232131 0.17049436 11 29
0.84581912 -0.2956582 0.10512052 51 27
0.79872835 -0.40046817 0.082067572 46 26
0.85684997 -0.29980904 0.060732223 10 25
0.78354675 -0.39281625 0.039246533 60 24
0.84199119 -0.2949782 0.019903254 65 23
0.78875834 -0.39561787 0 29 22
0.83480603 -0.29280993 -0.019729175 9 21
0.86468518 -0.30393934 0.23524922 49 31
0.87099844 -0.30696675 0.17144156 33 29
0.84712386 -0.29942948 0.10542346 50 27
0.79067147 -0.3998678 0.08135394 48 26
0.84873807 -0.30032161 0.060211658 12 25
0.78217077 -0.39554891 0.039246533 56 24
0.83624017 -0.29625928 0.019787202 67 23
0.79405636 -0.40177134 0 45 22
0.82906312 -0.29406431 -0.019613121 9 21
0.85906255 -0.30535036 0.23396018 49 31
0.85603464 -0.3050985 0.16859999 38 29
0.8507517 -0.30404219 0.10602934 48 27
0.80255526 -0.4094438 0.082781211 44 26
0.85003507 -0.30411613 0.060385179 18 25
0.78300697 -0.3994171 0.039362993 54 24
0.8399114 -0.30084914 0.019903254 63 23
0.78597724 -0.40111476 0 45 22
0.83509642 -0.29946801 -0.019787202 9 21
0.86476332 -0.31093013 0.23589374 48 31
0.85259914 -0.30740771 0.16812639 44 29
0.84729558 -0.30632094 0.1057264 45 27
0.84656733 -0.30638731 0.060211658 22 25
0.78375536 -0.40343276 0.039479453 52 24
0.83645093 -0.30308056 0.019845227 59 23
0.77784258 -0.4005425 0 44 22
0.83399326 -0.30252677 -0.019787202 9 21
0.86140031 -0.31312782 0.23524922 48 31
0.84690368 -0.30871326 0.16717921 48 29
0.84622115 -0.30927673 0.1057264 27 27
0.84314817 -0.30848995 0.060038138 28 25
0.83303869 -0.30514532 0.019787202 59 23
0.77643967 -0.40325519 0 44 22
0.8282873 -0.30358353 -0.019671148 10 21
0.85808754 -0.31515607 0.2346047 49 31
0.84356952 -0.31067804 0.16670561 49 29
0.83586973 -0.30866826 0.10451463 20 27
0.83743733 -0.30956763 0.059691094 20 25
0.83436853 -0.30876708 0.019845227 56 23
0.77731001 -0.40699297 0 48 22
0.82487649 -0.30561119 -0.019613121 10 21
0.86151576 -0.31981835 0.23589374 48 31
0.84938848 -0.31617081 0.16812639 49 29
0.83944178 -0.31330684 0.10512052 12 27
0.84804469 -0.31682134 0.060558699 13 25
0.83088809 -0.31095356 0.019787202 55 23
0.83317679 -0.31196854 -0.019845227 11 21
0.85807407 -0.32213107 0.23524922 48 31
0.84592426 -0.31842342 0.1676528 48 29
0.84061199 -0.31725129 0.10542346 11 27
0.83987153 -0.31730232 0.060038138 12 25
0.82277715 -0.3112188 0.019613121 32 23
0.82500833 -0.31238455 -0.019671148 12 21
0.85242295 -0.32342303 0.23396018 48 31
