# .PCD v0.7 - Point Cloud Data file format
VERSION 0.7
FIELDS x y z intensity ring
SIZE 4 4 4 4 2
TYPE F F F F U
COUNT 1 1 1 1 1
WIDTH 1221
HEIGHT 1
VIEWPOINT 0 0 0 1 0 0 0
POINTS 1221
DATA ascii
-1.7035525 0.27626356 0.11764698 74 25
-1.645648 0.49361002 0.078493066 80 24
-1.6897218 0.27494252 0.038936108 75 23
-1.6377391 0.49153835 0 83 22
-1.6946086 0.27603403 -0.039052162 77 21
-1.6429986 0.49374986 -0.078376614 80 20
-1.6935512 0.27586952 -0.11636614 76 19
-1.6452751 0.49505726 -0.15111272 81 18
-1.7013931 0.27744636 -0.19332983 71 17
-1.6456729 0.4957979 -0.23394962 74 16
-1.6995902 0.27656463 -0.29413414 68 15
-1.6412967 0.49724331 -0.48079664 62 13
-1.6941653 0.27510151 -0.38510644 64 14
-1.640584 0.49887156 -0.58104342 59 12
-1.6935534 0.271451 -0.67956102 59 11
-1.6415489 0.50469965 -0.89346248 75 9
-1.6970346 0.27022472 -0.79077435 68 10
-0.90843749 0.28003716 -0.55348992 90 8
-0.81786263 0.12811013 -0.53667343 84 7
-0.67723292 0.21033819 -0.51345748 51 6
-0.6341638 0.097622737 -0.51366854 89 5
-0.38350245 0.11963509 -0.35068685 49 4
-0.25803107 0.040444214 -0.24016501 90 3
-0.23072648 0.071802095 -0.24423438 55 2
-0.28911021 0.043673851 -0.3380762 7 1
-0.29411578 0.093366779 -0.38514787 4 0
-1.6934991 0.27743354 0.44858482 59 31
-1.6342013 0.49728411 0.38722959 75 30
-1.6935674 0.27893743 0.32441291 67 29
-1.6333088 0.49640724 0.26155546 77 28
-1.6869874 0.27935073 0.20448515 75 27
-1.6406472 0.49866074 0.160567 83 26
-1.6976067 0.28169602 0.11729994 76 25
-1.6414394 0.49890906 0.078376614 83 24
-1.6887517 0.28083909 0.038936108 75 23
-1.6407082 0.4989987 0 81 22
-1.6935855 0.28224322 -0.039052162 77 21
-1.6364888 0.49802169 -0.078143694 80 20
-1.6876073 0.28126186 -0.11602084 76 19
-1.6410688 0.50035495 -0.15088919 80 18
-1.7004143 0.28338364 -0.19332983 72 17
-1.6462121 0.50255233 -0.23429367 66 16
-1.6961843 0.28209504 -0.29370472 68 15
-1.6441448 0.50438535 -0.48217231 60 13
-1.6931455 0.28130907 -0.38510644 64 14
-1.6410897 0.50529349 -0.58186066 58 12
-1.6925957 0.27736095 -0.67956102 59 11
-1.6417953 0.51137239 -0.89463496 77 9
-1.696081 0.2761468 -0.79077435 67 10
-0.89929152 0.28063583 -0.54831713 90 8
-0.81536508 0.13064355 -0.53527224 67 7
-0.6764946 0.2127009 -0.51345748 53 6
-0.63004678 0.099259213 -0.51043797 90 5
-0.39339978 0.12430739 -0.36105198 49 4
-0.24771219 0.039836541 -0.22924842 90 3
-0.2335313 0.073654696 -0.24805054 51 2
-0.28295732 0.043823682 -0.33012149 7 1
-0.29791152 0.095761359 -0.39126134 4 0
-1.6901374 0.28294793 0.44794029 60 31
-1.6347822 0.50370574 0.38779324 75 30
-1.6925833 0.28484735 0.32441291 68 29
-1.6292062 0.50137591 0.26116911 79 28
-1.686002 0.28523773 0.20448515 75 27
-1.6389846 0.50409859 0.160567 81 26
-1.696613 0.28762007 0.11729994 74 25
-1.6444596 0.50611097 0.078609534 80 24
-1.6852965 0.28631711 0.03887808 75 23
-1.643733 0.50620049 0 83 22
-1.6852465 0.28661126 -0.03887808 79 21
-1.637126 0.50446957 -0.078260154 80 20
-1.6866152 0.28715101 -0.11602084 74 19
-1.6394006 0.50579417 -0.15088919 81 18
-1.6994147 0.28931746 -0.19332983 72 17
-1.6445366 0.5080086 -0.23429367 75 16
-1.6903321 0.2871961 -0.29284593 67 15
-1.6446687 0.51083744 -0.48286018 60 13
-1.6922035 0.28692225 -0.38510644 66 14
-1.6393161 0.51101887 -0.58186066 59 12
-1.693953 0.28335118 -0.68049836 59 11
-1.6379855 0.51614743 -0.89346248 74 9
-1.6951067 0.28206554 -0.79077435 67 10
-0.89835596 0.28361645 -0.54831713 90 8
-0.81081545 0.13283329 -0.53246975 49 7
-0.67957193 0.21616238 -0.5164867 53 6
-0.63536984 0.10223161 -0.51528388 90 5
-0.38611466 0.12336557 -0.35414189 50 4
-0.25266427 0.041428693 -0.23470671 90 3
-0.22868651 0.072902314 -0.2423263 51 2
-0.27681467 0.043882798 -0.32216674 7 1
-0.29072753 0.094445139 -0.38107225 4 0
-1.6915715 0.28895435 0.44858482 59 31
-1.633103 0.5091241 0.38779324 74 30
-1.6916295 0.29045859 0.32441291 68 29
-1.629892 0.50751323 0.26155546 77 28
-1.6874928 0.29124567 0.20478809 75 27
-1.6372149 0.50981665 0.160567 83 26
-1.6981081 0.29366618 0.11747347 76 25
-1.6403888 0.51081586 0.078493066 80 24
-1.686801 0.29232743 0.038936108 75 23
-1.6396595 0.51090181 0 83 22
-1.6916251 0.29376447 -0.039052162 77 21
-1.6354442 0.50989562 -0.078260154 80 20
-1.6831959 0.29231924 -0.1158482 74 19
-1.6400008 0.51225907 -0.15111272 81 18
-1.6959983 0.29452989 -0.19304553 71 17
-1.6403908 0.51300389 -0.23394962 76 16
-1.694225 0.29363403 -0.29370472 68 15
-1.6429656 0.51628846 -0.48286018 60 13
-1.6863881 0.29200283 -0.3839902 66 14
-1.6376125 0.51645231 -0.58186066 59 12
-1.6906685 0.28887558 -0.67956102 59 11
-1.6382765 0.5225358 -0.89463496 74 9
-1.694162 0.28768516 -0.79077435 67 10
-0.89939684 0.28740713 -0.54961038 90 8
-0.81037056 0.13552132 -0.53246975 43 7
-0.67692214 0.21791694 -0.51497209 51 6
-0.63312495 0.10414772 -0.51366854 90 5
-0.37367159 0.12074067 -0.34204921 47 4
-0.24912958 0.041784622 -0.23106785 90 3
-0.22996195 0.07421428 -0.24423438 53 2
-0.27965611 0.04529874 -0.32614413 7 1
-0.29313877 0.096390411 -0.38514787 4 0
-1.6881722 0.29444569 0.44794029 59 31
-1.6313157 0.51482165 0.38779324 74 30
-1.6906053 0.29636171 0.32441291 71 29
-1.6257558 0.51245385 0.26116911 79 28
-1.6791322 0.29585311 0.20387927 72 27
-1.6401705 0.51703095 0.16104275 85 26
-1.6946158 0.29916179 0.11729994 76 25
-1.6362151 0.51578492 0.078376614 80 24
-1.6857703 0.29821372 0.038936108 76 23
-1.6378661 0.51662219 0 81 22
-1.6905893 0.29966754 -0.039052162 79 21
-1.6384155 0.51711071 -0.078493066 80 20
-1.6846217 0.29862469 -0.11602084 75 19
-1.6382027 0.51798064 -0.15111272 80 18
-1.6974061 0.30087823 -0.19332983 71 17
-1.6433096 0.52022749 -0.23463769 76 16
-1.6931896 0.29954618 -0.29370472 68 15
-1.6411533 0.5220204 -0.48286018 60 13
-1.6877588 0.29830831 -0.38454834 64 14
-1.6380494 0.52288693 -0.5826779 58 12
-1.6896499 0.29477534 -0.67956102 59 11
-1.6364424 0.52825123 -0.89463496 74 9
-1.6931475 0.29359716 -0.79077435 67 10
-0.89838815 0.29054484 -0.54961038 90 8
-0.81601858 0.13937436 -0.53667343 39 7
-0.68371296 0.22276999 -0.5210306 55 6
-0.63275754 0.10635711 -0.51366854 90 5
-0.37496161 0.12261769 -0.34377676 47 4
-0.25236887 0.043191597 -0.23470671 90 3
-0.23276049 0.076055527 -0.24805054 53 2
-0.27500418 0.045584042 -0.32017806 7 1
-0.2914308 0.096942775 -0.38311005 4 0
-1.6894603 0.30105147 0.44858482 58 31
-1.6270988 0.52005267 0.38722959 75 30
-1.6919246 0.30298531 0.3248865 70 29
-1.6262187 0.51916343 0.26155546 79 28
-1.6853656 0.30331355 0.20478809 75 27
-1.6382644 0.52303904 0.16104275 83 26
-1.6959631 0.30580997 0.11747347 76 25
-1.6390696 0.52330369 0.078609534 79 24
-1.6822058 0.30394948 0.03887808 76 23
-1.6335812 0.52185792 0 83 22
-1.6870195 0.3054201 -0.038994133 77 21
-1.6293758 0.52082217 -0.078143694 80 20
-1.681061 0.30435637 -0.1158482 76 19
-1.6362932 0.52398145 -0.15111272 81 18
-1.6962918 0.30709749 -0.19332983 72 17
-1.6413919 0.52624702 -0.23463769 76 16
-1.6920804 0.30574998 -0.29370472 70 15
-1.6415159 0.52877194 -0.48354799 59 13
-1.6890529 0.30492169 -0.38510644 66 14
-1.6361219 0.52888715 -0.5826779 58 12
-1.6885581 0.30096626 -0.67956102 59 11
-1.636593 0.53493446 -0.89580756 72 9
-1.6876024 0.29901809 -0.78864861 70 10
-0.88919085 0.29115131 -0.54443759 90 8
-0.81346142 0.14201508 -0.53527224 39 7
-0.67534542 0.22275527 -0.51497209 53 6
-0.63424546 0.10899015 -0.51528388 89 5
-0.36595157 0.12109275 -0.33513916 47 4
-0.24882421 0.043566268 -0.23106785 90 3
-0.22636983 0.074807756 -0.24041823 56 2
-0.27633178 0.046827365 -0.32216674 7 1
-0.2910735 0.098010264 -0.38311005 4 0
-1.6836449 0.30608979 0.44729578 59 31
-1.6299065 0.52723444 0.38835692 75 30
-1.6860259 0.30801409 0.32393929 71 29
-1.6243964 0.52483684 0.26155546 79 28
-1.6818552 0.30875018 0.20448515 75 27
-1.6364286 0.52875447 0.16104275 84 26
-1.6899786 0.31083283 0.11712643 77 25
-1.6348575 0.52825099 0.078493066 81 24
-1.6835932 0.31026906 0.038936108 77 23
-1.6341274 0.52832913 0 81 22
-1.685943 0.31130701 -0.038994133 79 21
-1.6299229 0.52727824 -0.078260154 81 20
-1.6824416 0.31067184 -0.11602084 76 19
-1.6344543 0.52968997 -0.15111272 81 18
-1.6927665 0.31256929 -0.19304553 71 17
-1.6395448 0.53197336 -0.23463769 76 16
-1.6837347 0.31032592 -0.29241657 71 15
-1.6373758 0.53375077 -0.48286018 60 13
-1.6831838 0.30994007 -0.3839902 66 14
-1.6365105 0.53533262 -0.58349514 58 12
-1.6874973 0.30685857 -0.67956102 59 11
-1.6368111 0.54134023 -0.89698005 72 9
-1.6887759 0.30530626 -0.78971148 68 10
-0.88816917 0.29425335 -0.54443759 90 8
-0.81092131 0.14449741 -0.533871 37 7
-0.67079496 0.22383858 -0.51194286 50 6
-0.6319803 0.11088226 -0.51366854 90 5
-0.36381707 0.12178376 -0.33341163 46 4
-0.25036198 0.044715475 -0.23288728 90 3
-0.22763307 0.076127902 -0.2423263 50 2
-0.27467096 0.047550749 -0.32017806 4 1
-0.29072961 0.099025704 -0.38311005 7 0
-1.6825662 0.31196493 0.44729578 59 31
-1.6211147 0.53063846 0.38666594 75 30
-1.6849406 0.31389755 0.32393929 70 29
-1.6225545 0.53050375 0.26155546 79 28
-1.6783273 0.31416598 0.20418221 75 27
-1.6346663 0.53417814 0.16104275 81 26
-1.6864312 0.31627384 0.1169529 77 25
-1.6353763 0.53473365 0.078609534 80 24
-1.6800429 0.31568599 0.03887808 77 23
-1.6346482 0.53481048 0 81 22
-1.6898153 0.31781307 -0.039110187 80 21
-1.6304448 0.53374451 -0.078376614 81 20
-1.6813468 0.31654277 -0.11602084 77 19
-1.6326886 0.53510714 -0.15111272 80 18
-1.6916652 0.31847629 -0.19304553 75 17
-1.6377717 0.5374074 -0.23463769 76 16
-1.6850622 0.31665269 -0.29284593 70 15
-1.6377844 0.54021895 -0.48354799 59 13
-1.6869383 0.31641155 -0.38510644 66 14
-1.6346319 0.54104185 -0.58349514 58 12
-1.6864704 0.31245282 -0.67956102 59 11
-1.6391931 0.5481714 -0.89932507 71 9
-1.6899259 0.31160629 -0.79077435 67 10
-0.87502676 0.29308763 -0.53667837 90 8
-0.80633545 0.14660032 -0.5310685 37 7
-0.66440219 0.22413395 -0.50739902 51 6
-0.63536859 0.11363216 -0.51689917 90 5
-0.3514578 0.11885031 -0.32131898 42 4
-0.25190276 0.045831986 -0.23470671 90 3
-0.22737937 0.076882333 -0.2423263 54 2
-0.27750152 0.048953064 -0.32415542 7 1
-0.29312909 0.10095848 -0.38718569 7 0
-1.6838967 0.31798756 0.44794029 60 31
-1.6262801 0.53831655 0.38835692 76 30
-1.6838903 0.31948328 0.32393929 70 29
-1.6207864 0.53588146 0.26155546 79 28
-1.6797147 0.32019097 0.20448515 75 27
-1.6304299 0.53909659 0.16080487 81 26
-1.6902739 0.32279316 0.11729994 76 25
-1.6335942 0.54015386 0.078609534 81 24
-1.6813861 0.32201511 0.038936108 77 23
-1.6304934 0.53944004 0 83 22
-1.6837851 0.3227756 -0.038994133 81 21
-1.6285717 0.53943259 -0.078376614 80 20
-1.6827379 0.32258263 -0.1161935 76 19
-1.6331732 0.54158986 -0.15133625 81 18
-1.695423 0.32530844 -0.19361414 74 17
-1.6358858 0.54312098 -0.23463769 76 16
-1.6839467 0.32253271 -0.29284593 71 15
-1.6336098 0.5451687 -0.48286018 62 13
-1.6882176 0.32275224 -0.38566458 66 14
-1.6372119 0.54825085 -0.58512956 56 12
-1.6853138 0.31863198 -0.67956102 59 11
-1.6289074 0.5510481 -0.89463496 75 9
-1.6866033 0.31708863 -0.78971148 68 10
-0.87394667 0.29629278 -0.53667837 90 8
-0.81600362 0.15126677 -0.53807467 35 7
-0.67109591 0.22916563 -0.51345748 50 6
-0.63306934 0.11562586 -0.51528388 90 5
-0.34760889 0.11894252 -0.31786394 42 4
-0.25511181 0.047340378 -0.23834558 90 3
-0.22863171 0.078216366 -0.24423438 51 2
-0.27433228 0.049467135 -0.32017806 7 1
-0.29275709 0.10203218 -0.38718569 7 0
-1.6827198 0.32415721 0.44794029 60 31
-1.6266044 0.54505038 0.38892055 76 30
-1.6851186 0.32611582 0.32441291 70 29
-1.6211525 0.54260534 0.26194182 79 28
-1.6712198 0.32493493 0.20357633 76 27
-1.6308019 0.54586184 0.16104275 85 26
-1.6841822 0.32803956 0.1169529 77 25
-1.6316034 0.54613763 0.078609534 81 24
-1.6753443 0.32693192 0.038820054 79 23
-1.6285052 0.54541242 0 84 22
-1.6825907 0.3289448 -0.038994133 79 21
-1.6314126 0.54670709 -0.078609534 83 20
-1.679096 0.32827297 -0.11602084 76 19
-1.6264583 0.54598117 -0.15088919 83 18
-1.6942772 0.33122459 -0.19361414 74 17
-1.6338842 0.54911315 -0.23463769 76 16
-1.6876464 0.32934532 -0.29370472 71 15
-1.6362492 0.55241132 -0.48423582 62 13
-1.6822385 0.32801193 -0.38454834 66 14
-1.6308149 0.55244046 -0.58349514 59 12
-1.6796385 0.3236427 -0.67768639 59 11
-1.6310526 0.55845088 -0.89698005 72 9
-1.6832631 0.32255155 -0.78864861 70 10
-0.87897307 0.30143979 -0.54055792 90 8
-0.81139934 0.15335892 -0.53527224 39 7
-0.6627813 0.22888254 -0.50739902 53 6
-0.63266188 0.11783498 -0.51528388 90 5
-0.34719157 0.12015518 -0.31786394 42 4
-0.25156835 0.047633372 -0.23470671 90 3
-0.22530328 0.07796108 -0.24041823 51 2
-0.27415794 0.050424434 -0.32017806 4 1
-0.29376033 0.10354783 -0.38922352 7 0
-1.681578 0.33002901 0.44794029 60 31
-1.6200806 0.54915512 0.38779324 75 30
-1.6839701 0.33199599 0.32441291 71 29
-1.6169102 0.54746574 0.26155546 80 28
-1.6773804 0.33220243 0.20448515 75 27
-1.6288866 0.55155104 0.16104275 81 26
-1.6830269 0.33391649 0.1169529 77 25
-1.6273226 0.55102569 0.078493066 81 24
-1.6790971 0.33374545 0.038936108 79 23
-1.631325 0.5527041 0 81 22
-1.6814322 0.33481616 -0.038994133 79 21
-1.6271303 0.55159366 -0.078493066 80 20
-1.6803867 0.33461571 -0.1161935 77 19
-1.6268992 0.55245894 -0.15111272 81 18
-1.6906739 0.33665511 -0.19332983 76 17
-1.6343011 0.55561322 -0.23498175 76 16
-1.681654 0.33428094 -0.29284593 71 15
-1.629764 0.55656004 -0.48286018 60 13
-1.6810831 0.33388206 -0.38454834 66 14
-1.6311104 0.55889851 -0.58431232 58 12
-1.6807735 0.32994679 -0.67862368 59 11
-1.6311787 0.5648663 -0.89815259 75 9
-1.6821268 0.32842526 -0.78864861 66 10
-0.8779155 0.30450615 -0.54055792 90 8
-0.81085908 0.15619032 -0.53527224 41 7
-0.66947967 0.23384513 -0.51345748 54 6
-0.62661809 0.11900048 -0.51043797 90 5
-0.34166634 0.11953796 -0.31268138 42 4
-0.25140053 0.048511218 -0.23470671 90 3
-0.2311025 0.080953747 -0.24805054 47 2
-0.2769646 0.05190466 -0.32415542 7 1
-0.29203767 0.10407351 -0.38718569 8 0
-1.6780465 0.33542681 0.44729578 59 31
-1.6181537 0.55480701 0.38779324 74 30
-1.6828009 0.33787212 0.32441291 71 29
-1.6196607 0.55471313 0.26232815 77 28
-1.6786438 0.3385427 0.20478809 75 27
-1.6317556 0.55856752 0.1615185 81 26
-1.6842963 0.3402797 0.11712643 76 25
-1.6324739 0.55913937 0.078842446 81 24
-1.6754714 0.33911228 0.03887808 79 23
-1.6270217 0.55758166 0 84 22
-1.6852132 0.34137559 -0.039110187 79 21
-1.6251948 0.55727005 -0.078493066 80 20
-1.6767634 0.33998719 -0.11602084 77 19
-1.6274124 0.55866235 -0.15133625 81 18
-1.6870537 0.34206459 -0.19304553 71 17
-1.6347902 0.56183749 -0.23532578 79 16
-1.6828915 0.34063408 -0.29327536 70 15
-1.630082 0.56303322 -0.48354799 60 13
-1.6775774 0.33897573 -0.3839902 66 14
-1.6246868 0.56303549 -0.5826779 59 12
-1.6796701 0.3355186 -0.67862368 59 11
-1.6292967 0.57027239 -0.89815259 72 9
-1.6809703 0.334295 -0.78864861 68 10
-0.88698685 0.31098142 -0.54702395 90 8
-0.81030893 0.15901978 -0.53527224 38 7
-0.66495425 0.23472628 -0.51042825 54 6
-0.624345 0.12072416 -0.50882262 90 5
-0.32597518 0.11513437 -0.29713365 42 4
-0.25292456 0.049654726 -0.23652615 90 3
-0.23234916 0.082276374 -0.24995862 50 2
-0.27380836 0.052289385 -0.32017806 7 1
-0.29304871 0.10554498 -0.38922352 8 0
-1.6792926 0.34146744 0.44794029 60 31
-1.6209056 0.56177109 0.38892055 75 30
-1.6816713 0.34345064 0.32441291 70 29
-1.6178123 0.56008101 0.26232815 79 28
-1.6750803 0.34361222 0.20448515 75 27
-1.6250945 0.56262565 0.16104275 81 26
-1.680715 0.34536463 0.1169529 76 25
-1.6258931 0.56290972 0.078609534 80 24
-1.6743376 0.34466645 0.03887808 79 23
-1.627525 0.56379533 0 84 22
-1.6791143 0.34625345 -0.038994133 79 21
-1.6233381 0.5626564 -0.078493066 83 20
-1.6780702 0.34604588 -0.1161935 77 19
-1.623101 0.56351995 -0.15111272 81 18
-1.6883433 0.34815526 -0.19332983 72 17
-1.6304814 0.5667246 -0.23498175 76 16
-1.6793396 0.34571975 -0.29284593 72 15
-1.6282061 0.56843573 -0.48354799 62 13
-1.6763839 0.34482947 -0.3839902 67 14
-1.6272686 0.56998807 -0.58431232 59 12
-1.6784886 0.3413797 -0.67862368 60 11
-1.6252156 0.57521659 -0.89698005 75 9
-1.677634 0.33942214 -0.78758574 71 10
-0.88186663 0.31263536 -0.54443759 90 8
-0.80165058 0.16011161 -0.52966726 35 7
-0.67161393 0.23974743 -0.5164867 51 6
-0.62766731 0.1236231 -0.51205325 90 5
-0.31369194 0.11192431 -0.28504103 37 4
-0.25612003 0.051169258 -0.24016501 90 3
-0.22903174 0.081962936 -0.24614246 50 2
-0.28107601 0.054604433 -0.33012149 7 1
-0.28861037 0.1050422 -0.38311005 8 0
-1.6757245 0.34684107 0.44729578 59 31
-1.6212324 0.56823432 0.38948423 74 30
-1.678058 0.34882256 0.32393929 71 29
-1.6158473 0.56572485 0.26232815 79 28
-1.6738708 0.34945726 0.20448515 75 27
-1.6278164 0.56994563 0.1615185 84 26
-1.6794993 0.35122931 0.1169529 77 25
-1.630986 0.57106644 0.078958906 81 24
-1.6706164 0.35029152 0.038820054 77 23
-1.6231889 0.56864345 0 81 22
-1.673002 0.3510929 -0.03887808 80 21
-1.6236204 0.5694319 -0.078609534 79 20
-1.6744103 0.35139257 -0.11602084 77 19
-1.6281692 0.57166594 -0.15178333 79 18
-1.6846246 0.353834 -0.19304553 76 17
-1.6284932 0.57241261 -0.23498175 74 16
-1.6804725 0.35237449 -0.29327536 71 15
-1.6306421 0.57600653 -0.48492366 62 13
-1.6799418 0.35167074 -0.38510644 67 14
-1.6296202 0.57753283 -0.5859468 56 12
-1.6772262 0.34752938 -0.67862368 60 11
-1.6252757 0.58163303 -0.89815259 72 9
-1.6785954 0.34602213 -0.78864861 70 10
nan nan nan 0 8
-0.80511862 0.16386081 -0.53246975 35 7
-0.66699409 0.24084295 -0.51345748 50 6
-0.6290825 0.12628981 -0.51366854 90 5
-0.30141625 0.10868254 -0.27294838 34 4
-0.25424677 0.05178548 -0.23834558 90 3
-0.22571941 0.081627347 -0.2423263 49 2
-0.28087398 0.055634264 -0.33012149 7 1
-0.29228595 0.10763927 -0.38922352 8 0
-1.6768062 0.35347533 0.44794029 59 31
-1.6168442 0.57335556 0.38892055 74 30
-1.6767683 0.3549706 0.32393929 71 29
-1.6160902 0.5724712 0.26271451 79 28
-1.6677225 0.35456482 0.20387927 76 27
-1.6233716 0.57507408 0.16128062 81 26
-1.6806406 0.35789859 0.11712643 77 25
-1.6218235 0.57452983 0.078609534 81 24
-1.6742736 0.35715678 0.038936108 79 23
-1.6210936 0.57458889 0 87 22
-1.6765935 0.35825998 -0.038994133 80 21
-1.6192701 0.57425821 -0.078493066 80 20
-1.6755508 0.35804495 -0.1161935 77 19
-1.6237175 0.57679313 -0.1515598 81 18
-1.6833792 0.35971227 -0.19304553 76 17
-1.6287161 0.5792101 -0.23532578 77 16
-1.6792322 0.35823828 -0.29327536 70 15
-1.6286215 0.58169508 -0.48492366 60 13
-1.6762576 0.35732108 -0.38454834 67 14
-1.6231482 0.58161783 -0.58431232 59 12
-1.6737343 0.35290712 -0.67768639 60 11
-1.6272833 0.589095 -0.90049762 74 9
-1.6751622 0.35141826 -0.78758574 70 10
nan nan nan 0 8
-0.80454177 0.16667019 -0.53246975 35 7
-0.67174709 0.24523593 -0.51800138 56 6
-0.62489551 0.12773784 -0.51043797 90 5
-0.28918707 0.10530189 -0.26085573 34 4
-0.24901584 0.051688559 -0.23288728 90 3
-0.22088772 0.080735654 -0.23660207 49 2
-0.27621293 0.055766627 -0.32415542 7 1
-0.28785133 0.10710475 -0.38311005 9 0
-1.675562 0.35932633 0.44794029 59 31
-1.6171247 0.57982099 0.38948423 75 30
-1.6707181 0.35979486 0.32299212 72 29
-1.6117579 0.57727307 0.26232815 79 28
-1.6713272 0.36142617 0.20448515 75 27
-1.6237978 0.58129603 0.1615185 84 26
-1.679381 0.36376294 0.11712643 77 25
-1.6245079 0.58187783 0.078842446 81 24
-1.6705734 0.36247244 0.03887808 79 23
-1.6237829 0.5819369 0 84 22
-1.6705102 0.36276403 -0.03887808 80 21
-1.6219552 0.58159888 -0.078725986 79 20
-1.669415 0.3628391 -0.1158482 77 19
-1.621796 0.58217442 -0.1515598 81 18
-1.6821133 0.36558616 -0.19304553 75 17
-1.6267865 0.58460796 -0.23532578 76 16
-1.6755639 0.36357895 -0.29284593 71 15
-1.6243215 0.58655721 -0.48423582 60 13
-1.6726809 0.36236528 -0.3839902 67 14
-1.6233282 0.58808786 -0.58512956 60 12
-1.6793555 0.35990226 -0.68049836 59 11
-1.6232481 0.59372658 -0.89932507 76 9
-1.6761389 0.35773242 -0.78864861 68 10
-1.6010784 0.58869642 -1.0099899 42 8
-0.8019278 0.16905735 -0.5310685 39 7
-0.66533935 0.24537744 -0.51345748 60 6
-0.62633836 0.13018912 -0.51205325 90 5
-0.280384 0.10306644 -0.25221813 32 4
-0.25220662 0.053181261 -0.23652615 90 3
-0.22665246 0.083778985 -0.24423438 49 2
-0.28197622 0.057832323 -0.33211017 7 1
-0.29154652 0.10962629 -0.38922352 9 0
-1.6720005 0.36436987 0.44729578 60 31
-1.6129041 0.58434772 0.38892055 76 30
-1.6791106 0.3674182 0.3248865 71 29
-1.612156 0.58345824 0.26271451 77 28
-1.6676949 0.36643741 0.20418221 75 27
-1.6217587 0.58696061 0.1615185 80 26
-1.6781656 0.36932999 0.11712643 77 25
-1.6272638 0.58896744 0.079075366 81 24
-1.6644791 0.36694115 0.038762026 79 23
-1.6218441 0.58731836 0 81 22
-1.6741163 0.36966377 -0.038994133 81 21
-1.6200175 0.5869742 -0.078725986 81 20
-1.6682026 0.3683731 -0.1158482 77 19
-1.6220936 0.58868444 -0.15178333 80 18
-1.6833177 0.3716943 -0.19332983 76 17
-1.6247358 0.59028298 -0.23532578 79 16
-1.6719432 0.36860657 -0.29241657 71 15
-1.6223676 0.59194034 -0.48423582 63 13
-1.6737865 0.36872265 -0.38454834 66 14
-1.6235868 0.59428287 -0.5859468 58 12
-1.6735587 0.3647818 -0.67862368 60 11
-1.6211656 0.59938914 -0.89932507 75 9
-1.6727313 0.36281249 -0.78758574 70 10
-1.6190583 0.60176396 -1.0229218 76 8
-0.80136281 0.17171572 -0.5310685 39 7
-0.66820109 0.24910125 -0.5164867 67 6
-0.62214303 0.13160209 -0.50882262 90 5
-0.26989326 0.10017654 -0.241853 37 4
-0.25033885 0.053721823 -0.23470671 90 3
-0.22334585 0.083403476 -0.24041823 46 2
-0.28028619 0.058523551 -0.33012149 7 1
-0.28981328 0.11011608 -0.38718569 9 0
-1.6683594 0.3696849 0.44665125 63 31
-1.6131406 0.59081489 0.38948423 74 30
-1.6730241 0.37221792 0.32393929 70 29
-1.6101096 0.58908212 0.26271451 79 28
-1.6664057 0.37225652 0.20418221 75 27
-1.6197 0.59261799 0.1615185 84 26
-1.6768661 0.37518561 0.11712643 77 25
-1.6205095 0.59292185 0.078842446 80 24
-1.6680021 0.37412632 0.03887808 79 23
-1.6197841 0.59297609 0 81 22
-1.6728156 0.37550527 -0.038994133 80 21
-1.6155117 0.59204572 -0.078609534 81 20
-1.6693408 0.37473676 -0.11602084 77 19
-1.6130191 0.59176123 -0.15111272 81 18
-1.67952 0.3773205 -0.19304553 76 17
-1.6226654 0.59595072 -0.23532578 76 16
-1.6729848 0.37526762 -0.29284593 72 15
-1.6246946 0.59955281 -0.4856115 59 13
-1.6701105 0.37403387 -0.3839902 67 14
-1.6236123 0.60105276 -0.58676398 60 12
-1.6744739 0.37141174 -0.67956102 59 11
-1.6231982 0.60659605 -0.90167016 68 9
-1.6758112 0.36990964 -0.78971148 68 10
-1.6208451 0.60920519 -1.0255083 75 8
-0.80072808 0.1746517 -0.5310685 39 7
-0.66356647 0.25013217 -0.51345748 67 6
-0.62725794 0.13506086 -0.51366854 90 5
-0.26109508 0.097910829 -0.23321539 35 4
-0.25349894 0.055330269 -0.23834558 87 3
-0.22305335 0.084182583 -0.24041823 49 2
-0.28155518 0.059848603 -0.33211017 7 1
-0.3001827 0.11543497 -0.40348825 9 0
-1.6693504 0.37632501 0.44729578 60 31
-1.6132472 0.59757239 0.39004788 75 30
-1.6716486 0.37834737 0.32393929 72 29
-1.6125704 0.59669983 0.26348719 80 28
-1.6698714 0.37945452 0.20478809 75 27
-1.6221828 0.6002838 0.16199426 83 26
-1.6754798 0.38132912 0.11712643 77 25
-1.6206665 0.59972697 0.078958906 81 24
-1.6691236 0.3804985 0.038936108 79 23
-1.6199433 0.59977996 0 84 22
-1.6714281 0.38163394 -0.038994133 80 21
-1.6181164 0.59942222 -0.078842446 79 20
-1.665524 0.38030097 -0.1158482 77 19
-1.6201729 0.60114586 -0.15200688 80 18
-1.6781927 0.38318086 -0.19304553 76 17
-1.6227906 0.6027593 -0.23566984 76 16
-1.6740667 0.38164914 -0.29327536 71 15
-1.6203411 0.60437745 -0.48492366 60 13
-1.6687282 0.38015264 -0.3839902 67 14
-1.6192926 0.60588568 -0.5859468 60 12
-1.6709056 0.37674809 -0.67862368 60 11
-1.6168351 0.61097449 -0.89932507 75 9
-1.6745096 0.37575707 -0.78971148 67 10
-1.6187086 0.61485922 -1.0255083 76 8
-0.80820471 0.17921135 -0.53667343 47 7
-0.66825759 0.25459111 -0.51800138 71 6
-0.62305111 0.13645029 -0.51043797 90 5
-0.25738457 0.097508155 -0.22976033 34 4
-0.24994801 0.055511817 -0.23470671 87 3
-0.2242455 0.085593402 -0.2423263 47 2
-0.28134453 0.060831048 -0.33211017 7 1
-0.29843295 0.11594523 -0.40145043 9 0
-1.6656712 0.38161388 0.44665125 62 31
-1.6111513 0.60320002 0.39004788 76 30
-1.6727109 0.38472694 0.32441291 72 29
-1.6058531 0.60058868 0.26271451 79 28
-1.6636993 0.38417146 0.20418221 75 27
-1.6177478 0.60506779 0.16175638 80 26
-1.6717077 0.38661683 0.1169529 77 25
-1.623239 0.60713619 0.079191819 81 24
-1.6653497 0.38576198 0.03887808 79 23
-1.6178398 0.60543096 0 81 22
-1.6676503 0.38690466 -0.038936108 80 21
-1.6136765 0.6041882 -0.078725986 81 20
-1.6641864 0.38611245 -0.1158482 81 19
-1.6157343 0.60592037 -0.15178333 81 18
-1.679265 0.38959438 -0.19332983 75 17
-1.6183594 0.60754693 -0.23532578 75 16
-1.6703242 0.38693801 -0.29284593 71 15
-1.6204693 0.61088055 -0.4856115 60 13
-1.6721411 0.3870675 -0.38510644 66 14
-1.6171679 0.61153436 -0.5859468 58 12
-1.6718401 0.38309258 -0.67956102 59 11
-1.6167543 0.6174053 -0.90049762 74 9
-1.6731879 0.38159993 -0.78971148 67 10
-1.6165526 0.62050587 -1.0255083 74 8
-0.80353171 0.18113446 -0.533871 39 7
-0.65995049 0.25403741 -0.51194286 74 6
-0.62443531 0.13903047 -0.51205325 90 5
-0.26040518 0.099731214 -0.23321539 34 4
-0.25142959 0.056741316 -0.23652615 88 3
-0.22994576 0.088771999 -0.24995862 45 2
-0.27964726 0.061504245 -0.33012149 7 1
-0.30205581 0.11861096 -0.40756389 11 0
-1.6690358 0.38851419 0.44794029 60 31
-1.609036 0.60882026 0.39004788 72 30
-1.6713576 0.39056346 0.32441291 71 29
-1.6083653 0.607943 0.26348719 80 28
-1.6599313 0.38941321 0.20387927 76 27
-1.6203861 0.61219418 0.16223213 83 26
-1.6752052 0.39358374 0.11729994 77 25
-1.6187751 0.61191273 0.079075366 80 24
-1.6664267 0.39214179 0.038936108 79 23
-1.6157166 0.61107463 0 83 22
-1.6687917 0.39300206 -0.038994133 80 21
-1.6115577 0.60981727 -0.078725986 81 20
-1.6652567 0.39248782 -0.11602084 77 19
-1.6137162 0.61127502 -0.15178333 81 18
-1.6778949 0.39545369 -0.19332983 76 17
-1.6186502 0.61379123 -0.23566984 76 16
-1.6689633 0.39276618 -0.29284593 71 15
-1.6183271 0.61653334 -0.4856115 60 13
-1.6684752 0.39205644 -0.38454834 66 14
-1.6172292 0.61802191 -0.58676398 59 12
-1.6660441 0.387591 -0.67768639 60 11
-1.6167569 0.62356055 -0.90167016 70 9
-1.6718457 0.38743812 -0.78971148 67 10
-1.61648 0.62663937 -1.0268015 76 8
-0.81097317 0.1857603 -0.53947592 35 7
-0.66836035 0.2598612 -0.51951599 79 6
-0.62210786 0.14068808 -0.51043797 90 5
-0.25839394 0.09992601 -0.23148786 38 4
-0.25124007 0.057574775 -0.23652615 87 3
-0.2251558 0.087721862 -0.24423438 42 2
-0.28240615 0.063058108 -0.33409885 7 1
-0.30300215 0.12015798 -0.40960172 9 0
-1.6677382 0.39404678 0.44794029 60 31
-1.6070083 0.61415267 0.39004788 74 30
-1.6700534 0.39610377 0.32441291 71 29
-1.6063404 0.6132732 0.26348719 79 28
-1.6610457 0.39548689 0.20418221 75 27
-1.6159155 0.616956 0.16199426 83 26
-1.6714643 0.39856178 0.11712643 77 25
-1.6190687 0.6181711 0.079191819 81 24
-1.665117 0.39766568 0.038936108 79 23
-1.6136813 0.61642915 0 81 22
-1.6698414 0.3994028 -0.039052162 81 21
-1.6118582 0.61605263 -0.078842446 81 20
-1.663946 0.39800787 -0.11602084 80 19
-1.6138968 0.61779732 -0.15200688 80 18
-1.6717416 0.39986694 -0.19276121 72 17
-1.6188087 0.62032664 -0.23601387 76 16
-1.6652555 0.39772984 -0.29241657 71 15
-1.6185157 0.62276256 -0.48629931 60 13
-1.6670966 0.39787811 -0.38454834 67 14
-1.615171 0.62338138 -0.58676398 58 12
-1.6691939 0.39446348 -0.67956102 60 11
-1.6145705 0.62920034 -0.90167016 75 9
-1.668348 0.3924652 -0.78864861 68 10
-1.6142827 0.63227814 -1.0268015 76 8
-0.80833453 0.18798634 -0.53807467 39 7
-0.66190326 0.25999123 -0.51497209 60 6
-0.61788994 0.14202112 -0.50720733 90 5
-0.26307371 0.10284947 -0.23667043 38 4
-0.24768871 0.0577139 -0.23288728 87 3
-0.22484823 0.088507265 -0.24423438 45 2
-0.2821843 0.064043507 -0.33409885 7 1
-0.29320496 0.11736003 -0.39533696 7 0
-1.664003 0.3993057 0.44729578 60 31
-1.6048547 0.61975849 0.39004788 74 30
-1.6638858 0.40078813 0.3234657 71 29
-1.60419 0.61887664 0.26348719 80 28
-1.6596551 0.40128261 0.20418221 76 27
-1.613752 0.62259287 0.16199426 80 26
-1.6700628 0.40439382 0.11712643 76 25
-1.616901 0.62381887 0.079191819 80 24
-1.6588593 0.4023045 0.038820054 77 23
-1.6091886 0.6211549 0 84 22
-1.668437 0.40522921 -0.039052162 80 21
-1.6096979 0.62167531 -0.078842446 80 20
-1.6649711 0.40439889 -0.1161935 77 19
-1.6117305 0.62342709 -0.15200688 80 18
-1.67275 0.40628278 -0.19304553 76 17
-1.6189415 0.62687063 -0.23635793 76 16
-1.6710399 0.40527135 -0.29370472 70 15
-1.6140931 0.62753457 -0.4856115 60 13
-1.6633283 0.40312439 -0.3839902 68 14
-1.6151853 0.62987697 -0.58758122 60 12
-1.6655521 0.39975017 -0.67862368 59 11
-1.6164712 0.63645583 -0.90401524 72 9
-1.666968 0.3982864 -0.78864861 70 10
-1.6120658 0.63790917 -1.0268015 75 8
-0.79960734 0.18892978 -0.53246975 37 7
-0.66468382 0.26378059 -0.51800138 62 6
-0.62483072 0.1458784 -0.51366854 90 5
-0.25601569 0.10104762 -0.22976033 39 4
-0.25083199 0.059327342 -0.23652615 85 3
-0.22752561 0.090520598 -0.24805054 41 2
-0.28343901 0.065351889 -0.33608752 7 1
-0.29814345 0.12060426 -0.40348825 7 0
-1.6649467 0.40568009 0.44794029 60 31
-1.6072173 0.62713325 0.39117518 74 30
-1.6696326 0.40833282 0.3248865 68 29
-1.60202 0.62447262 0.26348719 77 28
-1.6582443 0.40707344 0.20418221 75 27
-1.6162043 0.63003582 0.16247001 80 26
-1.6686411 0.41022098 0.11712643 76 25
-1.6123883 0.62854922 0.079075366 80 24
-1.6623003 0.40928063 0.038936108 79 23
-1.6116664 0.628591 0 83 22
-1.6645848 0.41045573 -0.038994133 79 21
-1.6075182 0.62729037 -0.078842446 80 20
-1.6587045 0.40902096 -0.1158482 81 19
-1.6118625 0.62995869 -0.15223041 79 18
-1.6737339 0.41271046 -0.19332983 76 17
-1.6167436 0.63251793 -0.23635793 74 16
-1.6648304 0.40993109 -0.29284593 71 15
-1.6163647 0.63492835 -0.48698717 60 13
-1.6642783 0.40950683 -0.38454834 67 14
-1.6151737 0.63638014 -0.58839846 59 12
-1.6641467 0.40556157 -0.67862368 59 11
-1.6162899 0.64291334 -0.90518773 74 9
-1.6633676 0.40357268 -0.78758574 70 10
-1.6118149 0.64432937 -1.0280946 74 8
-0.80297273 0.19267237 -0.53527224 35 7
-0.66375899 0.26609915 -0.51800138 56 6
-0.62060052 0.14719494 -0.51043797 90 5
-0.25900537 0.10331211 -0.23321539 38 4
-0.24226436 0.058300357 -0.22742899 84 3
-0.22869995 0.091933981 -0.24995862 45 2
-0.28320917 0.066340879 -0.33608752 8 1
-0.28703639 0.11716397 -0.38718569 4 0
-1.6635205 0.4114894 0.44794029 59 31
-1.6027536 0.63184345 0.39061153 75 30
-1.6658139 0.41357046 0.32441291 71 29
-1.6021274 0.63096893 0.26387355 77 28
-1.6544044 0.4122628 0.20387927 76 27
-1.6139952 0.63567358 0.16247001 80 26
-1.6647784 0.41544271 0.1169529 77 25
-1.6101844 0.63417363 0.079075366 81 24
-1.6583636 0.41476756 0.03887808 79 23
-1.6094624 0.63421291 0 83 22
-1.6631417 0.41626373 -0.038994133 81 21
-1.6098521 0.63501662 -0.079075366 79 20
-1.6596869 0.41541052 -0.11602084 80 19
-1.6165981 0.63833362 -0.15290102 80 18
-1.67221 0.41884223 -0.19332983 76 17
-1.6168275 0.63907075 -0.23670195 74 16
-1.6609268 0.41543612 -0.29241657 72 15
-1.611794 0.6399585 -0.48629931 60 13
-1.6628386 0.41531375 -0.38454834 66 14
-1.6128303 0.64229578 -0.58839846 59 12
-1.6648997 0.41221189 -0.67956102 59 11
-1.614036 0.6485514 -0.90518773 74 9
-1.6662731 0.41074294 -0.78971148 68 10
-1.6114249 0.65103698 -1.0293878 71 8
-0.80226117 0.19561413 -0.53527224 38 7
-0.66646069 0.27003706 -0.5210306 56 6
-0.61448592 0.14815268 -0.50559199 90 5
-0.26196384 0.10564441 -0.23667043 41 4
-0.24538985 0.059961036 -0.23106785 87 3
-0.22539859 0.091481894 -0.24614246 39 2
-0.28444174 0.067712799 -0.3380762 8 1
-0.28393805 0.11708537 -0.38311005 7 0
-1.6573139 0.41641337 0.44665125 60 31
-1.6049498 0.63952267 0.39173883 74 30
-1.6595246 0.41847965 0.3234657 72 29
-1.5998039 0.63683677 0.26387355 79 28
-1.6576955 0.41953447 0.20448515 75 27
-1.6116544 0.64158493 0.16247001 83 26
-1.6632445 0.42154166 0.1169529 77 25
-1.6101681 0.64099759 0.079191819 80 24
-1.6593291 0.42116523 0.038936108 79 23
-1.6094486 0.64103568 0 83 22
-1.659182 0.42174441 -0.038936108 81 21
-1.6053069 0.63970482 -0.078958906 80 20
-1.6581533 0.42149076 -0.11602084 77 19
-1.6096249 0.64240259 -0.15245394 83 18
-1.6707379 0.42467678 -0.19332983 76 17
-1.6144743 0.64499241 -0.23670195 75 16
-1.6618545 0.42183378 -0.29284593 72 15
-1.6095504 0.64558083 -0.48629931 60 13
-1.6589422 0.42080981 -0.3839902 67 14
-1.6105785 0.64792168 -0.58839846 59 12
-1.6634506 0.41802096 -0.67956102 59 11
-1.6116481 0.65446281 -0.90518773 72 9
-1.6626332 0.41601089 -0.78864861 68 10
-1.6111224 0.65746897 -1.030681 74 8
-0.80358493 0.19890404 -0.53667343 35 7
-0.66551405 0.27236181 -0.5210306 68 6
-0.62509769 0.15296738 -0.51528388 90 5
-0.26326048 0.10725586 -0.23839796 42 4
-0.24851711 0.061602022 -0.23470671 81 3
-0.22803624 0.093568146 -0.24995862 41 2
-0.28568009 0.069044776 -0.34006488 8 1
-0.28086463 0.11693662 -0.37903443 4 0
-1.6605333 0.42338264 0.44794029 59 31
-1.6027077 0.64512104 0.39173883 72 30
-1.6628119 0.4254801 0.32441291 72 29
-1.5998617 0.64334172 0.26425987 76 28
-1.6538165 0.42470458 0.20418221 75 27
-1.6070973 0.64627522 0.16223213 81 26
-1.661763 0.42734489 0.1169529 77 25
-1.6102365 0.64754891 0.079308279 80 24
-1.6578487 0.42695481 0.038936108 83 23
-1.607201 0.64664978 0 83 22
-1.6601205 0.42815417 -0.038994133 80 21
-1.6030641 0.64530444 -0.078958906 81 20
-1.654256 0.42665687 -0.1158482 77 19
-1.6050644 0.64708334 -0.15223041 84 18
-1.6716512 0.43112299 -0.19361414 74 17
-1.609918 0.64969438 -0.23635793 75 16
-1.6603719 0.42763218 -0.29284593 71 15
-1.6117398 0.65300608 -0.48767498 59 13
-1.6598241 0.42720202 -0.38454834 67 14
-1.608307 0.65353978 -0.58839846 59 12
-1.6597345 0.42325562 -0.67862368 60 11
-1.6093537 0.66008449 -0.90518773 72 9
-1.663365 0.42236564 -0.78971148 68 10
-1.6088176 0.66308886 -1.030681 74 8
-0.80690503 0.20270331 -0.53947592 38 7
-0.66272384 0.27391696 -0.51951599 76 6
-0.62085211 0.15424527 -0.51205325 90 5
-0.2662136 0.10958112 -0.241853 42 4
-0.24996823 0.062867351 -0.23652615 89 3
-0.2321633 0.096270256 -0.25568286 41 2
-0.29133832 0.0714202 -0.34801963 8 1
-0.27513677 0.11561941 -0.37088314 4 0
-1.6590453 0.42917639 0.44794029 60 31
-1.6004461 0.6507116 0.39173883 72 30
-1.6636933 0.43189511 0.3248865 70 29
-1.5953192 0.64798993 0.26387355 77 28
-1.652324 0.43047488 0.20418221 75 27
-1.60725 0.65254015 0.16247001 83 26
-1.6602609 0.43314293 0.1169529 77 25
-1.6079664 0.65316576 0.079308279 79 24
-1.6563483 0.43273917 0.038936108 83 23
-1.6049341 0.65225607 0 80 22
-1.6611108 0.43428573 -0.039052162 80 21
-1.6054261 0.65278345 -0.079191819 81 20
-1.6551703 0.4330565 -0.11602084 77 19
-1.6075199 0.65428567 -0.15267749 83 18
-1.6653287 0.4357051 -0.19304553 76 17
-1.6123387 0.65690398 -0.237046 76 16
-1.6612527 0.43404451 -0.29327536 71 15
-1.6072274 0.65771496 -0.48698717 62 13
-1.6583984 0.43270388 -0.38454834 67 14
-1.6082006 0.66004974 -0.5892157 60 12
-1.6628113 0.42991069 -0.68049836 59 11
-1.6091949 0.66626519 -0.90636027 72 9
-1.6618806 0.42816928 -0.78971148 67 10
-1.6046357 0.66759562 -1.0293878 75 8
-0.79816085 0.20349976 -0.533871 38 7
-0.66181189 0.27611309 -0.51951599 81 6
-0.62404197 0.15721872 -0.51528388 90 5
-0.26086208 0.10833632 -0.23667043 43 4
-0.25142473 0.064099669 -0.23834558 90 3
-0.22739407 0.095118165 -0.24995862 41 2
-0.29699627 0.073784113 -0.35597438 8 1
-0.27607942 0.11710981 -0.37292096 4 0
-1.6552756 0.43406636 0.44729578 60 31
-1.6005315 0.65694308 0.39230248 72 30
-1.6598772 0.43678853 0.32441291 72 29
-1.5954456 0.65421659 0.26425987 77 28
-1.6532875 0.43658194 0.20448515 75 27
-1.609565 0.6600408 0.16294576 80 26
-1.6660516 0.44054857 0.11747347 77 25
-1.6104105 0.66039526 0.079541199 79 24
-1.6549042 0.43822944 0.038936108 80 23
-1.6073856 0.65947831 0 83 22
-1.6571679 0.43944424 -0.038994133 81 21
-1.6055617 0.65905482 -0.079308279 81 20
-1.6561368 0.43917871 -0.1161935 77 19
-1.6029245 0.65894324 -0.15245394 80 18
-1.668678 0.4424915 -0.19361414 74 17
-1.6100358 0.6625281 -0.237046 74 16
-1.6598043 0.43955103 -0.29327536 71 15
-1.6072576 0.66396165 -0.48767498 60 13
-1.6615912 0.43973014 -0.38566458 66 14
-1.6060029 0.66537911 -0.5892157 59 12
-1.6568152 0.43454316 -0.67862368 63 11
-1.6088952 0.67273277 -0.90753275 72 9
-1.6626419 0.43424642 -0.79077435 67 10
-1.6062382 0.67485589 -1.0319743 72 8
-0.80149412 0.20716822 -0.53667343 35 7
-0.66267419 0.27920032 -0.5210306 79 6
-0.61793709 0.15800348 -0.51043797 90 5
-0.25716287 0.10781665 -0.23321539 42 4
-0.24953453 0.064567365 -0.23652615 87 3
-0.2285413 0.096556991 -0.2518667 38 2
-0.29084539 0.0734016 -0.34801963 8 1
-0.27434337 0.11748952 -0.37088314 4 0
-1.6583439 0.44136602 0.44858482 60 31
-1.6003615 0.66374087 0.39286613 72 30
-1.6582652 0.44286934 0.32441291 68 29
-1.5953177 0.66100824 0.26464623 76 28
-1.6516762 0.44263861 0.20448515 76 27
-1.6025393 0.66402459 0.16247001 83 26
-1.6571966 0.44472307 0.1169529 77 25
-1.6079792 0.66629332 0.079541199 79 24
-1.6557014 0.4449372 0.038994133 79 23
-1.6026495 0.66440487 0 80 22
-1.6579604 0.44616118 -0.039052162 80 21
-1.6054406 0.66589475 -0.079424739 80 20
-1.6521066 0.44460112 -0.11602084 77 19
-1.605095 0.66672999 -0.15290102 80 18
-1.6670449 0.44860455 -0.19361414 74 17
-1.6098819 0.66937834 -0.23739004 76 16
-1.6605614 0.44626734 -0.29370472 70 15
-1.6048133 0.66984808 -0.48767498 60 13
-1.652905 0.44393125 -0.3839902 67 14
-1.6035534 0.67126095 -0.5892157 60 12
-1.6552113 0.44061279 -0.67862368 59 11
-1.6023532 0.6769011 -0.90518773 72 9
-1.6566627 0.43918431 -0.78864861 68 10
-1.6057223 0.68157721 -1.0332675 72 8
-0.79872507 0.20958573 -0.53527224 35 7
-0.65433717 0.27848551 -0.51497209 76 6
-0.62105197 0.16120923 -0.51366854 90 5
-0.26173729 0.11092109 -0.23839796 43 4
-0.2459694 0.064650208 -0.23288728 88 3
-0.22522931 0.096091837 -0.24805054 38 2
-0.30087534 0.076987728 -0.36194041 9 1
-0.28052801 0.12143484 -0.38107225 4 0
-1.6567931 0.44715202 0.44858482 59 31
-1.5957896 0.66837931 0.39230248 70 30
-1.6590794 0.44929329 0.3248865 72 29
-1.5930008 0.66657293 0.26464623 75 28
-1.6501211 0.44840139 0.20448515 75 27
-1.6049179 0.67126143 0.16294576 80 26
-1.6580417 0.45115644 0.11712643 77 25
-1.6056435 0.67190212 0.079541199 80 24
-1.6517259 0.4500604 0.038936108 83 23
-1.6026254 0.67096359 0 81 22
-1.6588839 0.45231071 -0.039110187 80 21
-1.6008046 0.67052704 -0.079308279 77 20
-1.6529518 0.45101842 -0.1161935 77 19
-1.5982852 0.67011762 -0.15245394 83 18
-1.6630718 0.45377046 -0.19332983 76 17
-1.6076534 0.67471319 -0.23739004 76 16
-1.6589936 0.45206106 -0.29370472 70 15
-1.6024653 0.67544585 -0.48767498 60 13
-1.6537763 0.45004651 -0.38454834 67 14
-1.6055505 0.67869991 -0.59085011 60 12
-1.6559796 0.44669953 -0.67956102 59 11
-1.6000997 0.68221098 -0.90518773 66 9
-1.6594919 0.44613278 -0.79077435 66 10
-1.6014878 0.68605298 -1.0319743 72 8
-0.79999113 0.21289824 -0.53667343 37 7
-0.66070884 0.28381982 -0.5210306 77 6
-0.61312401 0.16135944 -0.50720733 90 5
-0.25640389 0.10960934 -0.23321539 41 4
-0.24907768 0.066307858 -0.23652615 90 3
-0.22638553 0.097494178 -0.24995862 37 2
-0.29473695 0.076525182 -0.3539857 9 1
-0.2920168 0.1276969 -0.3994126 7 0
-1.6529703 0.45200998 0.44794029 59 31
-1.5958066 0.67461872 0.39286613 71 30
-1.6599485 0.45543861 0.32536009 70 29
-1.5953298 0.67377967 0.26541892 75 28
-1.648625 0.45387086 0.20448515 75 27
-1.6048563 0.67783076 0.16318363 83 26
-1.6589415 0.45731154 0.11729994 77 25
-1.6034065 0.67722297 0.079541199 77 24
-1.6478143 0.45487362 0.03887808 79 23
-1.6003916 0.67627442 0 80 22
-1.657295 0.45809853 -0.039110187 80 21
-1.5985721 0.67583179 -0.079308279 80 20
-1.6466372 0.45517525 -0.1158482 81 19
-1.605103 0.67958742 -0.1533481 79 18
-1.6615577 0.45928293 -0.19332983 75 17
-1.6098458 0.68225914 -0.23807815 76 16
-1.6527355 0.45625609 -0.29284593 67 15
-1.6024271 0.68169993 -0.48836285 60 13
-1.6521953 0.45581651 -0.38454834 67 14
-1.601119 0.68309033 -0.59003288 60 12
-1.6521739 0.45186916 -0.67862368 59 11
-1.5997356 0.68866807 -0.90636027 66 9
-1.6558192 0.45104203 -0.78971148 68 10
-1.6010457 0.69249111 -1.0332675 71 8
-0.79727995 0.21501757 -0.53527224 38 7
-0.65242654 0.28293294 -0.51497209 68 6
-0.61440289 0.16398218 -0.50882262 90 5
-0.26097623 0.1127001 -0.23839796 43 4
-0.24552366 0.066322953 -0.23288728 90 3
-0.22457002 0.097622685 -0.24805054 38 2
-0.29740617 0.078293726 -0.35796306 9 1
-0.29948556 0.13229811 -0.41163954 8 0
-1.6490538 0.45713535 0.44729578 60 31
-1.5912031 0.67922592 0.39230248 71 30
-1.6559826 0.46057579 0.3248865 71 29
-1.5929681 0.67934436 0.26541892 75 28
-1.6446395 0.45895931 0.20418221 75 27
-1.6024804 0.68342865 0.16318363 83 26
-1.657335 0.46309957 0.11729994 77 25
-1.6033287 0.68379825 0.079657651 79 24
-1.6485437 0.46158051 0.038936108 81 23
-1.5980213 0.68185669 0 80 22
-1.6532785 0.46320999 -0.039052162 81 21
-1.5983796 0.68267012 -0.079424739 80 20
-1.6498435 0.4622592 -0.1161935 77 19
-1.6004328 0.68420446 -0.15312457 80 18
-1.6598632 0.46536976 -0.19332983 76 17
-1.6074544 0.68787438 -0.23807815 76 16
-1.6534246 0.46297124 -0.29327536 67 15
-1.606539 0.69042403 -0.49042633 58 13
-1.6529419 0.46223387 -0.38510644 66 14
-1.5986046 0.68895411 -0.59003288 60 12
-1.6527408 0.45853791 -0.67956102 59 11
-1.5973219 0.69424802 -0.90636027 67 9
-1.6563369 0.45770726 -0.79077435 68 10
-1.6004562 0.69921392 -1.0345607 71 8
-0.79448771 0.21739861 -0.533871 35 7
-0.65684205 0.28773591 -0.51951599 70 6
-0.60826564 0.16476206 -0.5039767 89 5
-0.26056141 0.11365587 -0.23839796 47 4
-0.24527891 0.067222401 -0.23288728 88 3
-0.22422788 0.098405987 -0.24805054 34 2
-0.29711723 0.079383247 -0.35796306 8 1
-0.30163303 0.13459876 -0.41571516 9 0
-1.6473672 0.46317637 0.44729578 59 31
-1.5909382 0.68602073 0.39286613 71 30
-1.6590105 0.46796823 0.32583368 68 29
-1.5950018 0.68713862 0.2661916 75 28
-1.6501126 0.46700114 0.20509103 75 27
-1.602249 0.69028509 0.16342153 79 26
-1.6580272 0.46984747 0.11747347 77 25
-1.6008116 0.68967021 0.079657651 79 24
-1.6469225 0.46733218 0.038936108 79 23
-1.5978059 0.68870157 0 80 22
-1.6491642 0.46858668 -0.038994133 80 21
-1.6005708 0.69022894 -0.079657651 77 20
-1.6481382 0.46830302 -0.1161935 77 19
-1.5979145 0.69006574 -0.15312457 77 18
-1.6558387 0.47048551 -0.19304553 76 17
-1.6026506 0.69277591 -0.23773409 74 16
-1.6541687 0.46940887 -0.29370472 63 15
-1.5997118 0.69410861 -0.48905066 59 13
-1.6512365 0.46828908 -0.38510644 67 14
-1.59619 0.69453013 -0.59003288 60 12
-1.6511302 0.46430427 -0.67956102 59 11
-1.5967871 0.70098811 -0.90753275 71 9
-1.6503692 0.46227214 -0.78864861 70 10
-1.5999622 0.70566249 -1.0358539 67 8
-0.793724 0.22017056 -0.533871 37 7
-0.6503852 0.28759435 -0.51497209 75 6
-0.61321372 0.16837454 -0.50882262 76 5
-0.25522241 0.11233289 -0.23321539 47 4
-0.24007048 0.06676165 -0.22742899 84 3
-0.22680379 0.10057046 -0.2518667 37 2
-0.29683828 0.080419905 -0.35796306 8 1
-0.31299698 0.14110966 -0.43405554 9 0
-1.6480645 0.46958241 0.44794029 59 31
-1.586302 0.69059485 0.39230248 71 30
-1.6550057 0.47308514 0.32536009 72 29
-1.5903298 0.69171387 0.26580524 75 28
-1.646086 0.47207761 0.20478809 75 27
-1.6021106 0.69686919 0.16365939 79 26
-1.6563771 0.47563222 0.11747347 77 25
-1.6006832 0.69625288 0.079774112 77 24
-1.6476841 0.4737654 0.038994133 79 23
-1.5999743 0.69627571 0 79 22
-1.6523241 0.47571665 -0.039110187 80 21
-1.5958633 0.694812 -0.079541199 77 20
-1.6512886 0.4754265 -0.11653879 76 19
-1.6000582 0.69763547 -0.15357165 83 18
-1.6589618 0.47763014 -0.19361414 75 17
-1.602491 0.69935936 -0.23807815 76 16
-1.6501522 0.47450298 -0.29327536 63 15
-1.5994794 0.70065564 -0.48973849 59 13
-1.6495919 0.47405016 -0.38510644 67 14
-1.5959178 0.7010507 -0.59085011 60 12
-1.6472696 0.46943313 -0.67862368 59 11
-1.5983653 0.70835239 -0.90987778 72 9
-1.6487454 0.46803015 -0.78864861 66 10
-1.5994425 0.71211594 -1.037147 72 8
-0.79694062 0.22404711 -0.53667343 37 7
-0.65844387 0.29394889 -0.52254522 74 6
-0.60710061 0.1690045 -0.5039767 59 5
-0.26140586 0.11622183 -0.24012548 49 4
-0.24314775 0.068488486 -0.23106785 84 3
-0.22205128 0.099331222 -0.24614246 33 2
-0.29069561 0.079912715 -0.35000831 8 1
-0.3125025 0.14220136 -0.43405554 9 0
-1.648737 0.47599894 0.44858482 59 31
-1.5883387 0.69809365 0.39342979 68 30
-1.6509854 0.47817975 0.3248865 71 29
-1.5856453 0.69626504 0.26541892 75 28
-1.6420441 0.47713163 0.20448515 75 27
-1.599791 0.70217818 0.16365939 79 26
-1.6523108 0.48071781 0.11729994 77 25
-1.6005282 0.70284301 0.079890572 77 24
-1.6460202 0.479514 0.038994133 79 23
-1.5975341 0.70185643 0 79 22
-1.6459365 0.47980127 -0.038994133 81 21
-1.5957131 0.70138609 -0.079657651 77 20
-1.6424332 0.47910273 -0.11602084 77 19
-1.595458 0.70193195 -0.1533481 77 18
-1.6572845 0.48341811 -0.19361414 75 17
-1.6001632 0.70466954 -0.23807815 74 16
-1.6484858 0.48026019 -0.29327536 62 15
-1.5970238 0.70623457 -0.48973849 59 13
-1.6480107 0.47951779 -0.38510644 67 14
-1.593461 0.70661724 -0.59085011 62 12
-1.6479316 0.47553226 -0.67956102 58 11
-1.5960076 0.71364892 -0.90987778 72 9
-1.6536286 0.47564918 -0.79183722 67 10
-1.5970722 0.71741599 -1.037147 71 8
-0.79017454 0.22514579 -0.53246975 35 7
-0.65203375 0.29366112 -0.51800138 68 6
-0.60837567 0.17152607 -0.50559199 51 5
-0.2626608 0.11784318 -0.241853 46 4
-0.24788252 0.070644759 -0.23652615 88 3
-0.22904287 0.10347521 -0.25568286 33 2
-0.29189277 0.08126682 -0.35199699 8 1
-0.3107183 0.1426214 -0.43201771 9 0
-1.6471493 0.48146376 0.44858482 59 31
-1.5882401 0.70434719 0.39399344 71 30
-1.6517472 0.48433936 0.32536009 71 29
-1.5878416 0.70352626 0.2661916 75 28
-1.6452163 0.48396808 0.20509103 74 27
-1.5950562 0.70674717 0.16342153 79 26
-1.6531012 0.48689571 0.11747347 76 25
-1.5981888 0.70814663 0.079890572 76 24
-1.6419383 0.48455283 0.038936108 79 23
-1.5974821 0.70816618 0 79 22
-1.6490477 0.4869526 -0.039110187 79 21
-1.593255 0.70695192 -0.079657651 77 20
-1.6432285 0.48524955 -0.1161935 77 19
-1.5952727 0.7085104 -0.15357165 79 18
-1.6579698 0.48990059 -0.19389845 74 17
-1.599955 0.7112596 -0.23842219 75 16
-1.6491625 0.48670527 -0.29370472 63 15
-1.5989358 0.71377003 -0.49111417 59 13
-1.6463269 0.48526752 -0.38510644 67 14
-1.5931398 0.71314317 -0.59166729 62 12
-1.6484029 0.48221642 -0.68049836 59 11
-1.595518 0.72012669 -0.91105038 72 9
-1.6476114 0.48015895 -0.78971148 67 10
-1.5905377 0.72149158 -1.0345607 70 8
-0.79734814 0.23017284 -0.53807467 35 7
-0.65456814 0.29770869 -0.5210306 72 6
-0.60223198 0.17220671 -0.50074607 46 5
-0.26550511 0.12032738 -0.24530804 47 4
-0.24431643 0.070640475 -0.23288728 84 3
-0.22429413 0.10221384 -0.24995862 33 2
-0.29013062 0.081940182 -0.35000831 8 1
-0.31281078 0.1449998 -0.43609333 9 0
-1.6430566 0.48681483 0.44794029 59 31
-1.5856479 0.71016371 0.39399344 70 30
-1.6499609 0.49039006 0.32536009 70 29
-1.5875056 0.71035296 0.26657793 75 28
-1.6410522 0.48928919 0.20478809 75 27
-1.5969957 0.71462739 0.16389728 79 26
-1.6489146 0.49224129 0.11729994 76 25
-1.6001389 0.71604538 0.080123484 76 24
-1.6402369 0.49028125 0.038936108 79 23
-1.5948758 0.71401656 0 79 22
-1.6472518 0.49299338 -0.039110187 80 21
-1.5930555 0.71353281 -0.079774112 79 20
-1.6438292 0.4919807 -0.11636614 77 19
-1.592665 0.71435267 -0.15357165 77 18
-1.6586303 0.4963938 -0.19418277 74 17
-1.5995951 0.71813601 -0.23876624 72 16
-1.6427321 0.49105498 -0.29284593 64 15
-1.6008148 0.72132754 -0.49248984 59 13
-1.6422013 0.49060416 -0.38454834 67 14
-1.5906408 0.71869999 -0.59166729 62 12
-1.6467096 0.48796749 -0.68049836 58 11
-1.59086 0.72505128 -0.90987778 71 9
-1.6480966 0.48654464 -0.79077435 67 10
-1.5918977 0.72882587 -1.037147 71 8
-0.79455078 0.23238021 -0.53667343 34 7
-0.65172029 0.29915556 -0.51951599 67 6
-0.60713267 0.1758751 -0.50559199 45 5
-0.26017445 0.11895284 -0.24012548 50 4
-0.24571951 0.071954802 -0.23470671 85 3
-0.22829656 0.10511153 -0.25568286 32 2
-0.29568654 0.084556572 -0.35796306 8 1
-0.30446389 0.14234184 -0.42386642 9 0
-1.6390328 0.49185631 0.44729578 58 31
-1.5875955 0.71770656 0.39512074 68 30
-1.648239 0.49614653 0.32536009 68 29
-1.5827667 0.71487051 0.2661916 74 28
-1.641711 0.49572846 0.20509103 74 27
-1.5944915 0.72019756 0.16389728 77 26
-1.6495748 0.49871245 0.11747347 76 25
-1.5953553 0.72059572 0.080007032 75 24
-1.6409086 0.49672449 0.038994133 76 23
-1.5923738 0.71957934 0 79 22
-1.6503068 0.5001834 -0.039226241 79 21
