# .PCD v0.7 - Point Cloud Data file format
VERSION 0.7
FIELDS x y z intensity ring
SIZE 4 4 4 4 2
TYPE F F F F U
COUNT 1 1 1 1 1
WIDTH 1136
HEIGHT 1
VIEWPOINT 0 0 0 1 0 0 0
POINTS 1136
DATA ascii
1.0978203 -0.070126407 0.10181136 11 26
1.0876251 -0.073458716 0.10085986 83 26
1.0898577 -0.077245981 0.10109774 87 26
1.0910109 -0.077527575 0.049378429 8 24
1.0895814 -0.081049822 0.10109774 80 26
1.1181382 -0.083238222 0.050659474 13 24
1.0942533 -0.085249253 0.10157349 38 26
1.1004153 -0.085747905 0.049844261 83 24
1.0864934 -0.088637173 0.10085986 17 26
1.0976051 -0.089572467 0.049727805 85 24
1.1136918 -0.091113359 0 4 22
1.0960946 -0.093293361 0.10181136 12 26
1.094798 -0.09318649 0.049611345 85 24
1.1108764 -0.094782844 0 34 22
1.0908221 -0.096479103 0.10133561 11 26
1.0944659 -0.097007476 0.049611345 87 24
1.0931107 -0.09707693 0 80 22
1.0904787 -0.10028619 0.10133561 12 26
1.0966246 -0.10087004 0.049727805 87 24
1.0927827 -0.10070127 0 81 22
1.094103 -0.10101824 -0.049611345 8 20
1.0826914 -0.10336742 0.10062198 12 26
1.0888093 -0.10397017 0.049378429 88 24
1.0949126 -0.10475827 0 76 22
1.0987145 -0.10532327 -0.049844261 63 20
1.0842695 -0.10752157 0.16496925 81 28
1.0971612 -0.10883877 0.10204925 12 26
1.0933901 -0.10846317 0.049611345 85 24
1.0994958 -0.10927504 0 13 22
1.0983211 -0.10934955 -0.049844261 88 20
1.1149726 -0.11162455 -0.097463235 8 18
1.0789746 -0.11079108 0.16419657 77 28
1.091844 -0.11195881 0.10157349 12 26
1.0905211 -0.11201897 0.049494889 87 24
1.0991076 -0.11311233 0 11 22
1.0979327 -0.11318275 -0.049844261 89 20
1.1145962 -0.11532133 -0.097463235 7 18
1.0736898 -0.11383754 0.16342388 81 28
1.0864979 -0.1152344 0.10109774 13 26
1.0926266 -0.11590306 0.049611345 85 24
1.1036974 -0.11729474 0 11 22
1.0975513 -0.116823 -0.049844261 89 20
1.1067609 -0.11840194 -0.096792616 63 18
1.0708312 -0.11731068 0.16303752 83 28
1.0860891 -0.1190263 0.10109774 16 26
1.0946971 -0.11999342 0.049727805 83 24
1.0958279 -0.12031324 0 11 22
1.0971159 -0.12084494 -0.049844261 89 20
1.1038665 -0.12198611 -0.096569069 72 18
1.0777552 -0.12208379 0.16419657 80 28
1.0856456 -0.12300621 0.10109774 16 26
1.0892882 -0.12343253 0.049494889 81 24
1.097863 -0.12461574 0 11 22
1.0991681 -0.12496088 -0.049960721 87 20
1.1058854 -0.12631866 -0.096792616 71 18
1.0724171 -0.12526192 0.16342388 83 28
1.0852095 -0.12679507 0.10109774 34 26
1.0863709 -0.12693928 0.049378429 83 24
1.0999038 -0.12874283 0 11 22
1.0987252 -0.12879694 -0.049960721 88 20
1.100493 -0.12958591 -0.096345536 25 18
1.0719733 -0.1290046 0.16342388 80 28
1.0798426 -0.12978907 0.10062198 80 26
1.0908788 -0.13133761 0.049611345 77 24
1.0969663 -0.13227718 0 11 22
1.0957901 -0.13232706 -0.049844261 89 20
1.1000572 -0.13323456 -0.096345536 12 18
1.0666384 -0.13194209 0.1626512 84 28
1.0744445 -0.13293639 0.10014623 87 26
1.0904373 -0.13495436 0.049611345 74 24
1.0940412 -0.13560165 0 12 22
1.097823 -0.13627267 -0.049960721 87 20
1.1020557 -0.13738661 -0.096569069 12 18
1.0686208 -0.1359814 0.16303752 84 28
1.0813781 -0.1376438 0.10085986 88 26
1.0924362 -0.13908026 0.049727805 46 24
1.0960405 -0.13974085 0 12 22
1.0948397 -0.13997383 -0.049844261 83 20
1.1040385 -0.14155422 -0.096792616 12 18
1.073012 -0.14054881 0.16381021 88 28
1.0808665 -0.14160632 0.10085986 89 26
1.0943944 -0.14341269 0.049844261 13 24
1.0905647 -0.1430967 0 12 22
1.0918691 -0.14346442 -0.049727805 84 20
1.1109161 -0.1465916 -0.097463235 12 18
1.0651731 -0.1432904 0.1626512 87 28
1.0754594 -0.14451692 0.1003841 85 26
1.0839901 -0.14587973 0.049378429 12 24
1.0950124 -0.14758031 0 12 22
1.0913618 -0.1472749 -0.049727805 81 20
1.107957 -0.14993593 -0.097239695 12 18
1.0671382 -0.1471643 0.16303752 85 28
1.0774131 -0.14861515 0.10062198 84 26
1.0810273 -0.14912732 0.049261972 12 24
1.0846138 -0.14982244 0 63 22
1.0933404 -0.15124027 -0.049844261 80 20
1.1098927 -0.15414992 -0.097463235 12 18
1.0641732 -0.15053743 0.1626512 87 28
1.0768877 -0.15237513 0.10062198 81 26
1.0780282 -0.15254502 0.049145512 12 24
1.0865589 -0.15396324 0 81 22
1.0903069 -0.15489037 -0.049727805 81 20
1.1019545 -0.15695521 -0.096792616 13 18
1.0685015 -0.15515672 0.16342388 84 28
1.0738598 -0.15595838 0.1003841 83 26
1.0824029 -0.15722303 0.049378429 12 24
1.0884604 -0.15830943 0 80 22
1.0947007 -0.15942493 -0.049960721 76 20
1.1112242 -0.16245316 -0.097686768 29 18
1.0630687 -0.15814856 0.1626512 87 28
1.0782305 -0.16044846 0.10085986 79 26
1.0867863 -0.16174553 0.049611345 12 24
1.0829574 -0.16136107 0 80 22
1.0842605 -0.16175143 -0.049494889 18 20
1.1081886 -0.16595745 -0.097463235 39 18
1.0698333 -0.16298944 0.16381021 87 28
1.0727735 -0.16326426 0.1003841 76 26
1.0911511 -0.16630051 0.049844261 12 24
1.0823874 -0.16514032 0 85 22
1.0960288 -0.1674455 -0.050077178 13 20
1.0977899 -0.16810425 -0.096569069 49 18
1.0692868 -0.16653624 0.16381021 90 28
1.0771133 -0.16778398 0.10085986 76 26
1.0905936 -0.16991797 0.049844261 13 24
1.0843034 -0.16911899 0 80 22
1.0905342 -0.17029865 -0.049844261 13 20
1.0947373 -0.17154485 -0.096345536 70 18
1.061384 -0.16908686 0.1626512 88 28
1.0691507 -0.17035298 0.10014623 18 26
1.0924593 -0.17412181 0.049960721 13 24
1.0837064 -0.17290285 0 80 22
1.0972983 -0.17549235 -0.050193641 12 20
1.0965896 -0.1757641 -0.096569069 74 18
1.0680678 -0.17418356 0.16381021 88 28
1.0685191 -0.17427048 0.10014623 12 26
1.0844221 -0.17690368 0.049611345 13 24
1.0855318 -0.17728154 0 77 22
1.0868239 -0.17769007 -0.049727805 14 20
1.0910254 -0.17896619 -0.096121989 77 18
1.0650177 -0.1774997 0.16342388 81 28
1.0728434 -0.17864037 0.10062198 12 26
1.0862604 -0.18110354 0.049727805 13 24
1.0775113 -0.17982021 0 75 22
1.0837348 -0.18106624 -0.049611345 24 20
1.0953358 -0.1834154 -0.096569069 76 18
1.0595551 -0.18019219 0.1626512 84 28
1.062403 -0.18069494 0.099670477 12 26
1.0782706 -0.18343338 0.049378429 76 24
1.0744452 -0.18296772 0 76 22
1.0954005 -0.18697339 -0.050193641 37 20
1.0946889 -0.18723771 -0.096569069 76 18
1.0661851 -0.1853586 0.16381021 75 28
1.0666356 -0.18545023 0.10014623 12 26
1.0775911 -0.18738422 0.049378429 79 24
1.0811538 -0.1882056 0 72 22
1.087363 -0.18949495 -0.049844261 46 20
1.0964472 -0.19168237 -0.096792616 75 18
1.0631006 -0.18864261 0.16342388 74 28
1.07333 -0.19049187 0.10085986 12 26
1.0793884 -0.19158594 0.049494889 79 24
1.0829508 -0.19242066 0 51 22
1.086695 -0.1932894 -0.049844261 59 20
1.093321 -0.19506627 -0.096569069 74 18
1.0648652 -0.19279738 0.16381021 68 28
1.0751066 -0.19468573 0.10109774 12 26
1.0738003 -0.19445264 0.049261972 80 24
1.0847315 -0.19665058 0 12 22
1.0811011 -0.1961799 -0.049611345 68 20
1.0901847 -0.19843073 -0.096345536 74 18
1.0545077 -0.19451523 0.16226484 68 28
1.0979477 -0.058273278 0.12996167 9 27
1.0769014 -0.19870636 0.10133561 13 26
1.0731496 -0.19801244 0.049261972 80 24
1.0717859 -0.19795148 0 12 22
1.0853541 -0.20068176 -0.049844261 72 20
1.0919679 -0.2025037 -0.096569069 76 18
1.0611017 -0.19957963 0.16342388 26 28
1.08287 -0.061297677 0.12814403 25 27
1.0713116 -0.20153412 0.10085986 14 26
1.074905 -0.20222387 0.049378429 80 24
1.0686326 -0.20122392 0 12 22
1.0846112 -0.20465843 -0.049844261 22 20
1.0888088 -0.20584674 -0.096345536 76 18
1.0555137 -0.20252654 0.1626512 13 28
1.0851154 -0.065409891 0.12844697 49 27
1.075452 -0.20640734 0.10133561 13 26
1.0741566 -0.20616223 0.049378429 79 24
1.0801586 -0.20752226 0 12 22
1.0863416 -0.2089197 -0.049960721 12 20
1.0904909 -0.21031241 -0.096569069 75 18
1.0572233 -0.20668863 0.16303752 13 28
1.0873575 -0.069349617 0.12874991 53 27
1.0747616 -0.20997253 0.10133561 14 26
1.1100155 -0.071126275 0.07496091 7 25
1.0734304 -0.20991048 0.049378429 79 24
1.0696176 -0.20935082 0 13 22
1.0807065 -0.21174037 -0.049727805 11 20
1.0897875 -0.21392745 -0.096569069 76 18
1.0541106 -0.20970644 0.1626512 14 28
1.0871215 -0.07295505 0.12874991 53 27
1.0740221 -0.21372287 0.10133561 42 26
1.1122622 -0.074969068 0.075134434 24 25
1.0751767 -0.21396129 0.049494889 75 24
1.0738193 -0.21388324 0 26 22
1.072654 -0.21384339 -0.049378429 11 20
1.0890342 -0.21773022 -0.096569069 74 18
1.0557919 -0.21388008 0.16303752 16 28
1.0893359 -0.076918572 0.12905285 53 27
1.0635172 -0.21547408 0.1003841 79 26
1.1045294 -0.07833834 0.074613869 45 25
1.0744233 -0.21771304 0.049494889 76 24
1.0804136 -0.21913578 0 39 22
1.0694168 -0.2172713 -0.049261972 12 20
1.0882674 -0.22153032 -0.096569069 75 18
1.0453292 -0.21573131 0.16149215 20 28
1.0865717 -0.08073239 0.12874991 53 27
1.0627204 -0.21937062 0.1003841 83 26
1.09926 -0.08202602 0.074266829 49 25
1.0687288 -0.2206299 0.049261972 76 24
1.1189675 -0.083839118 0.025241738 8 23
1.0747086 -0.2220726 0 49 22
1.0784299 -0.22304568 -0.049727805 12 20
1.0898854 -0.22602801 -0.096792616 72 18
1.0542344 -0.22142962 0.16303752 24 28
1.0862832 -0.084524743 0.12874991 53 27
1.0643826 -0.22359544 0.10062198 83 26
1.1089141 -0.086617582 0.07496091 41 25
1.0655093 -0.22384073 0.049145512 34 24
1.1062076 -0.08679451 0.024951601 37 23
1.0714815 -0.22530332 0 56 22
1.0800873 -0.22732793 -0.049844261 12 20
1.0890898 -0.22983107 -0.096792616 75 18
1.0462121 -0.2235449 0.1618785 24 28
1.0859815 -0.088316061 0.12874991 51 27
1.0587698 -0.22607456 0.10014623 84 26
1.0961745 -0.089500844 0.074093312 13 25
1.0696034 -0.22861245 0.049378429 17 24
1.0884581 -0.08926443 0.024545414 50 23
1.0731322 -0.22957002 0 63 22
1.0792873 -0.23109676 -0.049844261 12 20
1.0858879 -0.23291428 -0.096569069 72 18
1.0502902 -0.22807127 0.1626512 25 28
1.0782632 -0.091305517 0.12784109 53 27
1.060405 -0.23030208 0.1003841 81 26
1.1008426 -0.093546703 0.074440353 11 25
1.0664004 -0.23162317 0.049261972 13 24
1.0956119 -0.0936855 0.024719493 51 23
1.0723649 -0.23312739 0 63 22
1.1180116 -0.09574724 -0.025241738 12 21
1.0809131 -0.23539902 -0.049960721 12 20
1.0850682 -0.23670332 -0.096569069 71 18
1.0422152 -0.23030534 0.16149215 25 28
1.0853386 -0.095895424 0.12874991 53 27
1.0595539 -0.23418711 0.1003841 81 26
1.0980076 -0.097366095 0.074266829 11 25
1.0679815 -0.23607408 0.049378429 17 24
1.0902982 -0.097077154 0.024603439 51 23
1.0739431 -0.23760116 0 12 22
1.1076937 -0.098976478 -0.02500963 42 21
1.0873961 -0.24080497 -0.050310094 12 20
1.0866233 -0.24122317 -0.096792616 72 18
1.0486313 -0.23558109 0.1626512 28 28
1.0825255 -0.099461921 0.12844697 53 27
1.056303 -0.23733373 0.10014623 81 26
1.1001451 -0.1014217 0.074440353 11 25
1.0671508 -0.23980059 0.049378429 25 24
1.0899526 -0.1008824 0.024603439 53 23
1.0706692 -0.24079503 0 11 22
1.1048522 -0.10261678 -0.024951601 50 21
1.0792433 -0.24293943 -0.049960721 13 20
1.1299059 -0.10489415 -0.076138675 9 19
1.0833468 -0.24446177 -0.096569069 71 18
1.0453956 -0.23868527 0.16226484 41 28
1.0797008 -0.10300994 0.12814403 51 27
1.0603606 -0.24195236 0.10062198 75 26
1.1022674 -0.1054934 0.074613869 11 25
1.0638739 -0.24296328 0.049261972 37 24
1.0895939 -0.10468644 0.024603439 51 23
1.0649501 -0.243407 0 11 22
1.1069943 -0.10651395 -0.02500963 54 21
1.080822 -0.24726698 -0.050077178 47 20
1.1047024 -0.10649919 -0.074412182 21 19
1.0825301 -0.24805294 -0.096569069 75 18
1.0518135 -0.24383889 0.16342388 76 28
1.0793532 -0.10658981 0.12814403 50 27
1.0546631 -0.24451819 0.10014623 77 26
1.0944645 -0.10842708 0.074093312 11 25
1.0703571 -0.24819681 0.049611345 46 24
1.0892407 -0.10829909 0.024603439 51 23
1.0665712 -0.24750717 0 11 22
1.1041281 -0.11013484 -0.024951601 54 21
1.0727019 -0.24914026 -0.049727805 80 20
1.1018609 -0.10991985 -0.074239522 43 19
1.0792336 -0.25126076 -0.096345536 75 18
1.050956 -0.24750893 0.16342388 81 28
1.0765054 -0.1101099 0.12784109 51 27
1.0610666 -0.24992457 0.10085986 74 26
1.1015238 -0.1129938 0.074613869 11 25
1.071914 -0.25250903 0.049727805 54 24
1.0888366 -0.11229062 0.024603439 51 23
1.0632687 -0.2506502 0 11 22
1.0987636 -0.11348575 -0.024835547 53 21
1.0742108 -0.25364897 -0.049844261 83 20
1.0989892 -0.11351467 -0.074066877 47 19
1.0831941 -0.25618222 -0.096792616 71 18
1.0476408 -0.25077924 0.16303752 84 28
1.0834997 -0.1148226 0.12874991 50 27
1.0553054 -0.25264323 0.1003841 75 26
1.096141 -0.11651414 0.074266829 11 25
1.0661262 -0.25526336 0.049494889 70 24
1.0834663 -0.11557167 0.024487386 51 23
1.0744928 -0.25748271 0 11 22
1.0983403 -0.11751216 -0.024835547 58 21
1.0708916 -0.25680992 -0.049727805 80 20
1.1010462 -0.11780172 -0.074239522 45 19
1.0870876 -0.26132417 -0.097239695 63 18
1.0491579 -0.255023 0.16342388 84 28
1.0756899 -0.11781032 0.12784109 32 27
1.0641302 -0.25851077 0.10133561 20 26
1.0982075 -0.12060644 0.074440353 11 25
1.0676541 -0.25957811 0.049611345 72 24
1.088026 -0.11988934 0.024603439 47 23
1.0711596 -0.26063594 0 11 22
1.1004294 -0.12142237 -0.024893576 55 21
1.0724138 -0.26114213 -0.049844261 80 20
1.1006281 -0.12164437 -0.074239522 17 19
1.0910509 -0.26611719 -0.097686768 59 18
1.0483063 -0.25850075 0.16342388 81 28
1.0777599 -0.12164954 0.12814403 13 27
1.0608064 -0.26162294 0.10109774 16 26
1.0978014 -0.12424757 0.074440353 11 25
1.0619407 -0.26191136 0.049378429 75 24
1.0950745 -0.124326 0.024777522 42 23
1.0654376 -0.26297867 0 12 22
1.0999988 -0.12526284 -0.024893576 56 21
1.0715419 -0.26469693 -0.049844261 81 20
1.1101333 -0.12640035 -0.074930124 11 19
1.0497925 -0.26276305 0.16381021 80 28
1.0822599 -0.12597358 0.12874991 12 27
1.0526478 -0.26349658 0.1003841 13 26
1.1072721 -0.12921333 0.075134434 12 25
1.0658625 -0.2668393 0.049611345 70 24
1.0921285 -0.12805328 0.024719493 35 23
1.0669367 -0.26730856 0 12 22
1.1020379 -0.12938777 -0.024951601 56 21
1.0705646 -0.26862258 -0.049844261 76 20
1.1072078 -0.12998933 -0.074757479 8 19
1.0488223 -0.26660895 0.16381021 77 28
1.0743972 -0.12906826 0.12784109 12 27
1.0637285 -0.27044326 0.10157349 14 26
1.1018378 -0.13268542 0.074787393 38 25
1.0648774 -0.27074412 0.049611345 14 24
1.0916749 -0.13186473 0.024719493 24 23
1.0611068 -0.26997468 0 12 22
1.1065198 -0.13401617 -0.025067655 55 21
1.0696205 -0.27235791 -0.049844261 79 20
1.1067238 -0.13404657 -0.074757479 8 19
1.0454949 -0.26964667 0.16342388 76 28
1.0764036 -0.1331168 0.12814403 11 27
1.053144 -0.27164885 0.10062198 18 26
1.0939406 -0.13562669 0.074266829 49 25
1.059092 -0.27320227 0.049378429 12 24
1.0812844 -0.13446316 0.024487386 13 23
1.0722549 -0.27682576 0 12 22
1.1010838 -0.13727041 -0.024951601 55 21
1.0686631 -0.27608991 -0.049844261 76 20
1.1112002 -0.1385151 -0.075102776 8 19
1.0493238 -0.27455473 0.16419657 74 28
1.0857822 -0.13810368 0.12935579 12 27
1.0498309 -0.27450523 0.1003841 28 26
1.0909861 -0.13913445 0.074093312 50 25
1.0533026 -0.27562341 0.049145512 12 24
1.085768 -0.13885975 0.024603439 20 23
1.0616134 -0.27801418 0 56 22
1.1006225 -0.14092097 -0.024951601 58 21
1.0652785 -0.27918065 -0.049727805 75 20
1.1032865 -0.14145789 -0.074584827 9 19
1.0460213 -0.27739483 0.16381021 71 28
1.0828568 -0.14138775 0.12905285 12 27
1.0560789 -0.28009668 0.10109774 38 26
1.0905187 -0.14275153 0.074093312 49 25
1.0547955 -0.27975982 0.049261972 12 24
1.0828229 -0.14213981 0.024545414 45 23
1.0606856 -0.28153309 0 77 22
1.1001239 -0.14476201 -0.024951601 55 21
1.064347 -0.28271171 -0.049727805 75 20
1.1052849 -0.14543569 -0.074757479 9 19
1.0426629 -0.2803981 0.16342388 71 28
1.0774362 -0.14451811 0.12844697 12 27
1.0550947 -0.28378141 0.10109774 49 26
1.0875413 -0.14623046 0.073919788 46 25
1.0610431 -0.28540054 0.049611345 12 24
1.0823201 -0.1459187 0.024545414 51 23
1.0596964 -0.28523383 0 81 22
1.0971344 -0.14827199 -0.024893576 55 21
1.0633537 -0.28642526 -0.049727805 70 20
1.0998259 -0.14863583 -0.074412182 11 19
1.0440096 -0.28487286 0.16381021 24 28
1.0818174 -0.14913282 0.12905285 13 27
1.0516479 -0.28698656 0.10085986 60 26
1.0944117 -0.15122317 0.074440353 38 25
1.0527666 -0.28730056 0.049261972 12 24
1.086731 -0.15055956 0.024661468 54 23
1.0586438 -0.28911591 0 80 22
1.1015362 -0.15296888 -0.02500963 41 21
1.0719272 -0.2929734 -0.050193641 12 20
1.0992737 -0.15266591 -0.074412182 11 19
1.0430088 -0.28851539 0.16381021 13 28
1.0665427 -0.15085655 0.1272352 13 27
1.0530878 -0.29114038 0.10109774 71 26
1.0938772 -0.15504245 0.074440353 29 25
1.0613793 -0.29365659 0.049727805 13 24
1.0787729 -0.15331371 0.024487386 62 23
1.0576283 -0.29280949 0 81 22
1.0911222 -0.15523469 -0.024777522 13 21
1.0612768 -0.29402706 -0.049727805 11 20
1.0888546 -0.15511721 -0.07372158 11 19
1.0444235 -0.29264385 0.16419657 12 28
1.0734069 -0.15544276 0.12814403 13 27
1.0496701 -0.29413819 0.10085986 77 26
1.0859504 -0.15761094 0.073919788 17 25
1.0555931 -0.29581723 0.049494889 13 24
1.0807053 -0.15743314 0.024545414 58 23
1.0518398 -0.29495537 0 76 22
1.0979954 -0.16010801 -0.024951601 11 21
1.0626467 -0.29840976 -0.049844261 11 20
1.1006776 -0.16049926 -0.074584827 12 19
1.0362202 -0.2944299 0.16303752 13 28
1.0654635 -0.15829869 0.1272352 24 27
1.0509775 -0.29866859 0.10109774 42 26
1.0853653 -0.16159008 0.073919788 12 25
1.0569025 -0.30037168 0.049611345 13 24
1.0826218 -0.1615679 0.024603439 59 23
1.0555582 -0.30018595 0 79 22
1.0875106 -0.16267429 -0.024719493 11 21
1.0519965 -0.29936388 -0.049378429 11 20
1.0951473 -0.1638054 -0.074239522 39 19
1.0375583 -0.29873347 0.16342388 13 28
1.0698129 -0.1627522 0.12784109 50 27
1.0451484 -0.30094844 0.10062198 13 26
1.087261 -0.16574809 0.074093312 12 25
1.058246 -0.304755 0.049727805 13 24
1.0795798 -0.16497399 0.024545414 60 23
1.0545039 -0.30386868 0 74 22
1.0918789 -0.16721517 -0.024835547 11 21
1.0557414 -0.30442765 -0.049611345 11 20
1.0921029 -0.16725512 -0.074066877 51 19
1.0341394 -0.30165684 0.16303752 14 28
1.0643326 -0.1657331 0.1272352 56 27
1.0536958 -0.30721822 0.10157349 12 26
1.0866759 -0.16954233 0.074093312 12 25
1.0595715 -0.30915135 0.049844261 13 24
1.0789974 -0.16874141 0.024545414 56 23
1.0558351 -0.30825317 0 70 22
1.0863782 -0.17007293 -0.024719493 11 21
1.0642551 -0.31093135 -0.050077178 11 20
1.0915123 -0.17106625 -0.074066877 59 19
1.0355009 -0.30578893 0.16342388 18 28
1.0662287 -0.16964601 0.12753814 60 27
1.0502316 -0.31018469 0.10133561 13 26
1.0959625 -0.17469348 0.074787393 34 25
1.0513599 -0.31052676 0.049494889 74 24
1.078432 -0.17231856 0.024545414 55 23
1.0524112 -0.31103939 0 72 22
1.0833093 -0.17347439 -0.024661468 11 21
1.0608248 -0.3137458 -0.049960721 12 20
1.090939 -0.1746849 -0.074066877 62 19
1.0249676 -0.30655101 0.1618785 22 28
1.0705307 -0.17415263 0.12814403 59 27
1.056291 -0.31600296 0.10204925 12 26
1.0830342 -0.17653939 0.073919788 51 25
1.0502695 -0.31419477 0.049494889 83 24
1.0728582 -0.17547432 0.02442936 53 23
1.0489255 -0.31398931 0 72 22
1.0900992 -0.17844969 -0.024835547 11 21
1.0692304 -0.32051903 -0.050426558 12 20
1.0903226 -0.17849192 -0.074066877 62 19
1.0332862 -0.31319094 0.16342388 24 28
1.0649874 -0.17727138 0.12753814 60 27
1.0479851 -0.31769195 0.10133561 13 26
1.0873016 -0.1813172 0.074266829 56 25
1.0514995 -0.31877142 0.049611345 80 24
1.0722392 -0.17921822 0.02442936 51 23
1.0501585 -0.31856227 0 63 22
1.0968356 -0.18366593 -0.02500963 11 21
1.0681051 -0.32424936 -0.050426558 12 20
1.0921217 -0.18289341 -0.074239522 59 19
1.0298269 -0.31606627 0.16303752 24 28
1.0619148 -0.18057735 0.1272352 60 27
1.0469258 -0.32116547 0.10133561 13 26
1.0817432 -0.18428484 0.073919788 62 25
1.0527661 -0.32317755 0.049727805 84 24
1.0863947 -0.18545048 0.024777522 32 23
1.0585934 -0.32518145 0 12 22
1.093756 -0.18688665 -0.024951601 11 21
1.0645812 -0.32723731 -0.050310094 12 20
1.0865582 -0.1858744 -0.073894225 55 19
1.0382024 -0.32242909 0.16458291 24 28
1.0662022 -0.1849349 0.12784109 56 27
1.0434232 -0.32407498 0.10109774 13 26
1.0835842 -0.18829249 0.074093312 60 25
1.0516887 -0.32666683 0.049727805 84 24
1.0808473 -0.18820556 0.024661468 12 23
1.0503516 -0.32644978 0 11 22
1.1004862 -0.19197579 -0.025125684 12 21
1.0634903 -0.33076578 -0.050310094 12 20
1.085936 -0.18947653 -0.073894225 58 19
1.0323611 -0.32455993 0.16381021 34 28
1.0655501 -0.18865551 0.12784109 55 27
1.0375407 -0.32621279 0.10062198 13 26
1.0780071 -0.19121362 0.073746271 62 25
1.050542 -0.33033594 0.049727805 83 24
1.0851072 -0.19284098 0.024777522 11 23
1.0492057 -0.33011422 0 11 22
1.0924246 -0.19451788 -0.024951601 13 21
1.0575682 -0.33296669 -0.050077178 72 20
1.0877243 -0.19369781 -0.074066877 54 19
1.0288126 -0.32758734 0.16342388 80 28
1.0599655 -0.19168758 0.1272352 51 27
1.0387077 -0.33077326 0.10085986 14 26
1.0772991 -0.19516343 0.073746271 62 25
1.0445681 -0.33265901 0.049494889 83 24
1.0868531 -0.19725767 0.024835547 11 23
1.0503693 -0.33472133 0 11 22
1.0843242 -0.19719531 -0.024777522 47 21
1.0587183 -0.33760405 -0.050193641 79 20
1.087007 -0.19768322 -0.074066877 54 19
1.0300121 -0.33193898 0.16381021 83 28
1.0617315 -0.19583097 0.12753814 47 27
1.042281 -0.33593345 0.10133561 13 26
1.0839716 -0.2002656 0.074266829 59 25
1.0434005 -0.33630317 0.049494889 83 24
1.0812409 -0.20015137 0.024719493 11 23
1.0468166 -0.33761364 0 11 22
1.0860877 -0.20142941 -0.024835547 60 21
1.0551584 -0.3405259 -0.050077178 80 20
1.0887635 -0.20192571 -0.074239522 53 19
1.0288472 -0.33553237 0.16381021 83 28
1.0708009 -0.20134825 0.12874991 39 27
1.0340677 -0.3370598 0.10062198 13 26
1.0783622 -0.20313577 0.073919788 59 25
1.0445929 -0.34072244 0.049611345 79 24
1.0805355 -0.20392439 0.024719493 11 23
1.0503819 -0.34282649 0 11 22
1.0903277 -0.20594686 -0.024951601 62 21
1.058708 -0.34576699 -0.050310094 81 20
1.0954069 -0.20709877 -0.074757479 38 19
1.0253849 -0.33816394 0.16342388 84 28
1.0603739 -0.20305336 0.12753814 49 27
1.0328848 -0.34066731 0.10062198 81 26
1.0801331 -0.20717497 0.074093312 56 25
1.0434573 -0.34418458 0.049611345 77 24
1.0822726 -0.20816152 0.024777522 11 23
1.0539842 -0.34788439 0 11 22
1.0846916 -0.20881748 -0.024835547 66 21
1.0574945 -0.34946042 -0.050310094 79 20
1.0922638 -0.21026407 -0.074584827 12 19
1.0264797 -0.34270686 0.16381021 80 28
1.0620592 -0.20740855 0.12784109 54 27
1.0363472 -0.34603661 0.10109774 87 26
1.081815 -0.21160574 0.074266829 55 25
1.0421888 -0.34800673 0.049611345 79 24
1.0717245 -0.21003738 0.024545414 11 23
1.0479629 -0.35015115 0 11 22
1.0863725 -0.2132677 -0.024893576 64 21
1.0539014 -0.35235316 -0.050193641 80 20
1.0988312 -0.21569109 -0.075102776 11 19
1.0229388 -0.34549269 0.16342388 81 28
1.0588938 -0.21063598 0.12753814 58 27
1.0351329 -0.34965205 0.10109774 87 26
1.0737289 -0.21393517 0.073746271 51 25
1.0480605 -0.35405439 0.049960721 45 24
1.0734367 -0.21426083 0.024603439 11 23
1.0514679 -0.35541758 0 12 22
1.0856215 -0.21705854 -0.024893576 64 21
1.0550292 -0.35683459 -0.050310094 79 20
1.0907314 -0.21807469 -0.074584827 11 19
1.0217266 -0.34906131 0.16342388 80 28
1.0557188 -0.21384381 0.1272352 62 27
1.0363212 -0.35389173 0.10133561 87 26
1.0827568 -0.21964344 0.074440353 26 25
1.0373724 -0.35446182 0.049494889 12 24
1.0800334 -0.21948344 0.024777522 12 23
1.0454929 -0.35745868 0 12 22
1.0848956 -0.22065739 -0.024893576 64 21
1.053777 -0.36051518 -0.050310094 79 20
1.0899636 -0.22188073 -0.074584827 11 19
1.0275624 -0.35488075 0.16458291 75 28
1.0598671 -0.21833387 0.12784109 63 27
1.0327289 -0.35668981 0.10109774 81 26
1.0795788 -0.22273426 0.074266829 12 25
1.0409088 -0.35953999 0.049727805 11 24
1.0719534 -0.22156247 0.024603439 12 23
1.0395793 -0.35928103 0 12 22
1.0841188 -0.22444305 -0.024893576 62 21
1.0525758 -0.36400762 -0.050310094 79 20
1.0941085 -0.22649439 -0.074930124 11 19
1.0286475 -0.35928467 0.16496925 74 28
1.0542388 -0.22102483 0.1272352 64 27
1.0314776 -0.36029252 0.10109774 85 26
1.0739111 -0.22548731 0.073919788 12 25
1.0467153 -0.36565605 0.050077178 11 24
1.0711342 -0.2254899 0.024603439 26 23
1.0430356 -0.3645668 0 74 22
1.0833288 -0.22822596 -0.024893576 62 21
1.0535901 -0.36869255 -0.050426558 77 20
1.0859865 -0.22878593 -0.074412182 11 19
1.0249965 -0.36222467 0.16458291 76 28
1.0534215 -0.22488733 0.1272352 63 27
1.0348396 -0.36573869 0.10157349 79 26
1.0657573 -0.22787395 0.073399231 12 25
1.0406623 -0.36781618 0.049844261 11 24
1.0630054 -0.22767369 0.02442936 51 23
1.0416924 -0.36838728 0 81 22
1.082485 -0.23219502 -0.024893576 62 21
1.0475917 -0.37069261 -0.050193641 79 20
1.0924597 -0.23431779 -0.074930124 11 19
1.0214018 -0.36496454 0.16419657 72 28
1.0502039 -0.22804207 0.12693226 64 27
1.0312791 -0.36832654 0.10133561 80 26
1.0673934 -0.23211725 0.073572747 12 25
1.0440719 -0.37313679 0.050077178 11 24
1.0695338 -0.23296227 0.024603439 60 23
1.0404001 -0.37202123 0 84 22
1.079266 -0.23525652 -0.024835547 59 21
1.0462914 -0.37434715 -0.050193641 24 20
1.0916351 -0.23812976 -0.074930124 11 19
1.0201858 -0.36834964 0.16419657 30 28
1.0567154 -0.23311064 0.12784109 56 27
1.0346651 -0.37362403 0.10181136 77 26
1.0714908 -0.23672071 0.073919788 12 25
1.0334402 -0.37318543 0.049611345 11 24
1.0687555 -0.23650768 0.024603439 64 23
1.0415102 -0.37632352 0 81 22
1.0906447 -0.24169949 -0.025125684 34 21
1.0520844 -0.3803758 -0.050543014 12 20
1.083531 -0.24014559 -0.074412182 11 19
1.0212123 -0.37276015 0.16458291 33 28
1.0486274 -0.23518522 0.12693226 59 27
1.0263466 -0.37465909 0.10109774 80 26
1.0803962 -0.24262373 0.074613869 12 25
1.0321313 -0.37679052 0.049611345 11 24
1.0630025 -0.23933628 0.024487386 66 23
1.0401903 -0.37995678 0 79 22
1.0800366 -0.24332935 -0.024893576 12 21
1.045996 -0.38250473 -0.050310094 21 20
1.0899889 -0.24555472 -0.074930124 12 19
1.0198393 -0.37650055 0.16458291 42 28
1.0477583 -0.23902705 0.12693226 58 27
1.0272993 -0.37928498 0.10133561 77 26
1.0722021 -0.24493201 0.074093312 12 25
1.0260614 -0.37883157 0.049378429 12 24
1.0694734 -0.24470147 0.024661468 62 23
1.041134 -0.38463771 0 77 22
1.0767001 -0.24673338 -0.024835547 11 21
1.0446544 -0.38615358 -0.050310094 37 20
1.0842172 -0.24844468 -0.074584827 21 19
1.0162065 -0.37918997 0.16419657 50 28
1.0517551 -0.24379268 0.12753814 49 27
1.0376184 -0.38724262 0.102525 13 26
1.0713406 -0.24867319 0.074093312 12 25
1.0294087 -0.3841666 0.049611345 12 24
1.066177 -0.24787259 0.024603439 63 23
1.0374448 -0.38739043 0 80 22
1.090445 -0.25385851 -0.025183709 11 21
1.050313 -0.39243376 -0.050659474 47 20
1.0784826 -0.25110742 -0.074239522 47 19
1.0194952 -0.38448745 0.16496925 63 28
1.0508976 -0.24746251 0.12753814 14 27
1.0316747 -0.38891634 0.10204925 11 26
1.0680373 -0.25184441 0.073919788 12 25
1.0303963 -0.38864353 0.049727805 12 24
1.0653052 -0.25159273 0.024603439 63 23
1.0384234 -0.39189675 0 80 22
1.08473 -0.25633425 -0.025067655 11 21
1.0442677 -0.394324 -0.050426558 58 20
1.0775996 -0.25487047 -0.074239522 53 19
1.0159082 -0.38698214 0.16458291 72 28
1.0573159 -0.25265998 0.12844697 12 27
1.0303109 -0.39251518 0.10204925 11 26
1.0647695 -0.25480974 0.073746271 12 25
1.043093 -0.39742064 0.050426558 12 24
1.0620334 -0.25454694 0.024545414 64 23
1.0394524 -0.39623329 0 81 22
1.0813972 -0.25954118 -0.02500963 11 21
1.0452858 -0.39867923 -0.050543014 70 20
1.0767484 -0.25844252 -0.074239522 62 19
1.0145512 -0.39052597 0.16458291 76 28
1.0467759 -0.25403023 0.1272352 11 27
1.0335757 -0.39790669 0.102525 11 26
1.0711477 -0.26027533 0.074266829 35 25
1.0347133 -0.39835376 0.050077178 80 24
1.0610933 -0.25843778 0.024545414 62 23
1.0357318 -0.39895594 0 79 22
1.0756254 -0.26214153 -0.024893576 11 21
1.0414894 -0.40160471 -0.050426558 77 20
1.0758398 -0.26219952 -0.074239522 59 19
1.017713 -0.3960427 0.16535559 75 28
1.0482486 -0.25845373 0.12753814 12 27
1.0344278 -0.40259951 0.10276287 9 26
1.0629188 -0.2624225 0.073746271 54 25
1.0378971 -0.40396425 0.050310094 79 24
1.0601847 -0.26214013 0.024545414 62 23
1.0342627 -0.40274942 0 81 22
1.0746574 -0.26608214 -0.024893576 11 21
1.0400811 -0.40523773 -0.050426558 84 20
1.0724494 -0.26554686 -0.074066877 58 19
1.020918 -0.40140969 0.16612828 67 28
1.04734 -0.26211119 0.12753814 12 27
1.030702 -0.40529254 0.102525 11 26
1.0668374 -0.26733279 0.074093312 63 25
1.0318362 -0.40574771 0.050077178 83 24
1.0568377 -0.26523629 0.024487386 56 23
1.0305259 -0.40543732 0 14 22
1.0785728 -0.27103937 -0.02500963 11 21
1.0409821 -0.40978509 -0.050543014 81 20
1.073936 -0.26989129 -0.074239522 60 19
1.0195106 -0.40497091 0.16612828 64 28
1.0488253 -0.26637089 0.12784109 12 27
1.0270412 -0.40778527 0.10228712 11 26
1.061061 -0.2698366 0.073746271 67 25
1.0280945 -0.40842044 0.049960721 84 24
1.065599 -0.27136937 0.024719493 32 23
1.0337472 -0.41088811 0 12 22
1.0776681 -0.27461454 -0.02500963 11 21
1.0395453 -0.41341633 -0.050543014 80 20
1.0754055 -0.27424935 -0.074412182 58 19
1.018162 -0.40834948 0.16612828 64 28
1.0479363 -0.26984748 0.12784109 12 27
1.0302272 -0.41322994 0.10276287 11 26
1.0674093 -0.27520552 0.074266829 66 25
1.0290505 -0.41276178 0.050077178 83 24
1.0622239 -0.27446753 0.024661468 12 23
1.0300605 -0.41337815 0 12 22
1.0742817 -0.27775434 -0.024951601 11 21
1.033465 -0.4151715 -0.050310094 81 20
1.0720739 -0.27719504 -0.074239522 58 19
1.0166585 -0.4120785 0.16612828 18 28
1.0493425 -0.27430868 0.12814403 12 27
1.0217924 -0.41418466 0.10204925 11 26
1.0615653 -0.27786371 0.073919788 66 25
1.0298432 -0.41747347 0.050193641 80 24
1.0612595 -0.27817369 0.024661468 12 23
1.0377979 -0.42092752 0 28 22
1.078094 -0.2829482 -0.025067655 29 21
1.038946 -0.4216072 -0.050659474 81 20
1.0710509 -0.28112248 -0.074239522 56 19
1.0083622 -0.4128035 0.16496925 9 28
1.0507787 -0.27860048 0.12844697 12 27
1.0272439 -0.42059141 0.10276287 12 26
1.0678247 -0.2834712 0.074440353 63 25
1.0283797 -0.42106569 0.050193641 83 24
1.0530314 -0.27996621 0.024487386 11 23
1.0293877 -0.42169073 0 39 22
1.06985 -0.28479695 -0.024893576 51 21
1.0351591 -0.42427954 -0.050543014 81 20
1.0676517 -0.28422326 -0.074066877 54 19
1.0675068 -0.28601184 0.20648764 74 29
1.013757 -0.41916603 0.16612828 8 28
1.0569935 -0.28418347 0.12935579 12 27
1.0212475 -0.42208529 0.10228712 12 26
1.0644189 -0.28655389 0.074266829 62 25
1.0269036 -0.42465284 0.050193641 81 24
1.0568769 -0.28493062 0.024603439 11 23
1.0302176 -0.4262417 0 51 22
1.0713142 -0.28898874 -0.024951601 56 21
1.0382829 -0.42980978 -0.050775934 79 20
1.0690621 -0.28859293 -0.074239522 53 19
1.0547003 -0.28636119 0.20411965 67 29
1.0032516 -0.41870162 0.16458291 8 28
1.0464623 -0.28509954 0.12814403 13 27
1.0243572 -0.42757386 0.10276287 62 26
1.0610554 -0.28943115 0.074093312 60 25
1.0277923 -0.42902234 0.050310094 79 24
1.0559262 -0.28843379 0.024603439 11 23
1.0287985 -0.4296557 0 68 22
1.0751233 -0.2940346 -0.025067655 55 21
1.0345496 -0.43228313 -0.050659474 80 20
1.0705063 -0.29278916 -0.074412182 53 19
1.0489578 -0.28874886 0.20317246 66 29
1.0086062 -0.42509282 0.16574195 9 28
1.052641 -0.29071629 0.12905285 42 27
1.018276 -0.42920458 0.10228712 80 26
1.0648491 -0.29445186 0.074440353 56 25
1.0262886 -0.43260744 0.050310094 80 24
1.0548619 -0.29230201 0.024603439 11 23
1.0272925 -0.43324426 0 76 22
1.0692706 -0.29646084 -0.024951601 53 21
1.0352571 -0.43704784 -0.050775934 79 20
1.067073 -0.29586309 -0.074239522 58 19
1.0502582 -0.2932463 0.20364605 64 29
1.0115827 -0.43073121 0.16651464 9 28
1.0420042 -0.29191646 0.12784109 59 27
1.0166959 -0.43293387 0.10228712 84 26
1.0613598 -0.29768455 0.074266829 55 25
1.0269917 -0.43734905 0.050426558 77 24
1.0538352 -0.29598239 0.024603439 11 23
1.0302936 -0.43897548 0 75 22
1.0681767 -0.30037794 -0.024951601 47 21
1.0337251 -0.4406589 -0.050775934 77 20
1.0707862 -0.30111182 -0.074584827 56 19
1.0468647 -0.2962476 0.20317246 66 29
1.0055386 -0.43229932 0.16574195 11 28
1.0433677 -0.2962243 0.12814403 64 27
1.0175391 -0.4372901 0.102525 81 26
1.0555134 -0.30003452 0.073919788 50 25
1.0323356 -0.44390428 0.050775934 13 24
1.0600117 -0.30169567 0.024777522 11 23
1.0310496 -0.4435617 0 74 22
1.0743908 -0.30595627 -0.025125684 38 21
1.0367644 -0.44624814 -0.05100885 77 20
1.0697286 -0.30484772 -0.074584827 58 19
1.0482378 -0.30038834 0.20364605 66 29
1.0086274 -0.43760678 0.16651464 12 28
1.039993 -0.29900235 0.12784109 66 27
1.0182875 -0.44183445 0.10276287 80 26
1.0569109 -0.30421758 0.074093312 26 25
1.0354358 -0.44932234 0.05100885 12 24
1.0662148 -0.3072696 0.024951601 12 23
1.0272818 -0.44597822 0 70 22
1.0733161 -0.30970472 -0.025125684 28 21
1.0307018 -0.447685 -0.050775934 77 20
1.0687119 -0.30839339 -0.074584827 58 19
1.0401063 -0.3020083 0.20222527 67 29
1.0116146 -0.44311598 0.16728732 12 28
1.0341748 -0.30125362 0.1272352 67 27
1.0144615 -0.44438317 0.102525 79 26
1.0654258 -0.31067649 0.074787393 12 25
1.0270047 -0.44991422 0.050659474 17 24
1.0578797 -0.30908856 0.024777522 12 23
1.0234311 -0.44855335 0 13 22
1.0674276 -0.31205732 -0.02500963 13 21
1.0313388 -0.45246741 -0.05089239 77 20
1.0628381 -0.3107329 -0.074239522 56 19
1.0413487 -0.30650619 0.20269886 67 29
1.0122404 -0.4478246 0.16767366 12 28
1.0330637 -0.305042 0.1272352 67 27
1.0196475 -0.45113268 0.10323863 77 26
1.0594933 -0.31317613 0.074440353 11 25
1.0276307 -0.45469031 0.050775934 34 24
1.0591924 -0.31348336 0.024835547 32 23
1.0194961 -0.45128495 0 11 22
1.0662767 -0.31596753 -0.02500963 11 21
1.0343159 -0.45809621 -0.051125307 76 20
1.0688705 -0.31673631 -0.074757479 56 19
1.0402724 -0.3101393 0.20269886 68 29
1.0039114 -0.44832012 0.16651464 11 28
1.0343717 -0.30935186 0.12753814 66 27
1.0157963 -0.45366979 0.10300075 77 26
1.0607843 -0.31758246 0.074613869 11 25
1.0260372 -0.45827463 0.050775934 45 24
1.0461135 -0.31361693 0.024545414 51 23
1.029317 -0.45996296 0 9 22
1.0723534 -0.3218272 -0.025183709 11 21
1.028155 -0.45965645 -0.05089239 74 20
1.0653679 -0.31975377 -0.074584827 56 19
1.036832 -0.31306449 0.20222527 68 29
1.0356623 -0.31367451 0.12784109 62 27
1.0097524 -0.45498201 0.102525 80 26
1.0620577 -0.32200176 0.074787393 11 25
1.0267059 -0.46288422 0.05089239 55 24
1.0474055 -0.31798735 0.024603439 55 23
1.0185976 -0.45942369 0 9 22
1.0617083 -0.32249695 -0.024951601 12 21
1.0288184 -0.4642742 -0.05100885 75 20
1.0618576 -0.3227506 -0.074412182 58 19
1.0381372 -0.31721297 0.20269886 67 29
1.0008365 -0.45514309 0.16651464 71 28
1.0369908 -0.31782901 0.12814403 58 27
1.0081581 -0.45850393 0.102525 77 26
1.0562123 -0.32406938 0.074440353 11 25
1.0206228 -0.46420962 0.050659474 68 24
1.0510705 -0.32309964 0.024719493 51 23
1.0216154 -0.46487877 0 9 22
1.0629665 -0.32693052 -0.02500963 45 21
1.0294622 -0.46890223 -0.051125307 71 20
1.0655524 -0.32772598 -0.074757479 58 19
1.0393143 -0.32173634 0.20317246 66 29
1.001404 -0.45984352 0.16690096 71 28
1.0334473 -0.3208971 0.12784109 55 27
1.0132493 -0.46532521 0.10323863 76 26
1.0550175 -0.32793844 0.074440353 11 25
1.0189146 -0.46794724 0.050659474 75 24
1.0499362 -0.32676661 0.024719493 47 23
1.017635 -0.46757179 0 9 22
1.0617611 -0.33082429 -0.02500963 56 21
1.0278192 -0.47249284 -0.051125307 72 20
1.0619612 -0.33089253 -0.074584827 58 19
1.0381849 -0.32536227 0.20317246 63 29
1.0065095 -0.4664655 0.16806002 74 28
1.0370588 -0.32598013 0.12844697 53 27
1.0116189 -0.46885929 0.10323863 76 26
1.0586276 -0.33310571 0.074787393 11 25
1.0172751 -0.47150108 0.050659474 76 24
1.0416328 -0.32819238 0.024545414 42 23
1.0182627 -0.47217736 0 9 22
1.0582147 -0.33378199 -0.024951601 64 21
1.028427 -0.47713315 -0.05124177 75 20
1.0607997 -0.33459744 -0.074584827 59 19
1.0393844 -0.32972112 0.20364605 63 29
1.0071105 -0.4710269 0.16844636 74 28
1.0359147 -0.32959816 0.12844697 47 27
1.0168155 -0.47538665 0.10395226 72 26
1.0598363 -0.33755058 0.07496091 11 25
1.0201428 -0.47717413 0.05089239 74 24
1.0500121 -0.33484259 0.024777522 30 23
1.0256573 -0.47998506 0 9 22
1.0547192 -0.3365348 -0.024893576 64 21
1.0267551 -0.4807201 -0.05124177 74 20
1.066758 -0.34055817 -0.075102776 56 19
1.0336071 -0.33167669 0.20269886 64 29
1.032452 -0.3322767 0.12814403 13 27
1.0106527 -0.47680056 0.10347651 74 26
1.0563357 -0.34030384 0.074787393 11 25
1.0185548 -0.48055443 0.05089239 71 24
1.0441355 -0.33679882 0.024661468 16 23
1.015025 -0.47909743 0 9 22
1.0606782 -0.34250277 -0.025067655 63 21
1.0409478 -0.49161771 -0.052056976 76 20
1.0632478 -0.34333262 -0.074930124 56 19
1.032443 -0.33528265 0.20269886 67 29
1.0265633 -0.33435228 0.12753814 11 27
1.0112273 -0.48139969 0.10371439 72 26
1.0575142 -0.34475678 0.07496091 11 25
1.0168712 -0.48410696 0.05089239 71 24
1.0500265 -0.3429355 0.024835547 12 23
1.0223664 -0.48695534 0 9 22
1.0618538 -0.34697425 -0.025125684 62 21
1.0620428 -0.34704196 -0.074930124 56 19
1.0358745 -0.34058726 0.20364605 60 29
1.0418403 -0.34351513 0.12965873 9 27
1.0116968 -0.48618504 0.10395226 71 26
1.0586135 -0.34940693 0.075134434 29 25
1.01509 -0.4878307 0.05089239 72 24
1.0416986 -0.34426185 0.024661468 11 23
1.0115708 -0.48634848 0 9 22
1.0605749 -0.35086378 -0.025125684 59 21
1.0583941 -0.35015407 -0.074757479 55 19
1.0346793 -0.34420109 0.20364605 58 29
1.0359232 -0.34558967 0.12905285 9 27
1.0502855 -0.35074586 0.074613869 45 25
1.013381 -0.49137107 0.05089239 72 24
1.0499789 -0.35104492 0.024893576 11 23
1.0188557 -0.4942587 0 67 22
1.0569717 -0.35377565 -0.025067655 58 21
1.0595323 -0.35463282 -0.074930124 58 19
1.0334716 -0.34781066 0.20364605 51 29
1.0347106 -0.34920362 0.12905285 9 27
1.0490546 -0.35440987 0.074613869 42 25
1.0139008 -0.4960072 0.05100885 72 24
1.0440085 -0.35311684 0.024777522 16 23
1.0171242 -0.49781215 0 71 22
1.0534236 -0.35648283 -0.02500963 59 21
1.0559239 -0.35753447 -0.074757479 55 19
1.0276611 -0.34966511 0.20269886 53 29
1.0429486 -0.35581708 0.13026461 9 27
1.0502357 -0.35868758 0.074787393 35 25
1.0428318 -0.35657695 0.024777522 45 23
1.0132282 -0.50007153 0 75 22
1.0521729 -0.36015779 -0.02500963 56 21
1.0570937 -0.36183655 -0.074930124 54 19
1.0287572 -0.35404369 0.20317246 50 29
1.0323098 -0.35623851 0.12905285 9 27
1.0489773 -0.36235139 0.074787393 25 25
1.0415179 -0.36039674 0.024777522 51 23
1.0181837 -0.50696117 0 75 22
1.0509093 -0.36382836 -0.02500963 54 21
1.058183 -0.36633506 -0.075102776 54 19
1.0181726 -0.35460383 0.20127808 37 29
1.0356865 -0.3616454 0.12965873 9 27
1.0452859 -0.36537591 0.074613869 13 25
1.0402535 -0.36403009 0.024777522 55 23
1.0163187 -0.51068956 0 56 22
1.0542899 -0.36931998 -0.025125684 30 21
1.0709667 -0.37512735 -0.076138675 56 19
1.0261974 -0.36139622 0.20317246 13 29
1.0250506 -0.36197442 0.12844697 11 27
1.0463574 -0.3698484 0.074787393 12 25
1.0389764 -0.36765903 0.024777522 56 23
1.0483438 -0.37115619 -0.02500963 11 21
1.0249934 -0.3647972 0.20317246 9 29
1.03554 -0.36951551 0.12996167 11 27
1.0474757 -0.37414986 0.07496091 11 25
1.0377514 -0.37110236 0.024777522 56 23
1.0541065 -0.37732479 -0.025183709 9 21
1.0237137 -0.36837286 0.20317246 7 29
1.0342439 -0.37312794 0.12996167 11 27
1.0438157 -0.37696207 0.074787393 11 25
1.0387366 -0.3757484 0.024835547 55 23
1.052783 -0.38100204 -0.025183709 8 21
1.026974 -0.37379116 0.20411965 7 29
1.0328695 -0.37691614 0.12996167 39 27
1.0447714 -0.38163581 0.07496091 11 25
1.0374186 -0.379372 0.024835547 53 23
1.0513796 -0.3848581 -0.025183709 8 21
1.0279685 -0.37821606 0.20459324 7 29
1.0268872 -0.37881193 0.12935579 50 27
1.0504575 -0.3878566 0.075481474 11 25
1.0360881 -0.38299099 0.024835547 53 23
1.0547898 -0.39006612 -0.025299765 9 21
1.0267086 -0.38162282 0.20459324 7 29
1.0256252 -0.38221514 0.12935579 51 27
1.0444882 -0.38960496 0.075134434 24 25
1.0371557 -0.38729379 0.024893576 53 23
1.0557646 -0.39461556 -0.025357792 9 21
1.0230705 -0.3843464 0.20411965 7 29
1.0219605 -0.3849234 0.12905285 51 27
1.0407863 -0.39237389 0.07496091 45 25
1.0357292 -0.39109257 0.024893576 51 23
1.0450209 -0.39478591 -0.025125684 9 21
1.0239516 -0.38895997 0.20459324 7 29
1.022864 -0.38954452 0.12935579 50 27
1.037009 -0.39530277 0.074787393 49 25
1.0320207 -0.39381966 0.024835547 47 23
1.0505772 -0.40127361 -0.025299765 9 21
1.020294 -0.39165741 0.20411965 8 29
1.021498 -0.3931126 0.12935579 49 27
1.0379519 -0.39981148 0.07496091 50 25
1.0353075 -0.3992078 0.024951601 22 23
1.0468364 -0.4040435 -0.025241738 9 21
1.0257924 -0.39786395 0.20554042 9 29
1.0178046 -0.3957817 0.12905285 47 27
1.0412023 -0.40523106 0.07530795 50 25
1.031577 -0.40191704 0.024893576 11 23
1.0454906 -0.40751266 -0.025241738 9 21
1.0290428 -0.40304363 0.20648764 18 29
1.0257342 -0.40276206 0.13026461 45 27
1.0352066 -0.40686727 0.07496091 51 25
1.0302385 -0.40533566 0.024893576 9 23
1.0533719 -0.41480258 -0.025473846 32 21
1.0230604 -0.40483701 0.20554042 42 29
1.0266309 -0.40725002 0.13056755 42 27
1.0360998 -0.41139361 0.075134434 51 25
1.0403682 -0.41370115 0.025183709 9 23
1.040296 -0.4138827 -0.025183709 50 21
1.0238512 -0.40949053 0.20601404 47 29
1.0274366 -0.41192839 0.13087049 37 27
1.0345851 -0.41518837 0.075134434 50 25
1.0389178 -0.41733021 0.025183709 9 23
1.043414 -0.41954759 -0.025299765 53 21
1.0201373 -0.41214746 0.20554042 49 29
1.0167837 -0.4118067 0.12965873 29 27
1.0354428 -0.41972902 0.07530795 49 25
1.0281827 -0.41721562 0.024951601 9 23
1.0419432 -0.42318726 -0.025299765 53 21
1.0210401 -0.41645008 0.20601404 49 29
1.0223099 -0.41797832 0.13056755 41 27
1.0340453 -0.42316037 0.07530795 49 25
1.0360531 -0.42439216 0.025183709 9 23
1.0382195 -0.42569694 -0.025241738 53 21
1.021852 -0.42094153 0.20648764 47 29
1.0208447 -0.42154431 0.13056755 46 27
1.030255 -0.42581972 0.075134434 49 25
1.0275564 -0.42533424 0.02500963 9 23
1.0413495 -0.43122083 -0.025357792 53 21
1.0134971 -0.4218694 0.20506684 50 29
1.014708 -0.42338216 0.12996167 49 27
1.0355977 -0.43246099 0.075654998 37 25
1.0283735 -0.42987734 0.025067655 9 23
1.0397621 -0.43503466 -0.025357792 53 21
1.0210787 -0.429189 0.20696121 47 29
1.0155129 -0.42787999 0.13026461 49 27
1.0317817 -0.43510923 0.075481474 12 25
1.0291715 -0.43443137 0.025125684 11 23
1.0360093 -0.43751296 -0.025299765 51 21
1.015126 -0.43066546 0.20601404 50 29
1.0118028 -0.43027923 0.12996167 50 27
1.0303332 -0.43852833 0.075481474 9 25
1.0346297 -0.44076553 0.025299765 12 23
1.0367769 -0.44210199 -0.025357792 51 21
1.0181336 -0.43612927 0.20696121 49 29
1.0125769 -0.43478242 0.13026461 49 27
1.0287962 -0.44212219 0.075481474 8 25
1.0330073 -0.44455469 0.025299765 39 23
1.0352273 -0.44571832 -0.025357792 51 21
1.0210385 -0.44179758 0.20790841 47 29
1.0155343 -0.4404555 0.13087049 50 27
1.0340385 -0.44885421 0.076002039 8 25
1.0268601 -0.44617575 0.025183709 49 23
1.0358808 -0.45050141 -0.025415819 49 21
1.0104835 -0.44144839 0.20601404 49 29
1.0185415 -0.44597831 0.13147637 49 27
1.0256062 -0.44947273 0.075481474 8 25
1.0230055 -0.44875851 0.025125684 51 23
1.0388833 -0.45611417 -0.025531873 29 21
1.0134327 -0.44694391 0.20696121 49 29
1.0169785 -0.44953099 0.13147637 49 27
1.0331626 -0.45706618 0.076175556 8 25
1.0237203 -0.45333368 0.025183709 51 23
1.0419396 -0.46157151 -0.025647927 11 21
1.0119451 -0.45030212 0.20696121 47 29
1.0154822 -0.45290095 0.13147637 49 27
1.0270821 -0.45846656 0.075828515 8 25
1.0222113 -0.45672598 0.025183709 50 23
1.0403221 -0.46520579 -0.025647927 8 21
1.010367 -0.45383173 0.20696121 47 29
1.009365 -0.45441547 0.13087049 49 27
1.0277516 -0.46306852 0.076002039 8 25
1.0228109 -0.46149242 0.025241738 49 23
1.0364115 -0.46781099 -0.0255899 8 21
1.0154103 -0.46055883 0.20838203 46 29
1.0122154 -0.46015593 0.13147637 47 27
1.0283197 -0.46786016 0.076175556 8 25
1.0211937 -0.46505991 0.025241738 50 23
1.0369667 -0.47263819 -0.025647927 8 21
1.010603 -0.46368638 0.13147637 49 27
1.028949 -0.47248262 0.07634908 9 25
1.0218375 -0.46966058 0.025299765 50 23
1.0308475 -0.4739958 -0.025531873 8 21
1.0068054 -0.46599784 0.13117343 47 27
1.0296417 -0.47693551 0.076522596 20 25
1.0202744 -0.47304654 0.025299765 49 23
1.0405335 -0.48282707 -0.025822006 8 21
1.0096742 -0.47159985 0.13177931 49 27
1.0257092 -0.4794755 0.07634908 42 25
1.0162678 -0.47572812 0.025241738 49 23
1.036576 -0.48540118 -0.025763981 8 21
1.0146794 -0.47845772 0.13268815 47 27
1.0194294 -0.48111269 0.076002039 47 25
1.0168632 -0.4803353 0.025299765 50 23
1.0325283 -0.48813376 -0.025705952 8 21
1.0177438 -0.4846682 0.076002039 47 25
1.0151805 -0.48388189 0.025299765 50 23
1.030818 -0.49173498 -0.025705952 9 21
1.018296 -0.48929307 0.076175556 47 25
1.0112302 -0.48634419 0.025241738 50 23
1.0313497 -0.49640936 -0.025763981 11 21
1.0162793 -0.4931297 0.025415819 50 23
1.03645 -0.50308651 -0.02593806 35 21
1.0168859 -0.49759078 0.025473846 50 23
1.023453 -0.50122911 -0.025647927 47 21
1.0262717 -0.50682402 0.025763981 49 23
1.0216972 -0.50479859 -0.025647927 54 21
1.0243182 -0.5107609 -0.025763981 56 21
1.0293248 -0.51750857 -0.02593806 51 21
1.1030143 -0.066796318 0.10228712 8 26
