# .PCD v0.7 - Point Cloud Data file format
VERSION 0.7
FIELDS x y z intensity ring
SIZE 4 4 4 4 2
TYPE F F F F U
COUNT 1 1 1 1 1
WIDTH 1369
HEIGHT 1
VIEWPOINT 0 0 0 1 0 0 0
POINTS 1369
DATA ascii
-2.2451663 -2.2244587 0.83400685 43 31
-2.1059296 -1.5897355 0.60254502 48 30
-2.2343352 -2.2098808 0.59957188 43 29
-2.0893359 -1.5783527 0.40411672 45 28
-2.2321808 -2.203928 0.37867621 43 27
-2.1029658 -1.5886158 0.2485815 46 26
-2.240417 -2.2105362 0.21655375 44 25
-2.0982058 -1.5850188 0.12100044 45 24
-2.2406056 -2.2091868 0.072243594 43 23
-2.0967414 -1.5833402 0 46 22
-2.2413764 -2.2084045 -0.072243594 44 21
-2.1027477 -1.5872921 -0.12123336 48 20
-2.2384634 -2.2055211 -0.21512198 45 19
-2.0975029 -1.5816252 -0.23270464 48 18
-2.3018606 -2.2680748 -0.36590514 3 17
-2.1063824 -1.5871643 -0.36158979 46 16
-0.3139616 -0.30656013 -0.070420437 4 15
-2.1089735 -1.5845578 -0.74492532 46 13
-0.29529008 -0.28819734 -0.086509421 4 14
-1.7214551 -1.2911391 -0.73222917 23 12
-0.40166062 -0.39495295 -0.21371023 3 11
nan nan nan 0 9
-0.35229874 -0.34663776 -0.21576236 20 10
-0.31029463 -0.23281743 -0.21337813 44 8
nan nan nan 0 7
-0.19801866 -0.14883742 -0.16206475 6 6
nan nan nan 0 5
nan nan nan 0 4
nan nan nan 0 3
nan nan nan 0 2
nan nan nan 0 1
nan nan nan 0 0
-2.2408743 -2.2047398 0.82949519 43 31
-2.0997646 -1.5736208 0.59916317 46 30
-2.2262859 -2.1865749 0.5953095 43 29
-2.0869236 -1.5651289 0.40257135 46 28
-2.2310076 -2.1874292 0.3771615 44 27
-2.0942783 -1.5711907 0.24691637 46 26
-2.2356594 -2.1904747 0.21533909 44 25
-2.0957291 -1.5716983 0.12053461 46 24
-2.2375965 -2.1908526 0.071895428 43 23
-2.1002541 -1.5745136 0 46 22
-2.2397635 -2.1922116 -0.071953461 44 21
-2.0942783 -1.5694709 -0.12041815 46 20
-2.2318978 -2.1837292 -0.21374078 44 19
-2.094759 -1.5686975 -0.23181048 45 18
-2.2494481 -2.2009192 -0.35623866 4 17
-2.1017151 -1.5727608 -0.35986957 45 16
-0.32909724 -0.31925747 -0.073855579 4 15
-2.1067805 -1.5714449 -0.74217397 46 13
-0.30320141 -0.29404387 -0.088741921 4 14
-1.7240549 -1.2837132 -0.73141193 23 12
-0.41122064 -0.40175402 -0.21839686 3 11
nan nan nan 0 9
-0.35833681 -0.35017577 -0.21895096 18 10
-0.31106499 -0.23178717 -0.21337813 43 8
nan nan nan 0 7
-0.2081473 -0.15521964 -0.1711525 6 6
nan nan nan 0 5
nan nan nan 0 4
nan nan nan 0 3
nan nan nan 0 2
nan nan nan 0 1
nan nan nan 0 0
-2.2343643 -2.1837792 0.82433909 43 31
-2.0971508 -1.5608391 0.59690851 46 30
-2.2247465 -2.1706021 0.59294152 44 29
-2.0841737 -1.5523051 0.40102598 46 28
-2.229367 -2.1713545 0.37564677 44 27
-2.0897646 -1.5564466 0.24572697 46 26
-2.2357678 -2.1760855 0.21464501 44 25
-2.0909095 -1.5572902 0.11995232 46 24
-2.2323174 -2.1712124 0.071489245 43 23
-2.0914183 -1.5571012 0 46 22
-2.2384477 -2.1756632 -0.07166332 44 21
-2.0934575 -1.5580494 -0.12006877 46 20
-2.2284045 -2.1658778 -0.21270488 43 19
-2.0942237 -1.5569242 -0.23113987 48 18
-2.231818 -2.1691921 -0.35225832 6 17
-2.0992362 -1.559515 -0.35849339 46 16
-0.32838997 -0.31644583 -0.07342618 4 15
-2.10425 -1.5587339 -0.73942262 45 13
-0.30946177 -0.29808599 -0.090416297 4 14
-1.7283024 -1.277989 -0.73141193 21 12
-0.40268353 -0.39058858 -0.21277291 3 11
nan nan nan 0 9
-0.35949603 -0.34898558 -0.21895096 16 10
-0.31187215 -0.23069996 -0.21337813 41 8
nan nan nan 0 7
-0.21351817 -0.15799513 -0.17569637 6 6
nan nan nan 0 5
nan nan nan 0 4
nan nan nan 0 3
nan nan nan 0 2
nan nan nan 0 1
nan nan nan 0 0
-2.2263856 -2.1608131 0.81853843 44 31
-2.0908253 -1.544835 0.5935266 46 30
-2.2199786 -2.1508567 0.58962637 43 29
-2.0796428 -1.5376866 0.39909425 46 28
-2.2226741 -2.1497459 0.37322325 44 27
-2.0871754 -1.543231 0.24477547 46 26
-2.2343907 -2.1595945 0.21377741 44 25
-2.0862861 -1.542567 0.11937003 46 24
-2.2273083 -2.1512425 0.071083054 43 23
-2.0887938 -1.5438545 0 46 22
-2.229856 -2.1522021 -0.071141079 43 21
-2.0888345 -1.5433211 -0.11948649 46 20
-2.2251923 -2.1476853 -0.21166897 44 19
-2.0876176 -1.5407429 -0.22979863 46 18
-2.2054465 -2.1285884 -0.34685647 7 17
-2.0927024 -1.5433695 -0.35642913 46 16
-0.34011337 -0.32557192 -0.076002546 4 15
-2.0980525 -1.5428458 -0.73529559 45 13
-0.30699798 -0.29361463 -0.089300044 4 14
-1.7289406 -1.2691561 -0.72977746 17 12
-0.40404445 -0.38918054 -0.21277291 3 11
nan nan nan 0 9
-0.35909116 -0.34614962 -0.21788809 16 10
-0.32133785 -0.23588727 -0.21984413 39 8
nan nan nan 0 7
-0.21406838 -0.15724885 -0.17569637 6 6
nan nan nan 0 5
nan nan nan 0 4
nan nan nan 0 3
nan nan nan 0 2
nan nan nan 0 1
nan nan nan 0 0
-2.2269635 -2.146318 0.81596035 44 31
-2.0903096 -1.5332108 0.59183568 46 30
-2.2186348 -2.1345775 0.5872584 43 29
-2.0790205 -1.5260384 0.39793521 48 28
-2.2176459 -2.1299317 0.37110269 44 27
-2.0885344 -1.532994 0.24429969 48 26
-2.2275319 -2.137955 0.21238925 44 25
-2.0836003 -1.5293714 0.1189042 46 24
-2.2243617 -2.1326776 0.070734888 44 23
-2.0840857 -1.5291678 0 48 22
-2.2283399 -2.1357512 -0.070850946 44 21
-2.0864158 -1.5297549 -0.11902064 48 20
-2.2200813 -2.1278145 -0.21046042 45 19
-2.0849435 -1.5275669 -0.22890447 46 18
-2.2186096 -2.1256502 -0.34770939 7 17
-2.0900803 -1.530211 -0.35505295 46 16
-0.33597517 -0.31920552 -0.074714363 4 15
-2.0939794 -1.5280699 -0.73185641 46 13
-0.32559198 -0.30942649 -0.094881296 4 14
-1.7335807 -1.2628106 -0.72977746 16 12
-0.40380043 -0.3860876 -0.21183558 3 11
nan nan nan 0 9
-0.35873085 -0.34325814 -0.21682522 16 10
-0.31525207 -0.22971147 -0.21467134 38 8
nan nan nan 0 7
-0.22111699 -0.16108766 -0.18175486 6 6
nan nan nan 0 5
nan nan nan 0 4
nan nan nan 0 3
nan nan nan 0 2
nan nan nan 0 1
nan nan nan 0 0
-2.2226071 -2.1264424 0.81144869 44 31
-2.0860627 -1.5183809 0.58901739 48 30
-2.2193484 -2.1196439 0.58536398 44 29
-2.0746112 -1.5111456 0.39600348 46 28
-2.2128744 -2.109792 0.36898208 44 27
-2.0820622 -1.516548 0.24287245 48 26
-2.2209189 -2.1160023 0.21100108 43 25
-2.0811124 -1.5158499 0.11843836 48 24
-2.2173226 -2.1111014 0.070270672 44 23
-2.0876544 -1.520049 0 48 22
-2.2216783 -2.113776 -0.07038673 45 21
-2.0836618 -1.5165912 -0.11855481 46 20
-2.2134211 -2.1058989 -0.20907922 44 19
-2.086498 -1.5169898 -0.22845738 46 18
-2.22242 -2.1144657 -0.34714079 10 17
-2.0856519 -1.5152715 -0.35333273 46 16
-0.35847542 -0.33842683 -0.07986708 4 15
-2.0895624 -1.5137098 -0.72841728 46 13
-0.32319736 -0.30486691 -0.09376505 4 14
-1.7398943 -1.2581341 -0.73059469 16 12
-0.40681902 -0.38627931 -0.21277291 3 11
nan nan nan 0 9
-0.36319107 -0.34513849 -0.21895096 16 10
-0.32301757 -0.23358181 -0.21984413 39 8
-0.16230196 -0.15335467 -0.12751248 7 7
-0.22330041 -0.16146532 -0.18326949 6 6
nan nan nan 0 5
nan nan nan 0 4
nan nan nan 0 3
nan nan nan 0 2
nan nan nan 0 1
nan nan nan 0 0
-2.2177675 -2.1070149 0.80693704 44 31
-2.0814729 -1.5039661 0.5861991 48 30
-2.2142761 -2.1000497 0.58204883 43 29
-2.0718622 -1.4981128 0.39445812 48 28
-2.2058201 -2.0883942 0.36655855 44 27
-2.0850623 -1.5081787 0.24263456 48 26
-2.2174299 -2.0979438 0.20995995 43 25
-2.0782912 -1.5027304 0.11797252 48 24
-2.2137899 -2.0930378 0.069922514 44 23
-2.0868652 -1.5083643 0 46 22
-2.2196002 -2.0978057 -0.070096597 44 21
-2.0808411 -1.5034655 -0.11808898 49 20
-2.2117014 -2.0895886 -0.20821597 45 19
-2.087477 -1.5071509 -0.22801031 48 18
-2.2189629 -2.096452 -0.34543493 11 17
-2.0826275 -1.5025586 -0.35195655 46 16
-0.35071328 -0.32870629 -0.077720113 4 15
-2.0889757 -1.5022019 -0.7263537 46 13
-0.3401261 -0.31887943 -0.098788179 4 14
-1.7442753 -1.2520531 -0.73059469 15 12
-0.40641907 -0.38333011 -0.21183558 3 11
nan nan nan 0 9
-0.35948089 -0.33918378 -0.21576236 15 10
-0.31855386 -0.22879757 -0.21596454 35 8
-0.16880457 -0.15852861 -0.13311744 7 7
-0.22708714 -0.16301408 -0.18629874 6 6
nan nan nan 0 5
nan nan nan 0 4
nan nan nan 0 3
nan nan nan 0 2
nan nan nan 0 1
nan nan nan 0 0
-2.2194765 -2.094671 0.80500352 44 31
-2.0805082 -1.4928011 0.58450818 48 30
-2.2069452 -2.0792172 0.57826006 43 29
-2.0687885 -1.4854784 0.39291275 48 28
-2.2037017 -2.0725601 0.36504388 45 27
-2.0822229 -1.4950922 0.24168307 48 26
-2.2116632 -2.0786126 0.20874532 44 25
-2.0731144 -1.4885561 0.11739023 48 24
-2.2043347 -2.0702724 0.069400273 44 23
-2.0816944 -1.4941556 0 48 22
-2.2141621 -2.0780621 -0.069690406 44 21
-2.0797246 -1.4921948 -0.1177396 46 20
-2.2058983 -2.0702853 -0.20700742 45 19
-2.0846245 -1.4940599 -0.22711615 46 18
-2.2168541 -2.0805759 -0.34401336 13 17
-2.0798023 -1.4895195 -0.35058036 46 16
-0.3607707 -0.33597898 -0.07986708 4 15
-2.0822024 -1.4868962 -0.72222674 48 13
nan nan nan 0 14
-1.7503432 -1.2476312 -0.73141193 15 12
-0.41785994 -0.39146188 -0.21745953 3 11
nan nan nan 0 9
-0.36224645 -0.33954599 -0.21682522 13 10
-0.32110038 -0.22891538 -0.21725774 34 8
-0.17681348 -0.16511996 -0.14012362 6 7
-0.23417577 -0.16677798 -0.19235723 6 6
nan nan nan 0 5
nan nan nan 0 4
nan nan nan 0 3
nan nan nan 0 2
nan nan nan 0 1
nan nan nan 0 0
-2.214447 -2.0753384 0.80049193 44 31
-2.0797513 -1.4812958 0.5828172 48 30
-2.2052336 -2.0631084 0.57589209 43 29
-2.0638981 -1.4710886 0.39098099 48 28
-2.1964252 -2.0512927 0.36262032 44 27
-2.0813458 -1.4834868 0.24096943 48 26
-2.2043304 -2.057255 0.20735715 44 25
-2.0721931 -1.4769677 0.11704086 48 24
-2.2042422 -2.0557408 0.069168165 44 23
-2.0807855 -1.4825332 0 48 22
-2.2067864 -2.0566769 -0.06922619 45 21
-2.0788145 -1.480585 -0.11739023 48 20
-2.2058189 -2.0557652 -0.20631683 45 19
-2.0776463 -1.4781239 -0.22577491 46 18
-2.209578 -2.0592661 -0.34173891 23 17
-2.0769112 -1.4765185 -0.34920421 48 16
-0.34394383 -0.31790531 -0.075573154 3 15
-2.0795317 -1.474066 -0.71947539 46 13
nan nan nan 0 14
-1.7527573 -1.2401512 -0.73059469 16 12
-0.40908527 -0.38048348 -0.21183558 3 11
-0.42135009 -0.29828179 -0.25561002 3 9
-0.36013314 -0.33517855 -0.21469949 12 10
-0.32189751 -0.22779313 -0.21725774 33 8
-0.19240691 -0.17875342 -0.15413599 6 7
-0.24129336 -0.17049432 -0.19841573 6 6
nan nan nan 0 5
nan nan nan 0 4
nan nan nan 0 3
nan nan nan 0 2
nan nan nan 0 1
nan nan nan 0 0
-2.2075429 -2.0544195 0.79533577 43 31
-2.0749588 -1.4670055 0.57999891 48 30
-2.1998429 -2.0436926 0.57257694 44 29
-2.0649855 -1.4610255 0.3902083 48 28
-2.1944814 -2.0351689 0.36110562 45 27
-2.0743141 -1.4675986 0.23954217 48 26
-2.200531 -2.0393674 0.20631602 44 25
-2.0712161 -1.4654033 0.11669148 49 24
-2.2059073 -2.0429347 0.068994083 44 23
-2.0798209 -1.4709356 0 46 22
-2.2029548 -2.0387664 -0.068878032 45 21
-2.0758083 -1.4675601 -0.1169244 46 20
-2.2001781 -2.0361841 -0.20510828 45 19
-2.0766876 -1.4665588 -0.2251043 46 18
-2.2094667 -2.0447862 -0.34060168 33 17
-2.0719306 -1.46213 -0.34748396 48 16
nan nan nan 0 15
-2.0787635 -1.462654 -0.71741188 48 13
nan nan nan 0 14
-1.7590106 -1.2353812 -0.73141193 15 12
-0.41549683 -0.38379416 -0.21464756 3 11
-0.40788931 -0.2867206 -0.24622981 3 9
-0.3629545 -0.33546412 -0.21576236 12 10
-0.3209323 -0.2254492 -0.21596454 30 8
-0.20056358 -0.18518029 -0.16114216 6 7
-0.25335413 -0.17754687 -0.2090181 7 6
nan nan nan 0 5
nan nan nan 0 4
nan nan nan 0 3
nan nan nan 0 2
nan nan nan 0 1
nan nan nan 0 0
-2.2061934 -2.0381119 0.79211313 43 31
-2.0783267 -1.4579935 0.57943529 48 30
-2.1946964 -2.0239565 0.56926173 44 29
-2.0662808 -1.4506123 0.38943562 48 28
-2.1964526 -2.0220652 0.36019677 44 27
-2.073565 -1.4557016 0.23882854 48 26
-2.2006547 -2.0245285 0.20562194 45 25
-2.0704377 -1.4535028 0.1163421 48 24
-2.1986718 -2.0212917 0.068529867 44 23
-2.0749598 -1.4561313 0 46 22
-2.1975381 -2.018832 -0.068471842 45 21
-2.0729907 -1.4542125 -0.11645856 48 20
-2.1966145 -2.0179739 -0.20407237 45 19
-2.0718467 -1.4518019 -0.2239866 48 18
-2.2041523 -2.0249019 -0.33861151 40 17
-2.0752461 -1.4531077 -0.34713995 48 16
nan nan nan 0 15
-2.0742505 -1.4481546 -0.71397275 48 13
nan nan nan 0 14
-1.7615867 -1.2275771 -0.73059469 13 12
-0.41179749 -0.3775464 -0.21183558 3 11
-0.43074185 -0.30027676 -0.2603001 3 9
-0.36252236 -0.33259296 -0.21469949 12 10
-0.32351929 -0.22548388 -0.21725774 33 8
-0.22543249 -0.20707405 -0.18356194 6 7
-0.25236091 -0.17549512 -0.20750348 7 6
nan nan nan 0 5
nan nan nan 0 4
nan nan nan 0 3
nan nan nan 0 2
nan nan nan 0 1
nan nan nan 0 0
-2.1990654 -2.0173233 0.78695703 44 31
-2.0754037 -1.4451697 0.57718068 48 30
-2.1872764 -2.0030084 0.56547296 44 29
-2.063221 -1.4377494 0.38789025 48 28
-2.1906862 -2.0026546 0.35807621 44 27
-2.0702095 -1.4431319 0.23787704 48 26
-2.2003486 -2.0101001 0.20492786 45 25
-2.0672984 -1.4405631 0.11587626 49 24
-2.1946473 -2.0034852 0.068181708 44 23
-2.0656614 -1.4388894 0 48 22
-2.2005312 -2.0081608 -0.068355784 45 21
-2.0698516 -1.4412667 -0.11599273 48 20
-2.1907575 -1.9985174 -0.20286383 44 19
-2.0705142 -1.4406624 -0.22331598 48 18
-2.2002056 -2.0071425 -0.33690566 43 17
-2.0739503 -1.4419824 -0.34610781 48 16
-2.1939332 -2.0027909 -0.51183635 10 15
-2.0713861 -1.4354364 -0.7112214 48 13
nan nan nan 0 14
-1.7716949 -1.2254465 -0.73304641 13 12
-0.41134095 -0.3746103 -0.21089825 3 11
-0.42809293 -0.29634991 -0.25795507 3 9
nan nan nan 0 10
-0.33133259 -0.22923625 -0.22243053 32 8
-0.23070464 -0.21051319 -0.18776564 6 7
-0.26281744 -0.1813564 -0.21659121 9 6
nan nan nan 0 5
nan nan nan 0 4
nan nan nan 0 3
nan nan nan 0 2
nan nan nan 0 1
nan nan nan 0 0
-2.189687 -1.9953637 0.78115636 44 31
-2.072166 -1.4327458 0.57492608 48 30
-2.1848342 -1.9874774 0.56310499 44 29
-2.0618804 -1.4266889 0.38673121 48 28
-2.1844649 -1.98369 0.35595563 44 27
-2.0690911 -1.431654 0.23716338 48 26
-2.1959293 -1.992727 0.20388675 44 25
-2.0679543 -1.4308615 0.11564334 49 24
-2.1920288 -1.9877942 0.067891568 44 23
-2.0663071 -1.4291909 0 48 22
-2.1927226 -1.9870288 -0.067891568 44 21
-2.0684538 -1.4301394 -0.11564334 49 20
-2.1844456 -1.9795074 -0.20165527 43 19
-2.0632298 -1.4249468 -0.22197473 49 18
-2.1976538 -1.9914886 -0.33548415 45 17
-2.0708139 -1.4291155 -0.34473163 48 16
-2.1896243 -1.9855688 -0.50926 12 15
-2.0721719 -1.425838 -0.70984566 48 13
-2.1917651 -1.9881864 -0.66975033 10 14
-1.7757488 -1.2195647 -0.73304641 13 12
-0.40237564 -0.36379728 -0.20527431 3 11
-0.42547369 -0.29236975 -0.25561002 3 9
nan nan nan 0 10
-0.32858866 -0.2256774 -0.21984413 33 8
-0.23292305 -0.21115105 -0.18916689 6 7
-0.26179901 -0.17932713 -0.2150766 10 6
nan nan nan 0 5
nan nan nan 0 4
nan nan nan 0 3
nan nan nan 0 2
nan nan nan 0 1
nan nan nan 0 0
-2.1894798 -1.9812192 0.77857828 44 31
-2.0691168 -1.4199982 0.57267141 48 30
-2.1844778 -1.9732509 0.56121063 45 29
-2.0566616 -1.4125003 0.38479948 49 28
-2.1784852 -1.964409 0.35383502 43 27
-2.0699708 -1.4216086 0.23668765 48 26
-2.1899126 -1.9733523 0.20267209 44 25
-2.0605776 -1.4151624 0.1149446 49 24
-2.1841068 -1.9667385 0.067427352 44 23
-2.0630341 -1.416317 0 48 22
-2.1903629 -1.9709959 -0.067601435 44 21
-2.0631316 -1.4158542 -0.11506106 48 20
-2.1765218 -1.9585118 -0.20027407 41 19
-2.0640812 -1.4149241 -0.22152767 48 18
-2.1953673 -1.9754905 -0.33406258 45 17
-2.0676134 -1.416288 -0.34335545 48 16
-2.1800826 -1.9630674 -0.50539541 21 15
-2.0731647 -1.4158888 -0.70847005 49 13
-2.1896453 -1.9723611 -0.6669597 16 14
-1.7760876 -1.2107012 -0.73141193 16 12
-0.39849147 -0.35772097 -0.20246232 3 11
-0.42832148 -0.29211843 -0.25678253 3 9
nan nan nan 0 10
-0.33292487 -0.22691755 -0.22243053 33 8
-0.24434385 -0.2201279 -0.19897553 6 7
-0.26903838 -0.1828322 -0.22113508 10 6
nan nan nan 0 5
nan nan nan 0 4
nan nan nan 0 3
nan nan nan 0 2
nan nan nan 0 1
nan nan nan 0 0
-2.1820195 -1.9606367 0.77342212 45 31
-2.0660038 -1.4072896 0.57041681 48 30
-2.1803968 -1.9557699 0.5583691 44 29
-2.053411 -1.399755 0.38325411 48 28
-2.1779394 -1.9501648 0.35262325 43 27
-2.0605171 -1.4045751 0.23502252 49 26
-2.1856441 -1.9557087 0.20163098 43 25
-2.0593107 -1.4037467 0.11459523 49 24
-2.1801286 -1.9487169 0.067079194 44 23
-2.0576293 -1.4020773 0 48 22
-2.1841936 -1.9516702 -0.067195244 43 21
-2.0600452 -1.4026684 -0.11459523 49 20
-2.1684778 -1.9375958 -0.19889288 41 19
-2.0628281 -1.4035139 -0.22085705 48 18
-2.1933384 -1.9591501 -0.33264104 44 17
-2.0643487 -1.4035006 -0.3419793 49 16
-2.1817584 -1.9501355 -0.50410724 33 15
-2.0683854 -1.4015483 -0.70503086 48 13
-2.1801825 -1.9500701 -0.66193658 28 14
-1.7824718 -1.2055051 -0.73222917 15 12
-0.40669143 -0.36245883 -0.20621163 3 11
-0.43117273 -0.29185078 -0.25795507 3 9
nan nan nan 0 10
-0.33197474 -0.22450805 -0.22113733 33 8
-0.24668059 -0.22062397 -0.20037676 6 7
-0.27302226 -0.18404277 -0.22416434 10 6
nan nan nan 0 5
nan nan nan 0 4
nan nan nan 0 3
nan nan nan 0 2
nan nan nan 0 1
nan nan nan 0 0
-2.1801848 -1.9445792 0.77019954 45 31
-2.0590324 -1.3915358 0.5670349 48 30
-2.1747267 -1.9363277 0.55505389 44 29
-2.0482914 -1.3853099 0.38132238 48 28
-2.1683919 -1.9273179 0.34989682 43 27
-2.0553379 -1.3900517 0.23383312 49 26
-2.1816185 -1.9377381 0.20058984 43 25
-2.0540924 -1.3892038 0.11401293 49 24
-2.1719749 -1.9278097 0.066614978 41 23
-2.0565374 -1.3903314 0 49 22
-2.1819899 -1.9353515 -0.066905111 44 21
-2.058718 -1.3912795 -0.11424585 50 20
-2.1699717 -1.9246657 -0.19837493 41 19
-2.0535033 -1.3862046 -0.21929227 48 18
-2.1853092 -1.9382843 -0.33036658 43 17
-2.0612624 -1.3903934 -0.34060311 48 16
-2.18119 -1.9359621 -0.50238967 41 15
-2.0632865 -1.3876222 -0.70159167 48 13
-2.1800315 -1.9355885 -0.65970409 39 14
-1.7847058 -1.197961 -0.73141193 12 12
-0.41659561 -0.36875787 -0.21089825 3 11
-0.43407819 -0.29149103 -0.25912759 3 9
nan nan nan 0 10
-0.33632389 -0.22571093 -0.22372375 34 8
-0.24283993 -0.21559821 -0.19617307 6 7
-0.27698627 -0.1852749 -0.22719359 11 6
nan nan nan 0 5
nan nan nan 0 4
nan nan nan 0 3
nan nan nan 0 2
nan nan nan 0 1
nan nan nan 0 0
-2.1815388 -1.9321477 0.76826596 45 31
-2.0578055 -1.3802752 0.56534392 48 30
-2.1741221 -1.9222145 0.55315948 44 29
-2.0469587 -1.3740275 0.38016334 49 28
-2.1639512 -1.9098748 0.34807914 41 27
-2.0558014 -1.3804572 0.23335735 49 26
-2.1696789 -1.9135988 0.19885464 41 25
-2.0506301 -1.3764652 0.1135471 50 24
-2.169323 -1.9119455 0.066324838 43 23
-2.0551465 -1.378971 0 49 22
-2.1734042 -1.9148746 -0.066440895 41 21
-2.0511105 -1.3757493 -0.1135471 50 20
-2.1654553 -1.9071792 -0.19733901 43 19
-2.0518799 -1.3752341 -0.21862166 49 18
-2.1771615 -1.9174987 -0.3280921 41 17
-2.0617447 -1.3807982 -0.33991504 48 16
-2.1694717 -1.9120363 -0.49809575 40 15
-2.0641172 -1.3777463 -0.700216 48 13
-2.1773069 -1.9202811 -0.65691346 43 14
-1.7908442 -1.1930317 -0.73222917 12 12
-0.41434935 -0.36429751 -0.20902361 3 11
-0.43504238 -0.29004997 -0.25912759 4 9
nan nan nan 0 10
-0.32813233 -0.21871641 -0.21725774 34 8
-0.24667355 -0.21751404 -0.19897553 4 7
-0.27093822 -0.18000485 -0.22113508 12 6
nan nan nan 0 5
-0.15982257 -0.1066046 -0.15029436 29 4
nan nan nan 0 3
nan nan nan 0 2
nan nan nan 0 1
nan nan nan 0 0
-2.1770608 -1.9153204 0.76439881 45 31
-2.0603428 -1.3720953 0.56478029 49 30
-2.1620543 -1.8987802 0.54842359 43 29
-2.0473907 -1.364496 0.37939066 50 28
-2.1553559 -1.8895884 0.34565562 41 27
-2.0585356 -1.3718945 0.2331195 51 26
-2.16664 -1.8981681 0.19798703 43 25
-2.0551834 -1.3696575 0.1135471 50 24
-2.1624975 -1.8932059 0.065918654 44 23
-2.0555444 -1.3693798 0 50 22
-2.1650379 -1.8940982 -0.065976679 41 21
-2.0556614 -1.36894 -0.1135471 51 20
-2.1605139 -1.8901252 -0.19630313 43 19
-2.0566678 -1.3680633 -0.21862166 50 18
-2.1704321 -1.8988092 -0.32610193 40 17
-2.0624251 -1.3708552 -0.33922693 48 16
-2.1665421 -1.8967123 -0.49594882 41 15
-2.0606558 -1.3655906 -0.69746464 48 13
-2.165678 -1.8965986 -0.65133226 43 14
-1.7928185 -1.1857852 -0.73141193 12 12
-0.41387972 -0.36131656 -0.20808628 3 11
-0.43974611 -0.29094958 -0.26147261 3 9
nan nan nan 0 10
-0.33247727 -0.21990837 -0.21984413 34 8
-0.24121016 -0.21118568 -0.1933706 4 7
-0.27991003 -0.18446703 -0.22870821 15 6
nan nan nan 0 5
-0.17235936 -0.11385629 -0.16411453 35 4
nan nan nan 0 3
nan nan nan 0 2
nan nan nan 0 1
nan nan nan 0 0
-2.1673739 -1.8933927 0.75859815 45 31
-2.0590205 -1.3608718 0.56308931 49 30
-2.1668203 -1.8896067 0.54794997 45 29
-2.0438955 -1.351898 0.37784526 49 28
-2.1581981 -1.8787911 0.34504974 41 27
-2.0487733 -1.3551031 0.23145434 50 26
-2.1657317 -1.8840393 0.19729295 43 25
-2.0474472 -1.3542205 0.11284834 50 24
-2.1634386 -1.8807217 0.065744571 41 23
-2.0457053 -1.3525577 0 50 22
-2.1640947 -1.8799664 -0.065744571 43 21
-2.0479198 -1.3535057 -0.11284834 50 20
-2.1614544 -1.8776606 -0.19578518 41 19
-2.0489552 -1.3526561 -0.2172804 49 18
-2.1714261 -1.88633 -0.32524902 41 17
-2.0547886 -1.3554778 -0.3371627 49 16
-2.1694353 -1.8859032 -0.49509001 41 15
-2.0553634 -1.3517948 -0.69402552 48 13
-2.1667724 -1.8842252 -0.64965785 43 14
-1.8028765 -1.183403 -0.73386359 18 12
-0.4203707 -0.36444852 -0.21089825 3 11
-0.45186585 -0.29663393 -0.26850775 4 9
nan nan nan 0 10
-0.32965127 -0.21642029 -0.21725774 35 8
-0.24969904 -0.21720186 -0.20037676 4 7
-0.27720663 -0.18133691 -0.22567897 16 6
nan nan nan 0 5
-0.16665933 -0.10937009 -0.15720445 33 4
nan nan nan 0 3
nan nan nan 0 2
nan nan nan 0 1
nan nan nan 0 0
-2.1666768 -1.8794781 0.75602007 43 31
-2.0494936 -1.3443381 0.55914378 49 30
-2.15486 -1.8659465 0.54321396 41 29
-2.0362058 -1.3366339 0.37552717 49 28
-2.1534872 -1.8614995 0.3432321 41 27
-2.0472457 -1.343852 0.23074071 50 26
-2.1590936 -1.8650448 0.19607832 43 25
-2.0438061 -1.3415912 0.11238251 51 24
-2.1646447 -1.8678765 0.065570496 41 23
-2.0462313 -1.3426694 0 50 22
-2.1630795 -1.8658648 -0.065512463 41 21
-2.046598 -1.3418883 -0.11249897 51 20
-2.1585596 -1.8619511 -0.19492193 41 19
-2.0453284 -1.3400449 -0.21638624 49 18
-2.168927 -1.8702406 -0.32382748 43 17
-2.0512156 -1.3428792 -0.33578652 49 16
-2.1614265 -1.8650547 -0.49165487 41 15
-2.0562758 -1.3416293 -0.69264984 49 13
-2.1622782 -1.8670846 -0.64630908 41 14
-1.8012578 -1.1729258 -0.73141193 18 12
-0.419954 -0.36138549 -0.20996094 3 11
-0.43620059 -0.28428134 -0.25795507 3 9
nan nan nan 0 10
-0.3358424 -0.2186801 -0.22113733 33 8
-0.24427083 -0.21082044 -0.19477183 4 7
-0.27619269 -0.17924985 -0.22416434 18 6
nan nan nan 0 5
-0.17622501 -0.11455074 -0.16756958 34 4
nan nan nan 0 3
nan nan nan 0 2
nan nan nan 0 1
nan nan nan 0 0
-2.1625764 -1.8620583 0.75215304 43 31
-2.0441935 -1.3301846 0.5563255 49 30
-2.1542437 -1.8516291 0.54131961 44 29
-2.034878 -1.325124 0.37436816 50 28
-2.1527677 -1.8471236 0.34202033 41 27
-2.0438111 -1.330915 0.22978921 51 26
-2.1564553 -1.8489938 0.19521071 43 25
-2.040334 -1.328648 0.11191668 50 24
-2.1578758 -1.8489144 0.065164298 41 23
-2.0448492 -1.3310746 0 50 22
-2.1566238 -1.8465337 -0.065106273 43 21
-2.042892 -1.3292956 -0.11203314 50 20
-2.152118 -1.8426609 -0.19371337 41 19
-2.0439594 -1.3284742 -0.21571563 50 18
-2.1641304 -1.8529563 -0.32212162 43 17
-2.0457342 -1.3286178 -0.3340663 50 16
-2.1548417 -1.8462701 -0.48864913 43 15
-2.0468154 -1.3253121 -0.68783498 49 13
-2.1635604 -1.8543847 -0.64463472 41 14
-1.8053412 -1.1666311 -0.73141193 18 12
-0.41945791 -0.35840356 -0.20902361 4 11
-0.45025748 -0.29101238 -0.26616272 3 9
nan nan nan 0 10
-0.33299553 -0.21520606 -0.21855094 33 8
-0.25280732 -0.21677026 -0.20177801 4 7
-0.27849713 -0.17934863 -0.22567897 23 6
nan nan nan 0 5
-0.17662379 -0.1139349 -0.16756958 34 4
nan nan nan 0 3
nan nan nan 0 2
nan nan nan 0 1
nan nan nan 0 0
-2.1543865 -1.8419274 0.74699688 41 31
-2.0447295 -1.320402 0.55519819 49 30
-2.1476338 -1.8329319 0.53800446 40 29
-2.0291126 -1.3113192 0.37243643 50 28
-2.1516519 -1.8331538 0.34080857 40 27
-2.0400786 -1.3183771 0.2288377 51 26
-2.1553063 -1.8349816 0.19451663 43 25
-2.0365646 -1.3161036 0.11145084 51 24
-2.1529033 -1.8316436 0.06481614 41 23
-2.0473819 -1.322574 0 50 22
-2.1592507 -1.8357536 -0.064990222 43 21
-2.0391231 -1.3167455 -0.1115673 50 20
-2.1490433 -1.8270521 -0.19285013 41 19
-2.0443969 -1.3186358 -0.21526857 50 18
-2.155458 -1.8325071 -0.31984717 41 17
-2.0441115 -1.3174502 -0.33303416 49 16
-2.1519012 -1.8307496 -0.48650217 41 15
-2.0473826 -1.3155645 -0.6864593 48 13
-2.1588936 -1.8373349 -0.64128596 40 14
-1.8094025 -1.1603222 -0.73141193 18 12
-0.42070642 -0.35693717 -0.20902361 3 11
-0.44195136 -0.28352019 -0.2603001 4 9
nan nan nan 0 10
-0.33012858 -0.21175456 -0.21596454 30 8
-0.25356242 -0.21588647 -0.20177801 4 7
-0.27743736 -0.17731731 -0.22416434 23 6
nan nan nan 0 5
-0.18008913 -0.11522704 -0.17102461 37 4
nan nan nan 0 3
nan nan nan 0 2
nan nan nan 0 1
nan nan nan 0 0
-2.1531236 -1.8285123 0.7444188 44 31
-2.036787 -1.3057388 0.55181628 49 30
-2.1480875 -1.8210331 0.53658366 45 29
-2.0272098 -1.3005878 0.37127739 50 28
-2.1501477 -1.8195896 0.33959681 41 27
-2.0381517 -1.307579 0.22812408 51 26
-2.1537676 -1.821376 0.19382255 43 25
-2.0346084 -1.3053031 0.11110147 51 24
-2.1497447 -1.8160447 0.064526007 41 23
-2.0475452 -1.3130821 0 50 22
-2.1576939 -1.8221262 -0.064758115 41 21
-2.0394993 -1.3069286 -0.11133438 50 20
-2.1398575 -1.8070292 -0.19146892 40 19
-2.0466602 -1.3105084 -0.21504502 49 18
-2.1561515 -1.8201603 -0.31899422 41 17
-2.0380342 -1.3040011 -0.33131394 50 16
-2.1488786 -1.815272 -0.48435518 43 15
-2.0418231 -1.301958 -0.68302011 49 13
-2.1500974 -1.8175665 -0.63682097 40 14
-1.8134418 -1.1539991 -0.73141193 18 12
-0.42018434 -0.35396498 -0.20808628 3 11
-0.44662464 -0.28440821 -0.26264516 4 9
nan nan nan 0 10
-0.32724166 -0.20832577 -0.21337813 27 8
-0.26216385 -0.22174922 -0.20878419 4 7
-0.28143027 -0.17845222 -0.22719359 26 6
nan nan nan 0 5
-0.18664096 -0.11839499 -0.17793471 38 4
nan nan nan 0 3
nan nan nan 0 2
nan nan nan 0 1
nan nan nan 0 0
-2.1487381 -1.8112578 0.74055165 44 31
-2.037446 -1.2956545 0.55068898 49 30
-2.143486 -1.8036547 0.53374207 44 29
-2.0277929 -1.2905005 0.37050474 51 28
-2.1416121 -1.7989146 0.33717328 40 27
-2.0408294 -1.2987658 0.2278862 51 26
-2.1527936 -1.8070493 0.19312847 41 25
-2.0309467 -1.2924818 0.11063564 52 24
-2.1465032 -1.8004901 0.064235874 41 23
-2.0417912 -1.298869 0 50 22
-2.1490457 -1.801348 -0.064293899 41 21
-2.0377233 -1.2957871 -0.11098501 51 20
-2.1407361 -1.7943627 -0.19095096 41 19
-2.0451403 -1.298999 -0.21437441 49 18
-2.1529813 -1.8046368 -0.31757268 44 17
-2.0386159 -1.2938725 -0.33062586 49 16
-2.1476595 -1.8014221 -0.48263761 43 15
-2.0443232 -1.2935396 -0.68233234 50 13
-2.1474178 -1.8018339 -0.63403034 40 14
-1.8154598 -1.1464026 -0.73059469 20 12
-0.42495877 -0.35548678 -0.20996094 3 11
-0.44579202 -0.28159863 -0.26147261 3 9
nan nan nan 0 10
-0.32978284 -0.20831345 -0.21467134 24 8
-0.26766002 -0.22486575 -0.2129879 4 7
-0.27866849 -0.17537612 -0.22416434 27 6
nan nan nan 0 5
-0.1885941 -0.11868671 -0.17966223 41 4
nan nan nan 0 3
nan nan nan 0 2
nan nan nan 0 1
nan nan nan 0 0
-2.147644 -1.7975384 0.73797357 44 31
-2.0357735 -1.2846409 0.548998 50 30
-2.1403573 -1.7882838 0.5313741 41 29
-2.0260165 -1.2794634 0.36934566 51 28
-2.1345479 -1.78029 0.3350527 41 27
-2.0411398 -1.28898 0.22741044 51 26
-2.1495163 -1.7915316 0.19226086 41 25
-2.0312204 -1.2827216 0.11040271 52 24
-2.1393416 -1.7817782 0.063829683 43 23
-2.0378518 -1.2864035 0 50 22
-2.1457224 -1.7858329 -0.064003766 41 21
-2.038008 -1.2860048 -0.1107521 51 20
-2.1354935 -1.7772963 -0.18991508 41 19
-2.0433393 -1.2878748 -0.21370378 50 18
-2.1516371 -1.7907484 -0.31643546 41 17
-2.0347342 -1.2814778 -0.32924968 50 16
-2.1444795 -1.7860254 -0.48049065 43 15
-2.0406797 -1.2812912 -0.67958099 49 13
-2.1443398 -1.7865193 -0.63123971 41 14
-1.8254609 -1.1438156 -0.73304641 22 12
-0.42264521 -0.35102299 -0.20808628 3 11
-0.44864836 -0.28120494 -0.26264516 3 9
-0.40605506 -0.33777821 -0.2317054 3 10
-0.33050799 -0.20716104 -0.21467134 21 8
-0.27476034 -0.22928539 -0.21859284 6 7
-0.28097412 -0.17544273 -0.22567897 27 6
nan nan nan 0 5
-0.19209576 -0.11990479 -0.18311726 35 4
nan nan nan 0 3
nan nan nan 0 2
nan nan nan 0 1
nan nan nan 0 0
-2.1409113 -1.7792121 0.73346198 44 31
-2.0340486 -1.2736549 0.54730707 49 30
-2.1409228 -1.7760947 0.5299533 41 29
-2.0262821 -1.2697645 0.36857301 51 28
-2.1331098 -1.7664902 0.33384094 41 27
-2.0390735 -1.2782447 0.2266968 51 26
-2.1423171 -1.7728754 0.19104622 41 25
-2.0293336 -1.2716513 0.11005334 52 24
-2.1359251 -1.7663273 0.06353955 43 23
-2.0338502 -1.2739817 0 51 22
-2.1400831 -1.7691427 -0.0636556 41 21
-2.0340128 -1.2735894 -0.11028625 52 20
-2.1301575 -1.7602887 -0.18887916 41 19
-2.0412626 -1.2771355 -0.21303317 51 18
-2.1483083 -1.7753074 -0.31501392 43 17
-2.0326698 -1.2707913 -0.32821757 51 16
-2.1393213 -1.7691016 -0.4779143 43 15
-2.0349336 -1.2678148 -0.6761418 50 13
-2.1389959 -1.7700667 -0.62789094 41 14
-1.8294424 -1.1374367 -0.73304641 26 12
-0.43093035 -0.35555238 -0.21183558 3 11
-0.44581842 -0.27739978 -0.2603001 3 9
-0.41070658 -0.3392581 -0.23383114 3 10
-0.33301681 -0.20718274 -0.21596454 17 8
-0.2739751 -0.22699159 -0.21719161 6 7
-0.28325292 -0.17554478 -0.22719359 24 6
nan nan nan 0 5
-0.19558708 -0.12113399 -0.1865723 34 4
nan nan nan 0 3
nan nan nan 0 2
nan nan nan 0 1
nan nan nan 0 0
-2.1374922 -1.7644058 0.73023939 41 31
-2.0341213 -1.264335 0.54617971 49 30
-2.1335497 -1.7580464 0.52663815 41 29
-2.0241857 -1.2591301 0.36741397 50 28
-2.1274655 -1.7499381 0.33202329 41 27
-2.0371799 -1.2671818 0.22598319 51 26
-2.1385581 -1.7578347 0.19017862 43 25
-2.0314176 -1.2635976 0.10993688 52 24
-2.1301911 -1.749706 0.063191384 43 23
-2.0359392 -1.2659121 0 50 22
-2.1385233 -1.7553121 -0.063423492 43 21
-2.0339806 -1.2642049 -0.11005334 51 20
-2.1282775 -1.7468791 -0.18818857 43 19
-2.0330076 -1.2621341 -0.21169192 50 18
-2.1465099 -1.7618635 -0.31387669 43 17
-2.0307772 -1.259778 -0.32718542 51 16
-2.1356676 -1.7541732 -0.47576734 43 15
-2.0309451 -1.2560107 -0.67339045 51 13
-2.1395171 -1.7579432 -0.62621653 43 14
-1.8291804 -1.1288862 -0.73141193 29 12
-0.42859679 -0.35109201 -0.20996094 4 11
-0.45055205 -0.27814463 -0.26264516 4 9
-0.42402521 -0.34800151 -0.24127121 3 10
-0.34835854 -0.21491897 -0.22631015 17 8
-0.28107968 -0.23139402 -0.22279654 6 7
-0.27365088 -0.1683819 -0.21810584 26 6
nan nan nan 0 5
-0.2006606 -0.12323463 -0.19175488 37 4
nan nan nan 0 3
nan nan nan 0 2
nan nan nan 0 1
nan nan nan 0 0
-2.1399045 -1.753868 0.72895032 43 31
-2.034374 -1.2546738 0.54505247 50 30
-2.126384 -1.7396954 0.523323 41 29
-2.0222595 -1.2481706 0.36625493 51 28
-2.1239576 -1.7346439 0.33050859 43 27
-2.0309961 -1.2535374 0.22479379 51 26
-2.1330965 -1.7408872 0.18913749 43 25
-2.0315635 -1.2538798 0.10970397 52 24
-2.1288466 -1.7355627 0.062959276 43 23
-2.0339594 -1.2548654 0 51 22
-2.1349576 -1.7399331 -0.063133359 43 21
-2.0300925 -1.2515072 -0.10958751 50 20
-2.122771 -1.7299755 -0.18715268 43 19
-2.0310376 -1.2511181 -0.2110213 50 18
-2.1433318 -1.7461318 -0.31245512 43 17
-2.0330524 -1.2513856 -0.32684138 50 16
-2.1344526 -1.7401022 -0.47404978 43 15
-2.0293851 -1.2447942 -0.67132699 51 13
-2.1343195 -1.7412113 -0.62286782 41 14
-1.8353221 -1.1234057 -0.73222917 29 12
-0.42988071 -0.34951878 -0.20996094 4 11
-0.44396812 -0.27199107 -0.25795507 3 9
-0.42529786 -0.34644502 -0.24127121 3 10
-0.35097554 -0.21474651 -0.22760335 15 8
-0.28192592 -0.23036228 -0.22279654 7 7
-0.27938402 -0.17044559 -0.22264971 29 6
nan nan nan 0 5
-0.20888101 -0.12711003 -0.20039248 37 4
nan nan nan 0 3
nan nan nan 0 2
nan nan nan 0 1
nan nan nan 0 0
-2.1332114 -1.7353311 0.72443873 43 31
-2.030643 -1.2421331 0.54279786 49 30
-2.121321 -1.7225953 0.52048141 41 29
-2.0226052 -1.238175 0.36548224 51 28
-2.1168168 -1.7158968 0.32838801 41 27
-2.0270817 -1.2408954 0.22384228 51 26
-2.1317167 -1.7267711 0.18844341 41 25
-2.0233586 -1.238614 0.10900521 51 24
-2.1232445 -1.7186759 0.062611118 43 23
-2.0300102 -1.2421905 0 50 22
-2.1316116 -1.7242289 -0.062843226 43 21
-2.0259225 -1.2392088 -0.10912167 50 20
-2.1213465 -1.7159028 -0.18646207 44 19
-2.0292313 -1.239777 -0.21035069 51 18
-2.135906 -1.7276933 -0.31046498 43 17
-2.031281 -1.2400607 -0.32580924 51 16
-2.130949 -1.7248846 -0.47190279 43 15
-2.0316632 -1.2364551 -0.6706391 50 13
-2.1312246 -1.7257006 -0.62007719 43 14
-1.8412532 -1.1182169 -0.73304641 29 12
-0.42930159 -0.34655187 -0.20902361 4 11
-0.45063868 -0.27377558 -0.26147261 4 9
-0.42650455 -0.34495836 -0.24127121 3 10
nan nan nan 0 8
-0.28592387 -0.23201007 -0.22559904 7 7
-0.27655828 -0.16743605 -0.21962045 32 6
nan nan nan 0 5
-0.21243787 -0.12821396 -0.20384751 40 4
nan nan nan 0 3
nan nan nan 0 2
nan nan nan 0 1
nan nan nan 0 0
-2.1317451 -1.7217964 0.72186065 41 31
-2.0307999 -1.2325138 0.5416705 49 30
-2.1215923 -1.7105527 0.51906067 41 29
-2.0205779 -1.2272666 0.36432317 50 28
-2.1131341 -1.700709 0.3268733 43 27
-2.0269294 -1.231586 0.22336651 51 26
-2.1260791 -1.7099311 0.18740229 43 25
-2.0233986 -1.228955 0.1087723 54 24
-2.1253371 -1.7081188 0.06249506 44 23
-2.0257814 -1.2299154 0 52 22
-2.1275826 -1.7093152 -0.062553085 44 21
-2.0259638 -1.2295423 -0.10888875 52 20
-2.1234369 -1.7053603 -0.18611677 44 19
-2.0248103 -1.2278843 -0.20945653 52 18
-2.1322479 -1.7124418 -0.30904344 43 17
-2.0290251 -1.2294739 -0.3247771 51 16
-2.1292839 -1.7112573 -0.47018522 44 15
-2.0297909 -1.2256345 -0.66857558 51 13
-2.12555 -1.7094501 -0.61672848 43 14
-1.8633701 -1.1227376 -0.74040133 34 12
-0.42504427 -0.34075168 -0.20621163 4 11
-0.45344004 -0.2734113 -0.26264516 4 9
-0.42770609 -0.34346747 -0.24127121 3 10
nan nan nan 0 8
-0.29314154 -0.23625489 -0.23120397 7 7
-0.27197343 -0.16348514 -0.2150766 29 6
nan nan nan 0 5
-0.21910292 -0.13115574 -0.21075761 41 4
nan nan nan 0 3
nan nan nan 0 2
nan nan nan 0 1
nan nan nan 0 0
-2.1242638 -1.704125 0.71734905 41 31
-2.0265257 -1.2207534 0.5394159 49 30
-2.1157649 -1.6942906 0.51621908 43 29
-2.0140543 -1.2141932 0.3623915 51 28
-2.1129515 -1.6890384 0.32596448 43 27
-2.022686 -1.2193717 0.22241502 50 26
-2.1220016 -1.6950797 0.18653467 43 25
-2.0146234 -1.2145144 0.10807354 51 24
-2.1231825 -1.6948178 0.062262952 43 23
-2.023421 -1.2193255 0 52 22
-2.1218214 -1.6925163 -0.062204923 44 21
-2.0193281 -1.2163844 -0.10830647 50 20
-2.1212871 -1.6920816 -0.18542618 43 19
-2.0226796 -1.2169639 -0.20878592 51 18
-2.1301534 -1.6991593 -0.30790621 43 17
-2.0248108 -1.2172885 -0.32340094 51 16
-2.1214828 -1.6934197 -0.46717948 44 15
-2.0297184 -1.2164296 -0.66719991 50 13
-2.1257954 -1.6974531 -0.61505407 43 14
-1.8812859 -1.1250257 -0.74612194 41 12
-0.43345702 -0.34507364 -0.20996094 4 11
-0.45249173 -0.27070189 -0.26147261 4 9
-0.43236721 -0.34488612 -0.24339694 3 10
nan nan nan 0 8
-0.29713684 -0.23789299 -0.23400643 7 7
-0.27940795 -0.16655469 -0.22113508 32 6
nan nan nan 0 5
-0.22112283 -0.13129641 -0.21248513 44 4
nan nan nan 0 3
nan nan nan 0 2
nan nan nan 0 1
nan nan nan 0 0
-2.1207592 -1.6891665 0.71412641 41 31
-2.0244992 -1.2099296 0.53772497 49 30
-2.1120663 -1.6792479 0.51385105 41 29
-2.0097966 -1.2020922 0.3608461 51 28
-2.1149497 -1.6785637 0.3253586 43 27
-2.0183823 -1.2072021 0.2214635 51 26
-2.1181428 -1.6799046 0.18566707 44 25
-2.0167062 -1.2061948 0.10795708 51 24
-2.1251707 -1.6842877 0.062146902 44 23
-2.0212243 -1.2084126 0 52 22
-2.1198847 -1.6788853 -0.061972816 45 21
-2.023562 -1.2093282 -0.10830647 52 20
-2.1135044 -1.673815 -0.18421763 43 19
-2.0162191 -1.2035248 -0.20766822 52 18
-2.1243973 -1.6824502 -0.30620033 44 17
-2.0290475 -1.2102133 -0.32340094 51 16
-2.1177371 -1.6783465 -0.46503252 44 15
-2.027751 -1.2056581 -0.66513646 50 13
-2.1221666 -1.6824439 -0.61226344 44 14
-1.9380652 -1.1497403 -0.76736957 46 12
-0.43103582 -0.34066728 -0.20808628 4 11
-0.45533773 -0.27023903 -0.26264516 4 9
-0.42649966 -0.33772171 -0.23914547 4 10
nan nan nan 0 8
-0.30118796 -0.2394546 -0.23680891 7 7
-0.27482802 -0.16258141 -0.21659121 32 6
nan nan nan 0 5
-0.22157978 -0.13052374 -0.21248513 49 4
nan nan nan 0 3
nan nan nan 0 2
nan nan nan 0 1
nan nan nan 0 0
-2.1171763 -1.6742532 0.71090382 43 31
-2.0203252 -1.1978946 0.53547037 49 30
-2.1102135 -1.6657741 0.51195669 41 29
-2.0076041 -1.191294 0.35968706 50 28
-2.1130052 -1.6650201 0.32414684 43 27
-2.0161595 -1.1963454 0.22074988 51 26
-2.1122456 -1.6632324 0.18462594 44 25
-2.0144577 -1.1953307 0.10760771 54 24
-2.1175883 -1.6656584 0.061740708 44 23
-2.0168245 -1.1962564 0 52 22
-2.1178792 -1.6652888 -0.061740708 44 21
-2.0172331 -1.1955471 -0.10772417 51 20
-2.1114976 -1.660254 -0.18352702 44 19
-2.0182643 -1.1952127 -0.20744468 52 18
-2.1207926 -1.6669693 -0.30477878 44 17
-2.0183339 -1.1943102 -0.32099265 50 16
-2.112268 -1.6614269 -0.46245614 44 15
-2.028013 -1.1957802 -0.66376072 51 13
-2.1222863 -1.6704988 -0.61058903 43 14
-2.0156205 -1.1856833 -0.79678959 51 12
-0.43409836 -0.34052411 -0.20902361 4 11
-0.44483194 -0.261978 -0.25561002 4 9
-0.43127936 -0.3389698 -0.24127121 3 10
nan nan nan 0 8
-0.30044755 -0.23705485 -0.23540768 7 7
-0.28059262 -0.16455102 -0.22113508 33 6
-0.15516518 -0.12148562 -0.13730134 18 5
-0.22205669 -0.12971073 -0.21248513 43 4
nan nan nan 0 3
nan nan nan 0 2
nan nan nan 0 1
nan nan nan 0 0
-2.1176023 -1.6620027 0.70897031 43 31
-2.0183997 -1.1867841 0.53377932 49 30
-2.1047194 -1.6489348 0.50911516 43 29
-2.0055673 -1.1801759 0.35852802 51 28
-2.1093266 -1.6496115 0.3226321 43 27
-2.0162389 -1.1864277 0.22027414 54 26
-2.116364 -1.6539422 0.18445243 44 25
-2.0102115 -1.1828815 0.10714187 51 24
-2.1155162 -1.6520962 0.0615086 44 23
-2.0147274 -1.18506 0 52 22
-2.1200306 -1.6544365 -0.061624657 44 21
-2.0106242 -1.1821798 -0.10714187 51 20
-2.1097097 -1.6463593 -0.18283643 43 19
-2.0183349 -1.1852897 -0.2069976 55 18
-2.1168151 -1.651907 -0.30335727 44 17
-2.0205607 -1.1856534 -0.32064858 51 16
-2.1141751 -1.6510084 -0.46159738 44 15
-2.0197198 -1.1814245 -0.65963376 50 13
-2.1187997 -1.6551992 -0.6077984 43 14
-2.0217888 -1.179829 -0.79760683 52 12
-0.43892804 -0.34187195 -0.21089825 4 11
-0.45725983 -0.26697379 -0.26264516 4 9
-0.43245995 -0.33746228 -0.24127121 4 10
nan nan nan 0 8
-0.2996527 -0.2347161 -0.23400643 9 7
-0.2811653 -0.16357058 -0.22113508 34 6
-0.15707722 -0.12213652 -0.13891666 17 5
-0.22880007 -0.1324932 -0.21939522 43 4
nan nan nan 0 3
nan nan nan 0 2
nan nan nan 0 1
nan nan nan 0 0
-2.1138713 -1.6471686 0.70574766 43 31
-2.0162151 -1.1760559 0.5320884 49 30
-2.1027176 -1.6355423 0.50722075 43 29
-2.0032718 -1.1694384 0.35736901 54 28
-2.1072371 -1.6361437 0.32142034 43 27
-2.0137112 -1.1759759 0.21956049 52 26
-2.1122792 -1.6388915 0.18358482 44 25
-2.0100121 -1.1733433 0.10690895 54 24
-2.1094275 -1.635502 0.061160441 44 23
-2.0102098 -1.1729884 0 54 22
-2.1116869 -1.636667 -0.06121847 44 21
-2.0104218 -1.1726416 -0.10690895 51 20
-2.105593 -1.6313386 -0.18197317 43 19
-2.0093393 -1.1710796 -0.20565636 54 18
-2.1127584 -1.6368928 -0.3019357 44 17
-2.0159175 -1.17397 -0.31927243 51 16
-2.1102006 -1.6360643 -0.45945039 44 15
-2.0175915 -1.1707543 -0.65757024 50 13
-2.1146572 -1.6406859 -0.60500783 41 14
-2.0177109 -1.1680375 -0.79433787 51 12
-0.43457958 -0.33613488 -0.20808628 4 11
-0.45239633 -0.26216108 -0.25912759 4 9
-0.43898168 -0.34013376 -0.24445981 3 10
-0.35979736 -0.20829152 -0.23018974 4 8
-0.29722011 -0.23110288 -0.23120397 9 7
-0.27824569 -0.16067548 -0.21810584 34 6
-0.16942431 -0.13112161 -0.15183914 18 5
-0.22608632 -0.12996499 -0.21594018 45 4
nan nan nan 0 3
nan nan nan 0 2
nan nan nan 0 1
nan nan nan 0 0
-2.1021421 -1.6268284 0.699947 43 31
-2.0095584 -1.1632725 0.52927011 51 30
-2.1023059 -1.6240529 0.50579995 44 29
-2.002862 -1.1603166 0.35659629 54 28
-2.1028326 -1.6215608 0.31990564 44 27
-2.0091856 -1.163958 0.21860899 52 26
-2.1117802 -1.6273056 0.18306427 44 25
-2.005244 -1.1616724 0.10644312 55 24
-2.1089029 -1.6239181 0.060986362 44 23
-2.0075943 -1.1625636 0 52 22
-2.1094697 -1.6231819 -0.060986362 44 21
-2.0099745 -1.1634706 -0.10667604 54 20
-2.1050656 -1.6197789 -0.18145522 44 19
-2.0091014 -1.1615701 -0.20520927 52 18
-2.1142406 -1.6268448 -0.30136707 44 17
-2.013567 -1.1632162 -0.31824028 52 16
-2.1097646 -1.6245444 -0.45816222 44 15
-2.0131264 -1.1592675 -0.65481889 50 13
-2.1087961 -1.6243609 -0.60165906 41 14
-2.0133739 -1.1566406 -0.79106897 52 12
-0.43758181 -0.33603603 -0.20902361 4 11
-0.46098572 -0.26494682 -0.26381767 4 9
-0.43832046 -0.33728772 -0.24339694 4 10
-0.36610708 -0.21019791 -0.23406935 4 8
-0.29798487 -0.23011598 -0.23120397 7 7
-0.27360392 -0.15677863 -0.21356197 38 6
-0.16838397 -0.1293463 -0.15022384 17 5
-0.2249596 -0.12829615 -0.21421266 46 4
nan nan nan 0 3
nan nan nan 0 2
nan nan nan 0 1
nan nan nan 0 0
-2.1039798 -1.6165338 0.69865799 43 31
-2.0030398 -1.1501966 0.52645189 51 30
-2.1001763 -1.6107217 0.50390559 44 29
-1.9940437 -1.1459465 0.35427824 52 28
-2.0966659 -1.6051487 0.318088 44 27
-2.0067594 -1.1532236 0.21789536 52 26
-2.1115093 -1.6153724 0.18254369 44 25
-2.0006211 -1.1496968 0.10597729 54 24
-2.1049185 -1.6085806 0.060696226 44 23
-2.0051334 -1.1518191 0 54 22
-2.1051991 -1.6082132 -0.060696226 44 21
-2.0055571 -1.1511315 -0.10621021 52 20
-2.0988235 -1.6033257 -0.18041933 44 19
-2.004499 -1.149603 -0.20431511 52 18
-2.1122985 -1.6130475 -0.30022985 45 17
-2.0090168 -1.1512641 -0.31686413 54 16
-2.105927 -1.6093146 -0.45601526 45 15
-2.0131853 -1.1495019 -0.65344322 50 13
-2.1086502 -1.6125436 -0.59998471 41 14
-2.0134916 -1.1469187 -0.78943455 51 12
-0.43513709 -0.33160311 -0.20714895 4 11
-0.45613861 -0.26008132 -0.2603001 4 9
-0.44672105 -0.34120649 -0.24764842 4 10
-0.37433687 -0.21304546 -0.23924215 4 8
-0.29882628 -0.22902228 -0.23120397 9 7
-0.28286275 -0.16061731 -0.22113508 34 6
-0.17636356 -0.13461635 -0.15830037 16 5
-0.22701052 -0.12834385 -0.21594018 49 4
nan nan nan 0 3
nan nan nan 0 2
nan nan nan 0 1
nan nan nan 0 0
-2.1002934 -1.6014793 0.6954354 43 31
-2.0072422 -1.1428473 0.52645189 51 30
-2.1002102 -1.5985477 0.5024848 44 29
-1.9917886 -1.1349678 0.35311919 51 28
-2.096611 -1.5929438 0.31717917 44 27
-2.0044825 -1.1421709 0.21718173 52 26
-2.1035213 -1.5970532 0.18132906 45 25
-1.9961379 -1.1374195 0.10551145 54 24
-2.098582 -1.5921483 0.06034806 45 23
-2.0006475 -1.1395212 0 54 22
-2.1011279 -1.5929273 -0.060406089 44 21
-2.0030489 -1.1404233 -0.10586084 52 20
-2.0947556 -1.5880795 -0.17955607 45 19
-2.002202 -1.1385622 -0.2036445 54 18
-2.1159387 -1.6041622 -0.29994556 45 17
-2.0067601 -1.1402291 -0.31583196 54 16
-2.1056499 -1.5974827 -0.45472708 45 15
-2.0130002 -1.1401026 -0.65206754 51 13
-2.1067874 -1.5989041 -0.59775221 43 14
-2.0071919 -1.1340824 -0.78534847 52 12
-0.43076694 -0.32586104 -0.20433699 4 11
-0.4609428 -0.26056343 -0.26264516 4 9
-0.4425194 -0.33551818 -0.24445981 3 10
-0.36947089 -0.20861393 -0.23536254 6 8
-0.30290061 -0.2305094 -0.23400643 9 7
-0.27645937 -0.1557792 -0.2150766 32 6
-0.17382152 -0.13165516 -0.15506975 15 5
-0.22745715 -0.12755065 -0.21594018 51 4
nan nan nan 0 3
nan nan nan 0 2
nan nan nan 0 1
nan nan nan 0 0
-2.1020217 -1.5912186 0.69414634 44 31
-2.0027313 -1.1310512 0.52419728 52 30
-2.097949 -1.5852799 0.50059038 44 29
-1.9914355 -1.1255819 0.35234651 52 28
-2.0883002 -1.575142 0.31505859 43 27
-2.0019538 -1.1314995 0.21646808 52 26
-2.1011224 -1.5836887 0.18063498 44 25
-1.9957454 -1.1279914 0.10527854 54 24
-2.100137 -1.5818021 0.06023201 45 23
-2.0002575 -1.1300755 0 55 22
-2.1006892 -1.581069 -0.06023201 45 21
-2.0004904 -1.1297464 -0.10551145 55 20
-2.0903299 -1.5732495 -0.17869282 44 19
-2.0018244 -1.1291238 -0.20319743 55 18
-2.1076434 -1.5862979 -0.29795539 44 17
-2.0042531 -1.1295762 -0.31479985 54 16
-2.0974519 -1.5797375 -0.45172131 45 15
-2.0085814 -1.1283685 -0.64931619 51 13
-2.1006863 -1.5827307 -0.59440345 44 14
-2.0049517 -1.12361 -0.78289682 50 12
-0.43374836 -0.32575601 -0.20527431 4 11
-0.4521957 -0.25359726 -0.25678253 3 9
-0.44909224 -0.33807951 -0.24764842 4 10
-0.37206957 -0.20835762 -0.23665574 6 8
-0.3020606 -0.2281906 -0.2326052 10 7
-0.28048933 -0.15672594 -0.21810584 33 6
-0.18484662 -0.13921735 -0.16637693 13 5
-0.227901 -0.12675589 -0.21594018 55 4
nan nan nan 0 3
nan nan nan 0 2
nan nan nan 0 1
nan nan nan 0 0
-2.1017745 -1.5795125 0.69221276 43 31
-2.0002887 -1.1204888 0.5225063 52 30
-2.0916965 -1.5690976 0.49774885 44 29
-1.9910409 -1.1162121 0.3515738 52 28
-2.0898159 -1.5648644 0.31445271 45 27
-1.9948366 -1.1187785 0.21527871 54 26
-2.0946653 -1.5673685 0.17959385 45 25
-1.9953115 -1.1185797 0.10504562 55 24
-2.0936444 -1.5654703 0.059883848 45 23
-1.9998256 -1.1206462 0 55 22
-2.0979185 -1.5681013 -0.059999902 44 21
-1.997882 -1.1191016 -0.10516208 54 20
-2.0878227 -1.5599647 -0.17800221 45 19
-2.0012097 -1.1200513 -0.20275034 55 18
-2.1072028 -1.5744656 -0.29710248 44 17
-2.0036633 -1.1205106 -0.31411177 54 16
-2.0950694 -1.5665001 -0.45000374 44 15
-2.0041049 -1.1166791 -0.64656484 51 13
-2.098124 -1.5699085 -0.59217095 44 14
-2.0005968 -1.1120214 -0.77962792 50 12
-0.43482623 -0.32431585 -0.20527431 4 11
-0.46077141 -0.2563552 -0.26147261 3 9
-0.44485098 -0.33242065 -0.24445981 4 10
-0.3765108 -0.20917954 -0.23924215 6 8
-0.29956099 -0.22462612 -0.22980274 10 7
-0.2792604 -0.15484437 -0.21659121 37 6
-0.19741429 -0.14790037 -0.17929941 13 5
-0.23150234 -0.12771292 -0.21939522 57 4
nan nan nan 0 3
nan nan nan 0 2
nan nan nan 0 1
nan nan nan 0 0
-2.0973289 -1.5653009 0.68899018 43 31
-1.9997336 -1.1114869 0.52137905 52 30
-2.0890198 -1.5562792 0.49585444 44 29
-1.9860929 -1.1048089 0.35002843 54 28
-2.0830541 -1.5490294 0.31263506 45 27
-1.9965534 -1.1106006 0.21504083 54 26
-2.0918496 -1.5544562 0.17889977 45 25
-1.9924595 -1.1083215 0.10469624 55 24
-2.0867932 -1.5495677 0.059535686 45 23
-2.0013447 -1.1127957 0 55 22
-2.0933506 -1.5533127 -0.059709765 45 21
-1.9950303 -1.108837 -0.1048127 55 20
-2.0809758 -1.5441045 -0.17696632 46 19
-2.0007508 -1.1106461 -0.20230328 56 18
-2.1004527 -1.5585775 -0.2953966 44 17
-1.9967294 -1.1075147 -0.31239155 55 16
-2.0923488 -1.5536633 -0.44828618 45 15
-2.007797 -1.1100272 -0.64656484 52 13
-2.0957718 -1.5567553 -0.5899384 44 14
-2.0042734 -1.1053811 -0.77962792 50 12
-0.43966776 -0.32557201 -0.20714895 4 11
-0.45778739 -0.25262931 -0.25912759 3 9
-0.4441402 -0.3295866 -0.24339694 4 10
-0.37347922 -0.2058202 -0.23665574 6 8
-0.30360687 -0.22612926 -0.2326052 11 7
-0.28330001 -0.15575756 -0.21962045 35 6
-0.20551649 -0.15299439 -0.18737596 15 5
-0.22875851 -0.1252017 -0.21594018 63 4
nan nan nan 0 3
nan nan nan 0 2
nan nan nan 0 1
nan nan nan 0 0
-2.095022 -1.552211 0.6864121 43 31
-1.9950645 -1.0998049 0.51912439 54 30
-2.0845785 -1.5416701 0.49348649 44 29
-1.981282 -1.0931053 0.34848306 54 28
-2.0804682 -1.5358458 0.3114233 44 27
-1.9938774 -1.1000245 0.21432722 55 26
-2.0892406 -1.5412152 0.17820568 45 25
-1.9875649 -1.0965428 0.10423041 56 24
-2.0864263 -1.5374548 0.059361603 45 23
-2.0030267 -1.1045978 0 56 22
-2.0907164 -1.5400591 -0.059477657 45 21
-1.9925157 -1.0979083 -0.10446333 56 20
-2.0843461 -1.53535 -0.17679366 46 19
-2.0024331 -1.1024568 -0.20207973 57 18
-2.1001551 -1.5464447 -0.29454368 45 17
-1.9919002 -1.0957725 -0.31101537 52 16
-2.0920854 -1.5415955 -0.446998 45 15
-1.9991989 -1.0957421 -0.64243788 54 13
-2.0894337 -1.5407414 -0.58658969 45 14
-1.9979404 -1.0923709 -0.77554184 51 12
-0.43713585 -0.32119599 -0.20527431 4 11
-0.45866647 -0.25102979 -0.25912759 4 9
-0.44534519 -0.32795653 -0.24339694 3 10
-0.37423107 -0.20444997 -0.23665574 6 8
-0.30277774 -0.22377215 -0.23120397 17 7
-0.27860746 -0.15190405 -0.2150766 33 6
-0.22129239 -0.16375245 -0.20352906 15 5
-0.23081309 -0.12520774 -0.2176677 62 4
nan nan nan 0 3
nan nan nan 0 2
nan nan nan 0 1
nan nan nan 0 0
-2.0909736 -1.5373584 0.68318951 43 31
-1.9926666 -1.0889874 0.5174334 54 30
-2.0842822 -1.5296565 0.49206567 44 29
-1.980939 -1.0834701 0.34771037 54 28
-2.0780814 -1.5223365 0.31021154 44 27
-1.9957112 -1.091517 0.21408933 54 26
-2.0868313 -1.527647 0.1775116 45 25
-1.9893786 -1.0880544 0.10411395 55 24
-2.0857329 -1.5257301 0.059187524 45 23
-2.0004773 -1.0936575 0 55 22
-2.0882816 -1.5264788 -0.059245553 45 21
-1.9919508 -1.0885555 -0.10423041 56 20
-2.0798993 -1.5203316 -0.17593041 45 19
-1.9977132 -1.0903468 -0.20118557 55 18
-2.0935175 -1.5302986 -0.29283786 45 17
-1.995903 -1.0884644 -0.31101537 54 16
-2.0875218 -1.5270034 -0.44485104 45 15
-1.9987857 -1.0864654 -0.6410622 54 13
-2.0872054 -1.5273087 -0.58435714 45 14
-1.9975849 -1.0831417 -0.77390736 52 12
-0.44385213 -0.32379216 -0.20808628 4 11
-0.45763791 -0.24830295 -0.25795507 4 9
-0.44102609 -0.32236782 -0.24020834 4 10
-0.36928147 -0.20011719 -0.23277615 6 8
-0.30521721 -0.22395092 -0.2326052 24 7
