# .PCD v0.7 - Point Cloud Data file format
VERSION 0.7
FIELDS x y z intensity ring
SIZE 4 4 4 4 2
TYPE F F F F U
COUNT 1 1 1 1 1
WIDTH 1212
HEIGHT 1
VIEWPOINT 0 0 0 1 0 0 0
POINTS 1212
DATA ascii
-0.25735039 0.032090936 -0.315862 3 0
-1.761644 -0.033778384 0.46083066 58 31
-1.7019621 0.19466974 0.38835692 64 30
-1.7676374 -0.032383062 0.33435842 63 29
-1.6985406 0.19369152 0.26194182 71 28
-1.7593237 -0.030707609 0.21054396 67 27
-1.7111623 0.19485714 0.16128062 76 26
-1.77044 -0.030305063 0.12077036 67 25
-1.7119781 0.19525996 0.078725986 72 24
-1.7591841 -0.029488631 0.040038615 70 23
-1.7087996 0.19519548 0 75 22
-1.7641872 -0.02927145 -0.040154673 70 21
-1.7044675 0.19499643 -0.078376614 75 20
-1.7605282 -0.028892217 -0.11947385 68 19
-1.7118864 0.19645418 -0.1515598 74 18
-1.7782699 -0.029202001 -0.19958463 70 17
-1.7123815 0.19711122 -0.23463769 71 16
-1.7660284 -0.029582426 -0.30186319 64 15
-1.7105721 0.1995811 -0.48286018 58 13
-1.759963 -0.030068578 -0.39515272 62 14
-1.7147285 0.20186152 -0.58512956 55 12
-1.7380234 -0.033522233 -0.68893427 3 11
-1.7093631 0.2065658 -0.89580756 72 9
nan nan nan 0 10
-1.712315 0.20990479 -1.0216286 74 8
-0.7531141 -0.016807498 -0.48622897 34 7
-0.70181948 0.086712465 -0.51194286 90 6
-0.61663198 -0.015588277 -0.49266955 32 5
-0.27859473 0.033958621 -0.23494291 49 4
-0.25768703 -0.005815445 -0.23652615 90 3
-0.24459662 0.030463483 -0.24995862 33 2
-0.2983287 -0.0085033774 -0.34603095 8 1
-0.26011112 0.033344768 -0.31993765 3 0
-1.7641616 -0.027978111 0.46147519 56 31
-1.7013073 0.20031257 0.38835692 64 30
-1.7603719 -0.026400374 0.33293763 64 29
-1.7003417 0.1996142 0.26232815 72 28
-1.7544533 -0.02479622 0.20993808 66 27
-1.7080004 0.20053566 0.16104275 72 26
-1.7705307 -0.024433907 0.12077036 68 25
-1.7088413 0.20064162 0.078609534 74 24
-1.7592764 -0.02334775 0.040038615 70 23
-1.7106254 0.20115612 0 75 22
-1.7642787 -0.023113111 -0.040154673 70 21
-1.7012969 0.20064926 -0.078260154 75 20
-1.7581205 -0.023017805 -0.11930119 71 19
-1.7062454 0.20183721 -0.15111272 77 18
-1.7733939 -0.02292341 -0.199016 70 17
-1.711683 0.20308733 -0.23463769 71 16
-1.7661209 -0.023417652 -0.30186319 66 15
-1.7050931 0.20497091 -0.4814845 59 13
-1.7600573 -0.023924977 -0.39515272 62 14
-1.7069781 0.20698321 -0.5826779 58 12
nan nan nan 0 11
-1.7086318 0.21253133 -0.89580756 72 9
nan nan nan 0 10
-1.7094119 0.21590818 -1.0203354 75 8
-0.78421628 -0.014877694 -0.50724751 56 7
-0.70149696 0.089284182 -0.51194286 90 6
-0.61287022 -0.013227542 -0.48943892 41 5
-0.27488682 0.034494612 -0.23148786 46 4
-0.25085172 -0.0046591046 -0.22924842 90 3
-0.24288902 0.031093411 -0.24805054 34 2
-0.30592787 -0.0076808548 -0.35597438 8 1
-0.254253 0.033475678 -0.31178638 3 0
-1.7618368 -0.021479066 0.46083066 58 31
-1.6981441 0.20625 0.38779324 66 30
-1.7629113 -0.019979388 0.33341122 63 29
-1.6995987 0.20584492 0.26232815 71 28
-1.7545323 -0.018365663 0.20993808 66 27
-1.7072539 0.20679444 0.16104275 76 26
-1.7656208 -0.017886965 0.12042332 68 25
-1.7080945 0.20690349 0.078609534 75 24
-1.7593471 -0.017206589 0.040038615 71 23
-1.7073952 0.20712028 0 75 22
-1.7643515 -0.016646549 -0.040154673 70 21
-1.7030648 0.20689102 -0.078376614 75 20
-1.7581931 -0.016573817 -0.11930119 71 19
-1.7079656 0.20839432 -0.15133625 77 18
-1.7684958 -0.016679216 -0.19844739 71 17
-1.7109272 0.20935962 -0.23463769 70 16
-1.766192 -0.017252598 -0.30186319 64 15
-1.7067521 0.21121986 -0.48217231 59 13
-1.7601331 -0.017473882 -0.39515272 62 14
-1.7085894 0.21323614 -0.58349514 54 12
nan nan nan 0 11
-1.7078414 0.21879233 -0.89580756 72 9
nan nan nan 0 10
-1.7065265 0.22159532 -1.0190423 76 8
-0.77184325 -0.011903868 -0.49884009 97 7
-0.70512336 0.092262551 -0.51497209 90 6
-0.61863542 -0.011219013 -0.49428487 43 5
-0.27834457 0.03595132 -0.23494291 50 4
-0.25600815 -0.0039243666 -0.23470671 90 3
-0.24117452 0.031753883 -0.24614246 38 2
-0.29989609 -0.0064172894 -0.34801963 8 1
-0.25843304 0.034994647 -0.31789982 3 0
-1.761901 -0.015328976 0.46083066 56 31
-1.6974138 0.21217637 0.38779324 66 30
-1.7580611 -0.013780141 0.33246404 64 29
-1.6988698 0.21177636 0.26232815 71 28
-1.7521042 -0.012220299 0.20963515 66 27
-1.7089908 0.21306364 0.16128062 76 26
-1.7681663 -0.011743713 0.12059683 68 25
-1.7098395 0.2131767 0.078725986 74 24
-1.7568972 -0.011046023 0.03998059 71 23
-1.7041814 0.21276604 0 74 22
-1.7594002 -0.010451071 -0.040038615 71 21
-1.7023323 0.21283457 -0.078376614 75 20
-1.7582401 -0.010436477 -0.11930119 71 19
-1.7047575 0.21404158 -0.15111272 74 18
-1.7685431 -0.010505913 -0.19844739 68 17
-1.7077296 0.21501811 -0.23429367 71 16
-1.7637787 -0.011068419 -0.30143383 64 15
-1.7083884 0.21748291 -0.48286018 59 13
-1.7601836 -0.011329765 -0.39515272 64 14
-1.7101777 0.21950282 -0.58431232 55 12
-0.89238918 -0.0064536128 -0.34681046 34 11
-1.7048784 0.22446123 -0.89463496 72 9
nan nan nan 0 10
-1.7057426 0.22755085 -1.0190423 74 8
-0.77602041 -0.0092738774 -0.50164253 108 7
-0.69888628 0.093907349 -0.51042825 90 6
-0.61294758 -0.0089486139 -0.48943892 45 5
-0.2853736 0.037942454 -0.241853 49 4
-0.25430623 -0.002989715 -0.23288728 90 3
-0.24266031 0.032830678 -0.24805054 33 2
-0.30143103 -0.0054140394 -0.35000831 8 1
-0.25544518 0.035465427 -0.31382418 3 0
-1.7595285 -0.0091626802 0.46018615 56 31
-1.6942475 0.21778646 0.38722959 66 30
-1.763008 -0.0076715564 0.33341122 62 29
-1.6956707 0.21738796 0.26194182 70 28
-1.7521362 -0.0061042402 0.20963515 66 27
-1.7058067 0.21841048 0.16104275 76 26
-1.7657026 -0.0055602719 0.12042332 67 25
-1.7066085 0.21882308 0.078609534 72 24
-1.7519265 -0.0048923022 0.039864536 71 23
-1.7009491 0.2183919 0 75 22
-1.7594253 -0.0046166321 -0.040038615 71 21
-1.6966259 0.21813224 -0.078143694 74 20
-1.7532779 -0.0042798575 -0.1189559 71 19
-1.7015692 0.21937202 -0.15088919 76 18
-1.7660854 -0.0043229442 -0.19816308 67 17
-1.7094625 0.2210006 -0.23463769 70 16
-1.7613437 -0.0049012983 -0.30100441 64 15
-1.705236 0.22312999 -0.48217231 58 13
-1.7577745 -0.005481666 -0.39459458 62 14
-1.7070591 0.22515905 -0.58349514 55 12
-0.88081771 -0.0034154314 -0.34212384 94 11
-1.7063123 0.2304121 -0.89580756 72 9
-0.86532748 -0.0040225349 -0.39007282 99 10
-1.7007399 0.23262013 -1.0164558 77 8
-0.77397776 -0.0065400708 -0.50024134 115 7
-0.69660169 0.095945895 -0.50891364 90 6
-0.60725039 -0.0068240464 -0.484593 43 5
-0.28882256 0.039410315 -0.24530804 50 4
-0.25602892 -0.0021816969 -0.23470671 90 3
-0.23935549 0.033154324 -0.24423438 33 2
-0.29993284 -0.0043758289 -0.34801963 8 1
-0.25246346 0.035871707 -0.30974856 3 0
-1.7595493 -0.0033278235 0.46018615 58 31
-1.6911017 0.22308187 0.38666594 66 30
-1.7581141 -0.0018131726 0.33246404 64 29
-1.692492 0.22268443 0.26155546 71 28
-1.75711 -0.0003017094 0.21024103 67 27
-1.705034 0.22436349 0.16104275 76 26
-1.7657113 0.00029503927 0.12042332 68 25
-1.7058735 0.2244812 0.078609534 74 24
-1.7569318 0.00091296004 0.03998059 71 23
-1.7051718 0.22469079 0 75 22
-1.7594306 0.0015249362 -0.040038615 71 21
-1.7033195 0.22474681 -0.078493066 72 20
-1.7557765 0.0015329396 -0.11912854 71 19
-1.7032611 0.22564043 -0.15111272 74 18
-1.7636063 0.00153493 -0.19787878 68 17
-1.7135891 0.22762479 -0.23532578 71 16
-1.7638133 0.00093740516 -0.30143383 63 15
-1.7044867 0.22878353 -0.48217231 58 13
-1.7577829 0.00065414561 -0.39459458 62 14
-1.7039621 0.23049879 -0.5826779 55 12
-0.86923623 -0.00030235481 -0.33743721 103 11
-1.7033112 0.23606068 -0.89463496 74 9
-0.85854769 -0.0011233639 -0.38688421 110 10
-1.7020358 0.23885576 -1.0177491 76 8
-0.7802062 -0.0040276349 -0.50444502 122 7
-0.70413595 0.0995185 -0.51497209 90 6
-0.61108637 -0.0047522606 -0.48782364 43 5
-0.28332141 0.039616928 -0.24012548 53 4
-0.2508921 -0.0012000026 -0.22924842 90 3
-0.24402769 0.034727644 -0.24995862 34 2
-0.30297548 -0.0033954671 -0.35199699 8 1
-0.24947558 0.036302149 -0.30567291 3 0
-1.7571346 0.0028137481 0.45954162 55 31
-1.6903126 0.22898355 0.38666594 66 30
-1.7556551 0.0043212315 0.33199042 63 29
-1.6941516 0.22892492 0.26194182 72 28
-1.7471739 0.0058126934 0.20902926 67 27
-1.7017746 0.22997737 0.16080487 74 26
-1.7632056 0.0064528612 0.12024979 68 25
-1.702605 0.23009683 0.078493066 74 24
-1.7544173 0.007345451 0.039922561 71 23
-1.6994232 0.22996475 0 76 22
-1.7569152 0.0076590702 -0.03998059 71 21
-1.697536 0.23031043 -0.078260154 75 20
-1.7507725 0.0076469346 -0.11878324 70 19
-1.6975294 0.23090698 -0.15066564 77 18
-1.7635888 0.0079988595 -0.19787878 68 17
-1.7029718 0.23225385 -0.23394962 71 16
-1.761335 0.0073952195 -0.30100441 64 15
-1.7012563 0.23469768 -0.4814845 59 13
-1.7553331 0.0067839948 -0.39403647 62 14
-1.7031058 0.23674259 -0.5826779 56 12
-0.87386674 0.0028851754 -0.33931184 105 11
-1.6981056 0.24137735 -0.89228994 74 9
-0.87438571 0.0020123199 -0.3943243 110 10
-1.701149 0.24509244 -1.0177491 76 8
-0.77400458 -0.0011365714 -0.50024134 123 7
-0.70573378 0.10239123 -0.5164867 89 6
-0.60537571 -0.0024615328 -0.48297769 49 5
-0.29210567 0.042023372 -0.24876307 51 4
-0.25775236 -0.00037259352 -0.23652615 90 3
-0.24390498 0.035579249 -0.24995862 35 2
-0.29692703 -0.0021739369 -0.34404227 7 1
-0.25363004 0.037907902 -0.31178638 3 0
-1.7522814 0.0092353988 0.45825258 58 31
-1.6894621 0.23517735 0.38666594 64 30
-1.7531728 0.010744432 0.33151683 64 29
-1.6933011 0.23513274 0.26194182 70 28
-1.7496225 0.012230228 0.2093322 67 27
-1.6984557 0.23586765 0.160567 74 26
-1.7606761 0.01290049 0.12007628 68 25
-1.699277 0.23598894 0.078376614 75 24
-1.7493823 0.013438058 0.039806508 71 23
-1.7010448 0.23653939 0 77 22
-1.761874 0.014131587 -0.040096644 70 21
-1.6967217 0.23623453 -0.078260154 74 20
-1.7507327 0.014063785 -0.11878324 71 19
-1.6966717 0.2371272 -0.15066564 75 18
-1.7635502 0.014154885 -0.19787878 68 17
-1.7021091 0.23849399 -0.23394962 72 16
-1.7588358 0.013527907 -0.30057502 66 15
-1.7051854 0.24131455 -0.48286018 58 13
-1.7552965 0.013217567 -0.39403647 62 14
-1.6999305 0.24234952 -0.58186066 55 12
-0.87848651 0.0059533203 -0.34118649 101 11
-1.7037627 0.24856494 -0.89580756 72 9
-0.86984777 0.0050518457 -0.39219856 102 10
-1.7002831 0.25102904 -1.0177491 76 8
-0.78228539 0.0015522072 -0.50584626 119 7
-0.70733833 0.10515356 -0.51800138 90 6
-0.60919666 -0.00036900956 -0.48620832 56 5
-0.28838661 0.042482972 -0.24530804 50 4
-0.25775209 0.00052713254 -0.23652615 90 3
-0.24217828 0.036215544 -0.24805054 37 2
-0.30147725 -0.0012048774 -0.35000831 7 1
-0.25063834 0.038321942 -0.30771074 3 0
-1.7498231 0.015334241 0.45760807 55 31
-1.6910417 0.24142064 0.38722959 67 30
-1.7531246 0.016864082 0.33151683 64 29
-1.6924701 0.24104203 0.26194182 72 28
-1.7446063 0.018292433 0.20872632 68 27
-1.6976222 0.24179493 0.160567 74 26
-1.7606205 0.019046318 0.12007628 68 25
-1.700915 0.2422744 0.078493066 75 24
-1.751824 0.019568888 0.039864536 71 23
-1.6977341 0.24211958 0 76 22
-1.7543162 0.020205688 -0.039922561 71 21
-1.693415 0.24179958 -0.078143694 75 20
-1.748179 0.02014965 -0.1186106 71 19
-1.6933693 0.2426918 -0.15044211 77 18
-1.7610062 0.020285593 -0.19759446 68 17
-1.7012662 0.24443401 -0.23394962 72 16
-1.7513895 0.019595094 -0.29928684 64 15
-1.7019544 0.24691705 -0.48217231 60 13
-1.7479292 0.019274436 -0.39236206 63 14
-1.6967368 0.24793716 -0.58104342 56 12
-0.87382531 0.008985796 -0.33931184 68 11
-1.698518 0.25385183 -0.89346248 74 9
-0.87435031 0.0081165852 -0.3943243 51 10
-1.6993964 0.2569626 -1.0177491 75 8
-0.78020489 0.0042789085 -0.50444502 105 7
-0.69714087 0.10609029 -0.51042825 90 6
-0.61491847 0.0017464963 -0.49105424 80 5
-0.28645223 0.04320325 -0.24358052 50 4
-0.25946319 0.0014157798 -0.23834558 90 3
-0.24205039 0.037060678 -0.24805054 39 2
-0.30450934 -0.00018689106 -0.3539857 7 1
-0.25193113 0.039437123 -0.30974856 3 0
-1.7521743 0.021468306 0.45825258 55 31
-1.6901886 0.24732199 0.38722959 68 30
-1.7530551 0.022983525 0.33151683 64 29
-1.6891749 0.24658841 0.26155546 71 28
-1.7470131 0.024413316 0.20902926 67 27
-1.6968111 0.24742314 0.160567 75 26
-1.7605432 0.025191914 0.12007628 68 25
-1.6975882 0.24784628 0.078376614 75 24
-1.7417486 0.02555117 0.039632428 71 23
-1.6944054 0.24767953 0 77 22
-1.7517405 0.025989512 -0.039864536 74 21
-1.6950312 0.24807402 -0.078260154 72 20
-1.7456042 0.026217859 -0.11843794 71 19
-1.6925552 0.24830589 -0.15044211 77 18
-1.7634083 0.026466344 -0.19787878 71 17
-1.7028959 0.25043774 -0.23429367 74 16
-1.7537731 0.025741132 -0.29971623 64 15
-1.701082 0.25285646 -0.48217231 58 13
-1.7551658 0.025165092 -0.39403647 63 14
-1.695861 0.25385836 -0.58104342 55 12
-0.87842566 0.011932803 -0.34118649 20 11
-1.6954848 0.2591463 -0.89228994 74 9
-0.86526591 0.011080123 -0.39007282 16 10
-1.7006489 0.26292649 -1.0190423 77 8
-0.78846663 0.007047113 -0.51004994 90 7
-0.69678527 0.10840151 -0.51042825 90 6
-0.61490935 0.0037856295 -0.49105424 85 5
-0.29522419 0.045613106 -0.25221813 49 4
-0.25259894 0.0022977286 -0.23106785 90 3
-0.24351904 0.03813142 -0.24995862 41 2
-0.30602321 0.00081073632 -0.35597438 7 1
-0.25037169 0.040027086 -0.30771074 3 0
-1.7496781 0.027244462 0.45760807 58 31
-1.6893591 0.25292549 0.38722959 66 30
-1.7529691 0.02879674 0.33151683 63 29
-1.6883479 0.25218859 0.26155546 72 28
-1.7444414 0.030167075 0.20872632 67 27
-1.6983979 0.25371543 0.16080487 76 26
-1.7504754 0.030868031 0.11938219 68 25
-1.6992265 0.25384647 0.078493066 75 24
-1.7441477 0.031672727 0.039690454 71 23
-1.6935748 0.253297 0 77 22
-1.7541381 0.032146383 -0.039922561 74 21
-1.6916856 0.25361586 -0.078143694 75 20
-1.7455076 0.032006349 -0.11843794 70 19
-1.6941401 0.25458568 -0.15066564 75 18
-1.7583383 0.032536663 -0.19731016 72 17
-1.7044592 0.2567524 -0.23463769 70 16
-1.7512101 0.031821523 -0.29928684 64 15
-1.700189 0.25879282 -0.48217231 58 13
-1.7526305 0.031251632 -0.39347833 62 14
-1.6996344 0.26049858 -0.5826779 58 12
-0.86447173 0.014953307 -0.33556256 9 11
-1.6967509 0.26540732 -0.89346248 74 9
-0.87200975 0.01419044 -0.39326143 16 10
-1.697561 0.26882029 -1.0177491 77 8
-0.79464817 0.0098546185 -0.51425368 38 7
-0.69834632 0.11127468 -0.51194286 90 6
-0.61107522 0.0060200444 -0.48782364 89 5
-0.29683733 0.046993423 -0.25394562 47 4
-0.25258881 0.0032235349 -0.23106785 90 3
-0.2417925 0.038707394 -0.24805054 42 2
-0.30601817 0.0019323622 -0.35597438 7 1
-0.25164968 0.041194957 -0.30974856 3 0
-1.7471515 0.033614174 0.45696354 56 31
-1.6860137 0.25874299 0.38666594 67 30
-1.7503977 0.035175659 0.33104324 64 29
-1.6898532 0.25875199 0.26194182 72 28
-1.7418379 0.036512062 0.20842338 67 27
-1.6925374 0.25917891 0.16032912 77 26
-1.752844 0.037333254 0.11955571 70 25
-1.6982846 0.26007271 0.078493066 75 24
-1.7490243 0.03786194 0.039806508 72 23
-1.6926351 0.25950259 0 77 22
-1.7465122 0.038420994 -0.039748482 74 21
-1.6932578 0.25990146 -0.078260154 74 20
-1.7428852 0.038352378 -0.11826529 70 19
-1.6956561 0.26117554 -0.15088919 75 18
-1.7557307 0.038623057 -0.19702585 68 17
-1.6961668 0.26185498 -0.23360558 71 16
-1.7486261 0.037884332 -0.29885745 64 15
-1.6969012 0.26435295 -0.4814845 59 13
-1.7476315 0.037577316 -0.39236206 63 14
-1.6940473 0.26569146 -0.58104342 56 12
-0.88295233 0.018300842 -0.34306115 9 11
-1.6935871 0.27127221 -0.89228994 74 9
-0.86516744 0.017120501 -0.39007282 12 10
-1.6923892 0.27405423 -1.0151627 79 8
-0.79460889 0.012628399 -0.51425368 24 7
-0.70383936 0.11469238 -0.5164867 90 6
-0.61677444 0.0082020117 -0.49266955 84 5
-0.29667148 0.048029292 -0.25394562 49 4
-0.25600508 0.0041189794 -0.23470671 90 3
-0.24483085 0.040152673 -0.2518667 47 2
-0.30449462 0.0030018752 -0.3539857 7 1
-0.24722786 0.041306749 -0.30363509 3 0
-1.7494385 0.039764091 0.45760807 56 31
-1.6826948 0.26424566 0.38610229 67 30
-1.74781 0.041231066 0.33056965 66 29
-1.6840603 0.26387805 0.26116911 72 28
-1.7416997 0.042591989 0.20842338 67 27
-1.6965388 0.26586232 0.16080487 76 26
-1.7502097 0.043393277 0.11938219 70 25
-1.6973665 0.26599929 0.078493066 76 24
-1.7438841 0.043848302 0.039690454 70 23
-1.6966574 0.26619071 0 77 22
-1.748866 0.044577412 -0.039806508 71 21
-1.6923404 0.2658104 -0.078260154 75 20
-1.7477273 0.044556078 -0.1186106 71 19
-1.6922748 0.26670206 -0.15066564 77 18
-1.7531022 0.044691656 -0.19674155 68 17
-1.7025784 0.26894256 -0.23463769 71 16
-1.7509453 0.044046398 -0.29928684 64 15
-1.695968 0.27027464 -0.4814845 56 13
-1.7499259 0.043734871 -0.3929202 62 14
-1.6977743 0.27235782 -0.5826779 56 12
-0.880566 0.021333463 -0.34212384 9 11
-1.6948082 0.27754214 -0.89346248 72 9
-0.88093883 0.02046106 -0.39751291 11 10
-1.6935327 0.28031248 -1.0164558 77 8
-0.8007704 0.015500668 -0.51845735 26 7
-0.70735615 0.11781604 -0.51951599 90 6
-0.61674207 0.010354906 -0.49266955 85 5
-0.30184248 0.049997598 -0.25912821 46 4
-0.25598913 0.0050125793 -0.23470671 90 3
-0.23514962 0.039295763 -0.24041823 37 2
-0.30296731 0.0040607755 -0.35199699 7 1
-0.24708216 0.042169485 -0.30363509 3 0
-1.7420448 0.04569095 0.4556745 55 31
-1.6841663 0.27050719 0.38666594 66 30
-1.7501093 0.047394782 0.33104324 63 29
-1.683129 0.26975489 0.26116911 72 28
-1.7390599 0.048605569 0.20812044 68 27
-1.6906868 0.27098864 0.16032912 76 26
-1.7500476 0.049502384 0.11938219 68 25
-1.6964276 0.27192259 0.078493066 75 24
-1.7437204 0.04993533 0.039690454 70 23
-1.6957179 0.27211154 0 77 22
-1.7486995 0.050681826 -0.039806508 71 21
-1.6889371 0.27131692 -0.078143694 76 20
-1.7400818 0.050450213 -0.11809264 72 19
-1.6913337 0.27260759 -0.15066564 75 18
-1.7579012 0.050947819 -0.19731016 67 17
-1.6991853 0.27448604 -0.23429367 68 16
-1.7507808 0.050158072 -0.29928684 64 15
-1.6973859 0.27658266 -0.48217231 58 13
-1.7473266 0.049777072 -0.39236206 62 14
-1.6991444 0.27866799 -0.58349514 56 12
-0.88511997 0.024521947 -0.34399846 11 11
-1.6894748 0.28272152 -0.89111745 75 9
-0.87633777 0.023428574 -0.39538717 16 10
-1.692544 0.28622228 -1.0164558 77 8
-0.79450142 0.018175462 -0.51425368 24 7
-0.71085978 0.12096564 -0.52254522 90 6
-0.61479431 0.012478037 -0.49105424 80 5
-0.30700329 0.052002575 -0.26431078 45 4
-0.25939897 0.0059438217 -0.23834558 90 3
-0.23501103 0.040116347 -0.24041823 37 2
-0.30598116 0.0051368126 -0.35597438 7 1
-0.24408612 0.042500891 -0.29955944 3 0
-1.7418746 0.051771548 0.4556745 56 31
-1.6808089 0.27598658 0.38610229 67 30
-1.7499331 0.053503513 0.33104324 66 29
-1.6821771 0.27562845 0.26116911 72 28
-1.7388797 0.054675724 0.20812044 68 27
-1.6921861 0.27729422 0.160567 75 26
-1.7498641 0.055610884 0.11938219 68 25
-1.6954682 0.27784255 0.078493066 75 24
-1.7410374 0.055944983 0.039632428 72 23
-1.6922913 0.27762112 0 75 22
-1.7410178 0.056552716 -0.039632428 75 21
-1.6879797 0.27721074 -0.078143694 75 20
-1.7423879 0.056601394 -0.11826529 72 19
-1.6879154 0.27810183 -0.15044211 77 18
-1.7552299 0.057006575 -0.19702585 68 17
-1.6933316 0.2796025 -0.23360558 71 16
-1.7481334 0.056193493 -0.29885745 64 15
-1.6916693 0.28171009 -0.48079664 58 13
-1.7471422 0.055876072 -0.39236206 63 14
-1.6911724 0.28341654 -0.58104342 55 12
-0.88966238 0.027742486 -0.34587312 13 11
-1.6884776 0.28861716 -0.89111745 75 9
-0.87625062 0.026487421 -0.39538717 25 10
-1.6873188 0.29139438 -1.0138694 72 8
-0.78822356 0.02080668 -0.51004994 37 7
-0.70259964 0.12205655 -0.5164867 90 6
-0.61474705 0.014623994 -0.49105424 83 5
-0.31037578 0.05372075 -0.26776582 50 4
-0.2576623 0.0068244198 -0.23652615 90 3
-0.23963326 0.041825369 -0.24614246 38 2
-0.29990178 0.0061466852 -0.34801963 7 1
-0.24678175 0.043893401 -0.30363509 3 0
-1.7465117 0.058004934 0.45696354 55 31
-1.6822367 0.28225818 0.38666594 66 30
-1.7423755 0.059371289 0.32962245 63 29
-1.6812047 0.28149867 0.26116911 72 28
-1.7337178 0.060578931 0.20751455 68 27
-1.6912078 0.28319937 0.160567 76 26
-1.7496593 0.061718713 0.11938219 68 25
-1.6920254 0.28334352 0.078376614 75 24
-1.7408315 0.062021997 0.039632428 72 23
-1.6863818 0.28269365 0 76 22
-1.7433075 0.062716007 -0.039690454 74 21
-1.6870017 0.2831012 -0.078143694 75 20
-1.7371947 0.062510774 -0.11792 72 19
-1.6869345 0.28399205 -0.15044211 77 18
-1.7525382 0.063047312 -0.19674155 68 17
-1.6947863 0.28592667 -0.23394962 74 16
-1.745465 0.062211037 -0.29842806 66 15
-1.6906757 0.28761339 -0.48079664 60 13
-1.7396301 0.061725635 -0.3906877 63 14
-1.6901727 0.28931814 -0.58104342 58 12
nan nan nan 0 11
-1.6852851 0.29412663 -0.88994491 76 9
nan nan nan 0 10
-1.6883979 0.29765695 -1.0151627 80 8
-0.77986747 0.023339733 -0.50444502 64 7
-0.70412654 0.1248626 -0.51800138 90 6
-0.62041503 0.016898641 -0.49590015 80 5
-0.31551674 0.055792723 -0.27294838 51 4
-0.25592262 0.0076929671 -0.23470671 90 3
-0.23472524 0.041756049 -0.24041823 41 2
-0.29987848 0.0071935002 -0.34801963 8 1
-0.24378344 0.044203885 -0.29955944 3 0
-1.7414707 0.063930765 0.4556745 56 31
-1.6812413 0.28812858 0.38666594 66 30
-1.7470639 0.065630287 0.33056965 64 29
-1.6777778 0.28694594 0.26078278 71 28
-1.7384557 0.066813968 0.20812044 67 27
-1.6902595 0.28880605 0.160567 76 26
-1.7444488 0.06763953 0.11903515 70 25
-1.6959481 0.29009652 0.078609534 74 24
-1.7406044 0.068098255 0.039632428 72 23
-1.6903118 0.28942868 0 77 22
-1.7455876 0.068591326 -0.039748482 74 21
-1.6884642 0.28941327 -0.078260154 74 20
-1.7394581 0.068669207 -0.11809264 70 19
-1.6884367 0.29000926 -0.15066564 75 18
-1.7498254 0.069069944 -0.19645722 68 17
-1.6913892 0.29112208 -0.23360558 71 16
-1.7427763 0.068210639 -0.29799867 66 15
-1.6920291 0.29392767 -0.4814845 58 13
-1.7394159 0.067494124 -0.3906877 63 14
-1.6938062 0.29603589 -0.5826779 56 12
-1.6954929 0.062085923 -0.67206246 16 11
-1.686474 0.30010349 -0.89111745 75 9
-1.6924407 0.060542669 -0.77908278 22 10
-1.6852963 0.30287275 -1.0138694 79 8
-0.78392017 0.026185403 -0.50724751 49 7
-0.69979668 0.12647539 -0.51497209 90 6
-0.62226301 0.0190052 -0.49751547 83 5
-0.32243282 0.058180802 -0.27985847 49 4
-0.25418156 0.0085050901 -0.23288728 90 3
-0.23934302 0.043455519 -0.24614246 41 2
-0.30288252 0.0082376003 -0.35199699 7 1
-0.25216073 0.046692364 -0.31178638 3 0
-1.7364218 0.069519043 0.45438549 56 31
-1.6802766 0.29370219 0.38666594 67 30
-1.7419311 0.071229801 0.32962245 64 29
-1.6768172 0.29250807 0.26078278 72 28
-1.7332653 0.072378479 0.20751455 68 27
-1.6892409 0.29470441 0.160567 77 26
-1.7467067 0.073525354 0.11920867 70 25
-1.6875981 0.29442179 0.078260154 75 24
-1.7378589 0.074070767 0.039574403 72 23
-1.6868806 0.29459912 0 76 22
-1.7478346 0.07478749 -0.039806508 71 21
-1.6825249 0.29443806 -0.078027233 76 20
-1.7367289 0.074333943 -0.11792 72 19
-1.6800582 0.29460153 -0.14999503 76 18
-1.7495736 0.07517755 -0.19645722 68 17
-1.6903626 0.29702434 -0.23360558 71 16
-1.7425276 0.074293658 -0.29799867 64 15
-1.6886266 0.29940945 -0.48079664 59 13
-1.7391697 0.073565401 -0.3906877 63 14
-1.6881118 0.3011106 -0.58104342 56 12
-1.7137811 0.069018021 -0.67956102 39 11
-1.6854161 0.30598855 -0.89111745 74 9
-1.6967416 0.066620588 -0.78120852 50 10
-1.6841749 0.30904764 -1.0138694 80 8
-0.78382397 0.028921634 -0.50724751 38 7
-0.70323765 0.12977526 -0.51800138 90 6
-0.61646742 0.021116963 -0.49266955 83 5
-0.32576627 0.060046237 -0.28331351 49 4
-0.2592907 0.0095650172 -0.23834558 90 3
-0.23918988 0.044290718 -0.24614246 39 2
-0.29982096 0.0092868544 -0.34801963 7 1
-0.24772841 0.046760496 -0.30567291 3 0
-1.7361554 0.075882882 0.45438549 58 31
-1.6743946 0.29899612 0.38553864 67 30
-1.7392058 0.077508025 0.32914886 64 29
-1.6757337 0.29865193 0.26078278 72 28
-1.7329884 0.078730725 0.20751455 68 27
-1.6832504 0.30001411 0.16009125 75 26
-1.743934 0.079816326 0.11903515 70 25
-1.6865075 0.30060515 0.078260154 76 24
-1.7375897 0.080136575 0.039574403 70 23
-1.6857896 0.30077988 0 76 22
-1.7375617 0.080743104 -0.039574403 72 21
-1.6790291 0.29986715 -0.077910781 77 20
-1.7339534 0.080586605 -0.11774734 71 19
-1.6838679 0.3016417 -0.15044211 77 18
-1.7517818 0.081396058 -0.19674155 72 17
-1.694136 0.30409911 -0.23429367 71 16
-1.744718 0.080485761 -0.29842806 64 15
-1.6899358 0.30573303 -0.4814845 60 13
-1.7364538 0.079830855 -0.39012957 63 14
-1.6893742 0.3074275 -0.58186066 55 12
-1.7297386 0.075684831 -0.6861223 49 11
-1.6864536 0.31256926 -0.89228994 74 9
-1.7258903 0.073754244 -0.79502583 53 10
-1.6872908 0.31571767 -1.0164558 80 8
-0.78578722 0.031733744 -0.50864875 41 7
-0.70668703 0.13297869 -0.5210306 90 6
-0.62592518 0.023583356 -0.50074607 83 5
-0.3291012 0.061879452 -0.28676856 47 4
-0.25411418 0.010323741 -0.23288728 90 3
-0.23902592 0.045167096 -0.24614246 42 2
-0.3058449 0.010476138 -0.35597438 8 1
-0.24898252 0.047915161 -0.30771074 3 0
-1.7382929 0.082053155 0.45503002 56 31
-1.6757364 0.30527872 0.38610229 68 30
-1.7364726 0.083464161 0.32867527 64 29
-1.6722515 0.30405447 0.26039642 74 28
-1.732703 0.084779508 0.20751455 67 27
-1.682193 0.30588788 0.16009125 77 26
-1.746136 0.086022533 0.11920867 68 25
-1.6854479 0.3064903 0.078260154 75 24
-1.7372994 0.086201407 0.039574403 72 23
-1.6847292 0.30666253 0 77 22
-1.7422619 0.087050267 -0.039690454 71 21
-1.6804284 0.30617702 -0.078027233 76 20
-1.7361525 0.086759709 -0.11792 70 19
-1.6779071 0.3066161 -0.14999503 76 18
-1.749006 0.087389953 -0.19645722 70 17
-1.6954993 0.31046 -0.23463769 74 16
-1.7419665 0.08645688 -0.29799867 63 15
-1.6912212 0.31206936 -0.48217231 62 13
-1.7337304 0.085774817 -0.38957146 63 14
-1.6906133 0.31375682 -0.5826779 56 12
-1.7387247 0.082146056 -0.68987161 56 11
-1.6853523 0.31845415 -0.89228994 74 9
-1.732404 0.080081478 -0.79821444 64 10
-1.6840775 0.32120165 -1.0151627 83 8
-0.77739674 0.034142658 -0.50304377 50 7
-0.7023145 0.13468157 -0.51800138 90 6
-0.62202543 0.025628926 -0.49751547 87 5
-0.33242726 0.063736662 -0.2902236 47 4
-0.25750393 0.011320207 -0.23652615 90 3
-0.23253687 0.044705279 -0.23851015 42 2
-0.30277765 0.011461714 -0.35199699 7 1
-0.24739593 0.048488814 -0.30567291 3 0
-1.7404084 0.08823926 0.4556745 59 31
-1.6746606 0.31112626 0.38610229 67 30
-1.7410741 0.089770898 0.32962245 64 29
-1.6736079 0.31034338 0.26078278 72 28
-1.7249614 0.090448007 0.20660573 68 27
-1.6909549 0.3132906 0.16104275 77 26
-1.7433343 0.091989242 0.11903515 70 25
-1.6892775 0.31328881 0.078493066 75 24
-1.7369879 0.092265189 0.039574403 72 23
-1.6811912 0.31208202 0 77 22
-1.7394679 0.092697851 -0.039632428 72 21
-1.6793495 0.31204095 -0.078027233 75 20
-1.7308578 0.092560165 -0.1175747 71 19
-1.6842231 0.31355521 -0.15066564 77 18
-1.7437296 0.093236335 -0.19588861 70 17
-1.6847259 0.31425196 -0.23326153 72 16
-1.736735 0.092282593 -0.29713988 66 15
-1.6830374 0.31662849 -0.48010883 63 13
-1.7358702 0.091648586 -0.39012957 62 14
-1.6825451 0.31832933 -0.58022624 56 12
-1.736128 0.087797813 -0.68893427 58 11
-1.6799517 0.32320091 -0.88994491 75 9
-1.734374 0.086237162 -0.79927731 68 10
-1.6809033 0.32637367 -1.0138694 83 8
-0.78347814 0.037128083 -0.50724751 55 7
-0.70381474 0.13739783 -0.51951599 90 6
-0.61812389 0.02753968 -0.49428487 89 5
-0.33575574 0.065559246 -0.29367864 46 4
-0.25575149 0.012113624 -0.23470671 90 3
-0.23713154 0.046463814 -0.24423438 42 2
-0.2966809 0.012281695 -0.34404227 8 1
-0.25573465 0.051108107 -0.31789982 3 0
-1.7352819 0.093756504 0.45438549 58 31
-1.6736196 0.31667793 0.38610229 67 30
-1.733413 0.095150888 0.32820165 64 29
-1.6725695 0.31589156 0.26078278 72 28
-1.7296078 0.096436948 0.20721161 68 27
-1.6825167 0.31779611 0.16032912 77 26
-1.7380393 0.097497493 0.11868811 68 25
-1.685776 0.31842229 0.078376614 76 24
-1.7341768 0.097887397 0.039516374 72 23
-1.6850588 0.31859052 0 79 22
-1.7366382 0.09863095 -0.039574403 72 21
-1.6783055 0.31760815 -0.078027233 76 20
-1.7330315 0.098437309 -0.11774734 72 19
-1.6831183 0.31943235 -0.15066564 77 18
-1.7434107 0.099018246 -0.19588861 70 17
-1.6836187 0.32013083 -0.23326153 72 16
-1.7364193 0.098041311 -0.29713988 66 15
-1.6819781 0.32220787 -0.48010883 63 13
-1.72824 0.097306892 -0.38845521 63 14
-1.6837996 0.32435712 -0.58104342 55 12
-1.735811 0.09385749 -0.68893427 58 11
-1.6809796 0.32949081 -0.89111745 75 9
-1.7363384 0.092104547 -0.80034018 67 10
-1.6776556 0.33182096 -1.0125762 81 8
-0.7771464 0.039433401 -0.50304377 50 7
-0.70722961 0.14064342 -0.52254522 90 6
-0.61993027 0.029779729 -0.49590015 87 5
-0.33375528 0.066364393 -0.29195112 46 4
-0.25228116 0.01287346 -0.23106785 90 3
-0.23854816 0.047626011 -0.24614246 41 2
-0.29966441 0.013419803 -0.34801963 8 1
-0.25272319 0.051390871 -0.31382418 3 0
-1.7349441 0.099813201 0.45438549 55 31
-1.670113 0.32205367 0.38553864 70 30
-1.7404225 0.10161984 0.32962245 64 29
-1.6714566 0.32172802 0.26078278 72 28
-1.7267832 0.10233054 0.20690867 68 27
-1.6838403 0.32414085 0.160567 77 26
-1.7351984 0.10341892 0.11851459 71 25
-1.6822026 0.32382956 0.078260154 76 24
-1.7313114 0.10409633 0.039458349 72 23
-1.6790279 0.32351819 0 79 22
-1.7362833 0.10469235 -0.039574403 72 21
-1.6795814 0.32423386 -0.078143694 77 20
-1.7301877 0.10433951 -0.1175747 71 19
-1.6771049 0.32435367 -0.15021856 79 18
-1.7430362 0.1054075 -0.19588861 67 17
-1.6922125 0.32790253 -0.23463769 75 16
-1.7360483 0.10440494 -0.29713988 63 15
-1.6878607 0.32976234 -0.48217231 59 13
-1.7303226 0.10348096 -0.38901332 62 14
-1.6802818 0.33006784 -0.58022624 56 12
-1.7354552 0.10021893 -0.68893427 58 11
-1.6776543 0.33492118 -0.88994491 76 9
-1.7337298 0.098343179 -0.79927731 66 10
-1.6701378 0.33669022 -1.0086967 85 8
-0.78319985 0.042596847 -0.50724751 51 7
-0.69502193 0.14082275 -0.51345748 90 6
-0.62172294 0.032141238 -0.49751547 85 5
-0.33704621 0.068333104 -0.29540616 45 4
-0.25394526 0.013870724 -0.23288728 90 3
-0.23680139 0.048118155 -0.24423438 45 2
-0.29658541 0.014404367 -0.34404227 8 1
-0.25677705 0.053246778 -0.31993765 3 0
-1.7297442 0.10588322 0.45309645 58 31
-1.6736999 0.32911897 0.38666594 67 30
-1.7302375 0.10740383 0.32772809 67 29
-1.6678431 0.32737312 0.26039642 74 28
-1.7214429 0.10835411 0.20630279 67 27
-1.6777582 0.3293452 0.16009125 80 26
-1.7372971 0.10993204 0.11868811 68 25
-1.6761047 0.32902461 0.078027233 76 24
-1.723454 0.10967353 0.039284267 70 23
-1.6753784 0.32918483 0 79 22
-1.735888 0.11105544 -0.039574403 72 21
-1.67354 0.32912457 -0.077910781 77 20
-1.7273045 0.11052452 -0.11740204 71 19
-1.6759048 0.3304984 -0.15021856 79 18
-1.7376997 0.11118099 -0.19532 70 17
-1.6837134 0.33265337 -0.23360558 72 16
-1.7332152 0.11031132 -0.29671049 66 15
-1.6772726 0.3337633 -0.47942099 59 13
-1.7274995 0.10967132 -0.38845521 63 14
-1.6791195 0.33593112 -0.58022624 55 12
-1.7327813 0.10613792 -0.68799692 58 11
-1.6785787 0.3415111 -0.89111745 75 9
-1.7356349 0.10452706 -0.80034018 67 10
-1.6668571 0.34208488 -1.0074035 85 8
-0.78097898 0.045218136 -0.50584626 51 7
-0.7003656 0.14447428 -0.51800138 90 6
-0.62732393 0.03459987 -0.50236142 90 5
-0.33503875 0.069130093 -0.29367864 43 4
-0.25732076 0.014914421 -0.23652615 90 3
-0.23662344 0.048985753 -0.24423438 46 2
-0.30107442 0.015625913 -0.35000831 8 1
-0.25800315 0.054457702 -0.32197547 3 0
-1.7269535 0.11176801 0.45245194 58 31
-1.6725408 0.33495927 0.38666594 68 30
-1.7298521 0.11344283 0.32772809 66 29
-1.6691116 0.33368036 0.26078278 72 28
-1.7235304 0.11452341 0.20660573 68 27
-1.6790965 0.33539763 0.16032912 77 26
-1.734414 0.11583298 0.11851459 70 25
-1.6773942 0.33536604 0.078143694 75 24
-1.7255545 0.11585274 0.039342295 70 23
-1.6742194 0.335031 0 77 22
-1.7330163 0.1166469 -0.039516374 72 21
-1.674829 0.33545792 -0.078027233 76 20
-1.7244196 0.11638885 -0.11722939 71 19
-1.6796811 0.3370401 -0.15066564 77 18
-1.7397794 0.11740977 -0.19560429 68 17
-1.6850281 0.33872604 -0.23394962 74 16
-1.7328197 0.11636071 -0.29671049 67 15
-1.6760974 0.33961603 -0.47942099 55 13
-1.7246945 0.11524035 -0.38789707 63 14
-1.6779366 0.34179029 -0.58022624 56 12
-1.7301068 0.11173752 -0.68705964 59 11
-1.6774371 0.34707561 -0.89111745 75 9
-1.733001 0.11044441 -0.79927731 66 10
-1.6573386 0.34585017 -1.0022306 81 8
-0.79115105 0.048541691 -0.51285243 53 7
-0.70182776 0.14721121 -0.51951599 90 6
-0.62339503 0.036474913 -0.49913079 88 5
-0.33833894 0.071010672 -0.29713365 45 4
-0.25555742 0.015683291 -0.23470671 90 3
-0.23330638 0.04906762 -0.24041823 49 2
-0.29496703 0.016355671 -0.34205356 8 1
-0.26912111 0.057869889 -0.33827803 3 0
-1.7265733 0.11749418 0.45245194 56 31
-1.6738069 0.34099311 0.38722959 67 30
-1.7319155 0.11934384 0.32820165 64 29
-1.6655762 0.33871809 0.26039642 74 28
-1.7231411 0.12023822 0.20660573 67 27
-1.6730393 0.34025845 0.15985337 77 26
-1.7389966 0.12192573 0.11886163 71 25
-1.6738262 0.34042576 0.078027233 77 24
-1.7226676 0.12140208 0.039284267 70 23
-1.6755481 0.3410829 0 83 22
-1.7325984 0.12269555 -0.039516374 72 21
-1.6688145 0.34000653 -0.077794321 80 20
-1.7240242 0.12210659 -0.11722939 71 19
-1.6736164 0.34189814 -0.15021856 79 18
-1.7393805 0.12317844 -0.19560429 67 17
-1.6814102 0.34410623 -0.23360558 72 16
-1.7324243 0.12210629 -0.29671049 66 15
-1.6749619 0.34517232 -0.47942099 54 13
-1.729144 0.12159485 -0.38901332 62 14
-1.672168 0.34638798 -0.57859182 58 12
-1.7297062 0.11777604 -0.68705964 55 11
-1.6740552 0.35247084 -0.88994491 76 9
-1.7348832 0.11633863 -0.80034018 67 10
-1.6519367 0.35073844 -0.99964428 85 8
-0.78685278 0.05091219 -0.51004994 53 7
-0.70325327 0.15008216 -0.5210306 90 6
-0.63088375 0.039087433 -0.50559199 90 5
-0.34161755 0.072973534 -0.30058873 43 4
-0.25892547 0.016755918 -0.23834558 90 3
-0.23943536 0.051308792 -0.24805054 46 2
-0.29642135 0.017457621 -0.34404227 8 1
-0.2717402 0.059458029 -0.34235367 4 0
-1.723743 0.1233514 0.45180741 58 31
-1.670222 0.34633601 0.38666594 67 30
-1.7314883 0.12538862 0.32820165 67 29
-1.6643836 0.34452996 0.26039642 74 28
-1.7152854 0.1257188 0.20569691 68 27
-1.6742779 0.34660402 0.16009125 77 26
-1.7335854 0.127636 0.11851459 70 25
-1.6799622 0.34779462 0.078376614 75 24
-1.722211 0.12771516 0.039284267 70 23
-1.6743472 0.34692958 0 79 22
-1.7296667 0.12856096 -0.039458349 74 21
-1.6700017 0.3466315 -0.077910781 76 20
-1.7210999 0.12794246 -0.11705674 71 19
-1.6724126 0.34773806 -0.15021856 79 18
-1.7413944 0.1297338 -0.19588861 68 17
-1.6777751 0.34946525 -0.23326153 72 16
-1.7295086 0.12827647 -0.2962811 63 15
-1.6736856 0.35130906 -0.47942099 55 13
-1.7262785 0.12745403 -0.38845521 62 14
-1.6778206 0.35398686 -0.58104342 58 12
-1.726951 0.12395247 -0.6861223 59 11
-1.6749731 0.35877776 -0.89111745 76 9
-1.7321879 0.12254025 -0.79927731 68 10
-1.6318247 0.35269526 -0.98800546 77 8
-0.79285902 0.054197706 -0.51425368 51 7
-0.70658273 0.15351698 -0.52405989 80 6
-0.62692726 0.04116717 -0.50236142 90 5
-0.33782214 0.073429935 -0.29713365 46 4
-0.25201502 0.017318396 -0.23106785 90 3
-0.23453231 0.051057465 -0.2423263 46 2
-0.29484242 0.018465975 -0.34205356 8 1
-0.27575096 0.061442748 -0.34846711 4 0
-1.7280972 0.13002391 0.45309645 56 31
-1.6665592 0.35194898 0.38610229 67 30
-1.7285693 0.13155125 0.32772809 66 29
-1.6631097 0.35062793 0.26039642 74 28
-1.7222366 0.13256559 0.20660573 70 27
-1.6729963 0.35273823 0.16009125 77 26
-1.7331059 0.13398905 0.11851459 71 25
-1.6713474 0.35239458 0.078027233 76 24
-1.726739 0.13410604 0.039400321 72 23
-1.6730645 0.353064 0 79 22
-1.7266921 0.13470876 -0.039400321 74 21
-1.6712242 0.35297796 -0.078027233 76 20
-1.725593 0.13463068 -0.11740204 71 19
-1.6686918 0.3533465 -0.14999503 76 18
-1.7384545 0.13562192 -0.19560429 68 17
-1.676483 0.35561228 -0.23326153 72 16
-1.7265947 0.13412558 -0.29585171 66 15
-1.6771487 0.35815927 -0.48079664 59 13
-1.7257998 0.13378029 -0.38845521 63 14
-1.6719559 0.35884365 -0.579409 55 12
-1.7311304 0.13032098 -0.68799692 58 11
-1.6736469 0.36491442 -0.89111745 75 9
-1.7294925 0.12842181 -0.79821444 68 10
-1.6201388 0.35607746 -0.98153943 47 8
-0.792665 0.056964975 -0.51425368 51 7
-0.70798314 0.15641837 -0.52557451 75 6
-0.63058794 0.043600902 -0.50559199 90 5
-0.34637094 0.076627441 -0.30577129 43 4
-0.25537598 0.018403146 -0.23470671 90 3
-0.23277077 0.05154869 -0.24041823 49 2
-0.29477614 0.019495055 -0.34205356 8 1
-0.28117085 0.063743457 -0.3566184 4 0
-1.7228162 0.13568297 0.45180741 58 31
-1.6653205 0.35776424 0.38610229 67 30
-1.7280996 0.13758428 0.32772809 66 29
-1.6618756 0.35643113 0.26039642 74 28
-1.7168157 0.13818535 0.20599985 68 27
-1.6693845 0.35775951 0.15985337 79 26
-1.7326276 0.14003789 0.11851459 71 25
-1.6774303 0.35980719 0.078376614 76 24
-1.7212775 0.13973525 0.039284267 74 23
-1.671822 0.35890198 0 79 22
-1.7287272 0.14063308 -0.039458349 74 21
-1.669982 0.35880947 -0.078027233 76 20
-1.7176542 0.14005585 -0.1168841 71 19
-1.6699443 0.35940519 -0.15021856 76 18
-1.7330188 0.14129278 -0.19503568 68 17
-1.6752945 0.36116973 -0.23326153 72 16
-1.7285711 0.1403475 -0.2962811 66 15
-1.6711922 0.36298493 -0.47942099 56 13
-1.7229173 0.13930963 -0.38789707 62 14
-1.6730008 0.36518463 -0.58022624 56 12
-1.7260673 0.13570449 -0.6861223 59 11
-1.6702724 0.36998188 -0.88994491 76 9
-1.7245212 0.13411404 -0.7960887 68 10
-1.6126868 0.36004025 -0.97765982 41 8
-0.79865652 0.060176708 -0.51845735 51 7
-0.69970399 0.15699591 -0.51951599 72 6
-0.63234359 0.045820888 -0.50720733 90 5
-0.34787503 0.078185216 -0.30749881 43 4
-0.25189131 0.019033395 -0.23106785 90 3
-0.23417015 0.052693553 -0.2423263 50 2
-0.29470989 0.020472459 -0.34205356 7 1
-0.28095791 0.06467551 -0.3566184 7 0
-1.7223567 0.1413953 0.45180741 58 31
-1.6617459 0.36276203 0.38553864 70 30
-1.7251872 0.14311467 0.32725447 66 29
-1.6630973 0.36246926 0.26078278 74 28
-1.7163481 0.14387777 0.20599985 67 27
-1.6705564 0.36411768 0.16009125 77 26
-1.7346393 0.14598839 0.11868811 71 25
-1.6713494 0.36429781 0.078143694 76 24
-1.7208047 0.14544244 0.039284267 74 23
-1.6706225 0.36444393 0 76 22
-1.7257352 0.14645879 -0.039400321 76 21
-1.6687828 0.36434537 -0.078027233 77 20
-1.7171804 0.14575103 -0.1168841 72 19
-1.6662478 0.36469665 -0.14999503 79 18
-1.7350159 0.14724544 -0.19532 68 17
-1.6764418 0.36754882 -0.23360558 75 16
-1.7256416 0.14587492 -0.29585171 66 15
-1.6699793 0.36852482 -0.47942099 60 13
-1.7224206 0.14532287 -0.38789707 63 14
-1.6740866 0.37124509 -0.58104342 55 12
-1.7232729 0.14154248 -0.68518502 60 11
-1.6689707 0.37580997 -0.88994491 76 9
-1.7218113 0.13965252 -0.79502583 71 10
-1.6072485 0.36471424 -0.97507346 38 8
-0.80051714 0.062980048 -0.5198586 51 7
-0.70302689 0.16033559 -0.52254522 71 6
-0.62837332 0.047756378 -0.5039767 90 5
-0.35287589 0.080646232 -0.31268138 43 4
-0.25695553 0.020255223 -0.23652615 90 3
-0.23241451 0.053131904 -0.24041823 49 2
-0.2976608 0.021688148 -0.34603095 7 1
-0.28635725 0.06703271 -0.36476967 7 0
-1.7194458 0.14720404 0.4511629 58 31
-1.6628467 0.36909133 0.38610229 72 30
-1.7246772 0.14913583 0.32725447 64 29
-1.659411 0.36773482 0.26039642 74 28
-1.7207804 0.15029287 0.20660573 70 27
-1.6741333 0.37103003 0.160567 77 26
-1.726665 0.15139952 0.11816755 72 25
-1.6700675 0.37012967 0.078143694 76 24
-1.72026 0.15174854 0.039284267 74 23
-1.6644603 0.36918426 0 80 22
-1.7252134 0.15248182 -0.039400321 74 21
-1.6649991 0.36991453 -0.077910781 76 20
-1.7166612 0.15174422 -0.1168841 71 19
-1.6698245 0.37159872 -0.15044211 79 18
-1.7319901 0.15338799 -0.19503568 68 17
-1.6775647 0.37394032 -0.23394962 74 16
-1.7226418 0.15198579 -0.29542232 66 15
-1.6709619 0.37517273 -0.48010883 55 13
-1.7219028 0.15133436 -0.38789707 62 14
-1.6658026 0.37580931 -0.57859182 59 12
-1.7204332 0.14766291 -0.68424767 60 11
-1.6698006 0.38212907 -0.89111745 74 9
-1.728053 0.14652565 -0.79821444 67 10
-1.5954809 0.36818168 -0.96860743 38 8
-0.80028093 0.065913677 -0.5198586 59 7
-0.70824224 0.16427985 -0.52708912 76 6
-0.63009679 0.050201897 -0.50559199 90 5
-0.35433507 0.082361214 -0.3144089 43 4
-0.25174865 0.020835388 -0.23106785 90 3
-0.23850341 0.055479698 -0.24805054 49 2
-0.29757932 0.022778984 -0.34603095 7 1
-0.29032591 0.069129921 -0.37088314 8 0
-1.7213008 0.1537165 0.45180741 58 31
-1.6591074 0.37464386 0.38553864 68 30
-1.7216737 0.15523914 0.32678086 66 29
-1.6580521 0.3738144 0.26039642 74 28
-1.7103312 0.15571299 0.20539397 70 27
-1.6703352 0.37661302 0.16032912 77 26
-1.7285824 0.15795048 0.11834107 71 25
-1.6711349 0.37680072 0.078260154 76 24
-1.7172306 0.15752766 0.039226241 74 23
-1.6655339 0.37583581 0 76 22
-1.7221537 0.15857837 -0.039342295 74 21
-1.6636977 0.37572423 -0.077910781 77 20
-1.7136097 0.15780991 -0.11671145 72 19
-1.6660234 0.37716353 -0.15021856 79 18
-1.7289705 0.15920857 -0.19475138 68 17
-1.6785971 0.38063711 -0.23429367 72 16
-1.7270064 0.15844102 -0.2962811 63 15
-1.6649569 0.37992758 -0.47873315 59 13
-1.7189095 0.15742569 -0.38733897 63 14
-1.6667826 0.38215283 -0.579409 58 12
-1.7199073 0.15366744 -0.68424767 60 11
-1.6683888 0.38824663 -0.89111745 74 9
-1.720768 0.15196985 -0.79502583 67 10
-1.5816919 0.37079981 -0.96084821 37 8
-0.80210948 0.068876788 -0.52125984 56 7
-0.7018615 0.16536219 -0.52254522 59 6
-0.63562441 0.052849159 -0.51043797 90 5
-0.36282358 0.085739076 -0.32304651 45 4
-0.25338426 0.021840494 -0.23288728 90 3
-0.23516342 0.055573568 -0.24423438 58 2
-0.30052072 0.024026312 -0.35000831 8 1
-0.29148704 0.070497207 -0.37292096 8 0
-1.7183485 0.15950426 0.4511629 58 31
-1.6601629 0.38098085 0.38610229 68 30
-1.7211212 0.16124795 0.32678086 66 29
-1.6591439 0.38015461 0.26078278 76 28
-1.7097772 0.1616822 0.20539397 70 27
-1.6665853 0.38188234 0.16009125 77 26
-1.7230541 0.1635192 0.11799403 71 25
-1.672243 0.38319269 0.078376614 76 24
-1.7141818 0.16328748 0.039168216 74 23
-1.6642119 0.38164732 0 79 22
-1.7215897 0.16458882 -0.039342295 74 21
-1.6623762 0.38152933 -0.077910781 76 20
-1.7180144 0.16425824 -0.11705674 71 19
-1.6671226 0.38353813 -0.15044211 77 18
-1.7284043 0.16524284 -0.19475138 67 17
-1.6724339 0.38537592 -0.23360558 70 16
-1.7239909 0.16423836 -0.29585171 64 15
-1.6683019 0.38682905 -0.48010883 54 13
-1.7183496 0.16342483 -0.38733897 62 14
-1.6746399 0.39012513 -0.5826779 58 12
-1.7193604 0.15967008 -0.68424767 58 11
-1.6670233 0.39406803 -0.89111745 75 9
-1.7247343 0.15838256 -0.79715157 67 10
nan nan nan 0 8
-0.79773849 0.071321823 -0.51845735 56 7
-0.70128 0.16781114 -0.52254522 47 6
-0.63163263 0.054755561 -0.50720733 90 5
-0.36603031 0.087873898 -0.32650155 49 4
-0.25843474 0.023122136 -0.23834558 90 3
-0.23496799 0.056394104 -0.24423438 63 2
-0.29590201 0.024746273 -0.34404227 7 1
-0.29544806 0.072591774 -0.37903443 8 0
-1.7177812 0.16550145 0.4511629 58 31
-1.658823 0.38677356 0.38610229 72 30
-1.7181045 0.16702083 0.3263073 66 29
-1.6529971 0.38481739 0.26001009 75 28
-1.7092025 0.16764945 0.20539397 71 27
-1.6653098 0.38740683 0.16009125 80 26
-1.7249552 0.16977355 0.11816755 71 25
-1.6684638 0.38845816 0.078260154 76 24
-1.7185767 0.16975439 0.039284267 74 23
-1.6653035 0.3880246 0 77 22
-1.7160594 0.16981174 -0.039226241 74 21
-1.658603 0.38675949 -0.077794321 77 20
-1.7149484 0.17001173 -0.1168841 71 19
-1.6682655 0.38963383 -0.15066564 77 18
-1.7253449 0.17103356 -0.19446707 70 17
-1.6711466 0.3909198 -0.23360558 75 16
-1.7160532 0.16953935 -0.29456353 66 15
-1.6692802 0.39320424 -0.48079664 55 13
-1.7129471 0.16865167 -0.38622272 63 14
-1.6640742 0.39377972 -0.579409 56 12
-1.7188214 0.16537082 -0.68424767 56 11
-1.6657073 0.39959392 -0.89111745 75 9
-1.7219179 0.16419065 -0.7960887 70 10
nan nan nan 0 8
-0.80573344 0.074843653 -0.52406234 58 7
-0.69685751 0.16918351 -0.51951599 49 6
-0.63524985 0.057174459 -0.51043797 90 5
-0.3657369 0.089087203 -0.32650155 49 4
-0.26006564 0.024117112 -0.24016501 90 3
nan nan nan 0 2
-0.2988396 0.025956675 -0.34801963 7 1
-0.29240221 0.072843477 -0.37495875 8 0
-1.7148188 0.17096078 0.45051837 58 31
-1.6599005 0.39283633 0.38666594 71 30
-1.7175412 0.17271735 0.3263073 67 29
-1.654115 0.39086795 0.26039642 74 28
-1.7160449 0.17405717 0.20630279 71 27
-1.6663685 0.39379293 0.16032912 80 26
-1.7243828 0.17549279 0.11816755 71 25
-1.664737 0.3934114 0.078143694 77 24
-1.7130002 0.17525063 0.039168216 74 23
-1.6664398 0.39412335 0 83 22
-1.7229162 0.17655469 -0.039400321 76 21
-1.6621013 0.39370427 -0.078027233 80 20
-1.7143751 0.17569777 -0.1168841 72 19
-1.6620513 0.394299 -0.15021856 79 18
-1.7272085 0.17730525 -0.19475138 70 17
-1.6721802 0.39732632 -0.23394962 74 16
-1.7228022 0.17626999 -0.29585171 67 15
-1.6678975 0.39902872 -0.48079664 60 13
-1.7171974 0.1751174 -0.38733897 62 14
-1.6626896 0.39958605 -0.579409 58 12
-1.7158973 0.17144254 -0.68331033 56 11
-1.6600134 0.40435475 -0.88877243 77 9
-1.7190822 0.16998103 -0.79502583 66 10
nan nan nan 0 8
-0.80752873 0.077847324 -0.52546358 58 7
-0.69237393 0.17077011 -0.5164867 49 6
-0.62933439 0.058994528 -0.50559199 90 5
-0.37066108 0.091767095 -0.33168411 47 4
-0.25655857 0.024781406 -0.23652615 90 3
nan nan nan 0 2
-0.29270166 0.02657108 -0.34006488 7 1
-0.29773492 0.075390533 -0.38311005 8 0
-1.7141808 0.17724475 0.45051837 58 31
-1.653715 0.39777207 0.38553864 72 30
-1.7193384 0.17926233 0.32678086 66 29
-1.6550722 0.39750794 0.26078278 77 28
-1.7153955 0.18034561 0.20630279 70 27
-1.664914 0.39989784 0.16032912 77 26
-1.7237279 0.18181178 0.11816755 71 25
-1.6681386 0.40068308 0.078376614 77 24
-1.7123779 0.18122905 0.039168216 74 23
-1.6674139 0.40081593 0 79 22
-1.7148004 0.18208717 -0.039226241 76 21
-1.6631442 0.4000909 -0.078143694 80 20
-1.708759 0.18146044 -0.11653879 72 19
-1.6605949 0.40038809 -0.15021856 76 18
-1.7290494 0.18359202 -0.19503568 68 17
-1.6683066 0.40286818 -0.23360558 74 16
-1.7172775 0.18177119 -0.29499292 66 15
-1.6641598 0.40427792 -0.48010883 58 13
-1.716544 0.18141006 -0.38733897 62 14
-1.6635792 0.4059507 -0.58022624 59 12
-1.717594 0.17766611 -0.68424767 56 11
-1.6628053 0.41150314 -0.89111745 74 9
-1.7162269 0.17575361 -0.79396296 67 10
nan nan nan 0 8
-0.80725205 0.080665655 -0.52546358 71 7
-0.68406296 0.17122622 -0.51042825 46 6
-0.63482451 0.061718713 -0.51043797 90 5
-0.37733638 0.094871461 -0.3385942 49 4
-0.25305462 0.02537616 -0.23288728 90 3
-0.2312407 0.058027938 -0.24041823 67 2
-0.29109737 0.027467182 -0.3380762 7 1
-0.29746994 0.07642936 -0.38311005 8 0
-1.7159538 0.18348061 0.4511629 56 31
-1.6546818 0.40412322 0.38610229 72 30
-1.7138202 0.1847437 0.32583368 68 29
-1.6512756 0.40269446 0.26039642 77 28
-1.7098205 0.18580322 0.20569691 71 27
-1.6635079 0.40570703 0.16032912 80 26
-1.7255625 0.18809436 0.11834107 71 25
-1.6618792 0.40531385 0.078143694 76 24
-1.70925 0.18693708 0.039110187 74 23
-1.6587211 0.40484613 0 80 22
-1.7166392 0.18834089 -0.039284267 74 21
-1.6568871 0.40470251 -0.077910781 76 20
-1.7105945 0.18769249 -0.11671145 72 19
-1.661605 0.40677741 -0.15044211 79 18
-1.7234592 0.18909162 -0.19446707 68 17
-1.6644858 0.4080964 -0.23326153 74 16
-1.7117352 0.18723592 -0.29413414 66 15
-1.6627384 0.41008446 -0.48010883 54 13
-1.7134774 0.18713976 -0.38678083 63 14
-1.6644446 0.41232637 -0.58104342 54 12
-1.7146585 0.18341748 -0.68331033 56 11
-1.6613588 0.4173049 -0.89111745 74 9
-1.715603 0.18174329 -0.79396296 67 10
-1.1872479 0.29966024 -0.71901965 104 8
-0.81726611 0.084512956 -0.53246975 80 7
-0.68923897 0.17510293 -0.51497209 45 6
-0.63460517 0.063934281 -0.51043797 90 5
-0.38049868 0.097105786 -0.34204921 51 4
-0.25979415 0.026884483 -0.24016501 90 3
-0.23103674 0.058834758 -0.24041823 60 2
-0.29401836 0.028744578 -0.34205356 7 1
-0.29999694 0.078224711 -0.38718569 8 0
-1.7080991 0.18868417 0.44922933 59 31
-1.6508976 0.40930745 0.38553864 74 30
-1.7180449 0.19126111 0.32678086 66 29
-1.6474631 0.40785933 0.26001009 75 28
-1.7116281 0.19204366 0.20599985 70 27
-1.6597384 0.41062039 0.16009125 77 26
-1.7174592 0.19329034 0.11782051 72 25
-1.6653008 0.412319 0.078376614 76 24
-1.7110711 0.19317919 0.039168216 74 23
-1.6621494 0.41184244 0 80 22
-1.7135211 0.19375513 -0.039226241 76 21
-1.6603106 0.41169199 -0.078143694 80 20
-1.709929 0.19366243 -0.11671145 72 19
-1.6578311 0.41168201 -0.15021856 80 18
-1.7252573 0.19538249 -0.19475138 68 17
-1.6679277 0.41481525 -0.23394962 74 16
-1.7184142 0.19402832 -0.29542232 66 15
-1.6659584 0.41705951 -0.4814845 59 13
-1.7080033 0.1922826 -0.38566458 60 14
-1.6607046 0.41755465 -0.58022624 55 12
-1.7140409 0.18910249 -0.68331033 56 11
-1.6599658 0.42281187 -0.89111745 75 9
-1.7172079 0.18797357 -0.79502583 66 10
-1.1758893 0.30092254 -0.71255362 104 8
-0.81696618 0.087365232 -0.53246975 80 7
-0.6790331 0.17487241 -0.50739902 45 6
-0.63818717 0.066416055 -0.51366854 90 5
