# .PCD v0.7 - Point Cloud Data file format
VERSION 0.7
FIELDS x y z intensity ring
SIZE 4 4 4 4 2
TYPE F F F F U
COUNT 1 1 1 1 1
WIDTH 1193
HEIGHT 1
VIEWPOINT 0 0 0 1 0 0 0
POINTS 1193
DATA ascii
0.82779849 -0.090325274 0.12478939 81 28
0.83627063 -0.091284841 0.077072158 11 26
0.8464942 -0.092434116 0.038081951 88 24
0.83990657 -0.091845915 0 10 22
0.83901668 -0.091894485 -0.037732575 45 20
0.84899008 -0.093457066 -0.073544502 35 18
0.83820456 -0.09472958 0.18713279 90 30
0.82502449 -0.092931241 0.12440304 76 28
0.84338021 -0.094911747 0.07778579 12 26
0.84120476 -0.094816044 0.037849031 84 24
0.84206432 -0.095064081 0 10 22
0.83372939 -0.094248585 -0.037499659 46 20
0.84372872 -0.095697798 -0.073097423 49 18
0.83546728 -0.097220682 0.18656914 90 30
0.83206999 -0.096540116 0.12556209 73 28
0.83562988 -0.096975006 0.077072158 20 26
0.83592594 -0.097016282 0.037616115 84 24
0.84422696 -0.098151088 0 9 22
0.83837169 -0.097603314 -0.037732575 50 20
0.83597243 -0.097755305 -0.072426803 74 18
0.83270532 -0.099840008 0.18600549 90 30
0.83417958 -0.099743731 0.12594843 68 28
0.84516734 -0.1010993 0.078023665 28 26
0.84053981 -0.10053971 0.037849031 80 24
0.84139776 -0.10079359 0 10 22
0.83800834 -0.10067545 -0.037732575 64 20
0.83562607 -0.1006728 -0.072426803 83 18
0.83475024 -0.10319662 0.18656914 90 30
0.83135784 -0.10249176 0.12556209 65 28
0.83491457 -0.1029521 0.077072158 33 26
0.83025491 -0.10237125 0.037383199 78 24
0.83606201 -0.10325098 0 11 22
0.83517426 -0.10328704 -0.037616115 70 20
0.83525145 -0.10373485 -0.072426803 90 18
0.83680022 -0.1064235 0.18713279 91 30
0.82854551 -0.10507585 0.12517573 39 28
0.83455014 -0.10586587 0.077072158 36 26
0.83484572 -0.1059103 0.037616115 71 24
0.83817571 -0.10649031 0 13 22
0.83480865 -0.10620171 -0.037616115 74 20
0.84229159 -0.10761575 -0.073097423 86 18
0.82676673 -0.10805533 0.18487819 93 30
0.86704916 -0.00051544246 0.16054887 36 29
0.82572532 -0.10764156 0.12478939 18 28
0.8366614 -0.1089606 0.077310033 36 26
0.83199549 -0.1084944 0.037499659 68 24
0.83284271 -0.10875502 0 20 22
0.83690822 -0.10944537 -0.037732575 74 20
0.83699405 -0.10974795 -0.072650343 88 18
0.82881701 -0.11112652 0.18544184 90 30
0.86213326 -0.0033855373 0.15960167 44 29
0.82536376 -0.11037918 0.12478939 11 28
0.86621565 -0.0041213729 0.10148522 9 27
0.83627594 -0.11188044 0.077310033 44 26
0.8291567 -0.11091518 0.037383199 63 24
0.83990842 -0.11253151 0 25 22
0.83406645 -0.11188156 -0.037616115 74 20
0.8390727 -0.11300774 -0.072873883 85 18
0.83566004 -0.11503462 0.18713279 90 30
0.84984261 -0.0063392268 0.1572337 48 29
0.81763506 -0.11223213 0.12363035 9 28
0.8587513 -0.0071047251 0.10057639 10 27
0.82848644 -0.11376371 0.076596409 69 26
0.82629138 -0.11346252 0.037266739 56 24
0.82960737 -0.11407439 0 32 22
0.83614385 -0.11513945 -0.037732575 66 20
0.84113872 -0.11628336 -0.073097423 84 18
0.83282208 -0.1177493 0.18656914 90 30
0.85717767 -0.0095144212 0.15865448 54 29
0.81966317 -0.11557961 0.1240167 11 28
0.85127515 -0.010184593 0.099667571 38 27
0.83299065 -0.1175077 0.077072158 84 26
0.8382293 -0.11826688 0.037849031 46 24
0.83660722 -0.1181827 0 34 22
0.8332445 -0.11784711 -0.037616115 65 20
0.83824253 -0.11900907 -0.072873883 83 18
0.83722496 -0.12136728 0.18769644 90 30
0.85713923 -0.012506472 0.15865448 56 29
0.8192547 -0.11844006 0.1240167 11 28
0.84875304 -0.013124853 0.099364631 41 27
0.83013421 -0.11990708 0.076834284 90 26
0.86278862 -0.013596376 0.05760885 13 25
0.83534068 -0.12082817 0.037732575 30 24
0.82629657 -0.11964317 0 35 22
0.83282804 -0.12075496 -0.037616115 63 20
0.83045387 -0.12069432 -0.072203271 83 18
0.83681786 -0.12414295 0.18769644 90 30
0.8595475 -0.015385624 0.15912808 58 29
0.81153023 -0.12005194 0.12285766 15 28
0.84622359 -0.015899936 0.09906169 44 27
0.8321715 -0.12317492 0.077072158 90 26
0.86772603 -0.01653837 0.057955891 40 25
0.83246607 -0.12322547 0.037616115 15 24
0.8670103 -0.0168234 0.019322986 9 23
0.82342327 -0.12200963 0 43 22
0.83983082 -0.12463505 -0.037965491 55 20
0.83495122 -0.1243388 -0.072650343 81 18
0.82915837 -0.12594666 0.18600549 90 30
0.85948855 -0.018385909 0.15912808 60 29
0.82331169 -0.12476695 0.12478939 19 28
0.85360622 -0.01899793 0.099970512 45 27
0.82927692 -0.12569955 0.076834284 90 26
0.87015653 -0.019616382 0.058129411 48 25
0.834499 -0.12651132 0.037732575 10 24
0.8544488 -0.019748053 0.019032851 10 23
0.82546306 -0.12526476 0 70 22
0.83196473 -0.12656622 -0.037616115 56 20
0.82959104 -0.126489 -0.072203271 83 18
0.83590806 -0.13012786 0.18769644 90 30
0.85205299 -0.02137275 0.15770729 61 29
0.81309003 -0.12624155 0.123244 28 28
0.84856904 -0.022012092 0.099364631 33 27
0.82389438 -0.12796125 0.076358527 90 26
0.8625989 -0.022630569 0.05760885 55 25
0.82662964 -0.12839969 0.037383199 10 24
0.85437465 -0.022730514 0.019032851 39 23
0.82746768 -0.12868007 0 81 22
0.86935824 -0.023389898 -0.019381013 11 21
0.83151788 -0.12946953 -0.037616115 46 20
0.82912183 -0.12952873 -0.072203271 83 18
0.83304447 -0.13265552 0.18713279 90 30
0.85688108 -0.024472786 0.15865448 64 29
0.82483619 -0.13104925 0.12517573 29 28
0.85096782 -0.025039842 0.099667571 25 27
0.8234427 -0.1308364 0.076358527 90 26
0.86750078 -0.025775511 0.057955891 56 25
0.83110702 -0.13208117 0.037616115 10 24
0.85429013 -0.025712702 0.019032851 44 23
0.82701349 -0.13156769 0 85 22
0.8642745 -0.026286555 -0.019264959 20 21
0.83352596 -0.13277055 -0.037732575 30 20
0.8311224 -0.13282153 -0.072426803 81 18
0.83257633 -0.13556258 0.18713279 90 30
0.85679036 -0.02746371 0.15865448 63 29
0.8146258 -0.13231742 0.12363035 35 28
0.8508752 -0.028010121 0.099667571 11 27
0.82789171 -0.13452116 0.076834284 88 26
0.86491269 -0.02872777 0.057782371 61 25
0.83064091 -0.13498148 0.037616115 10 24
0.85419512 -0.028694572 0.019032851 46 23
0.82408261 -0.13404581 0 86 22
0.86917377 -0.029458545 -0.019381013 45 21
0.83798492 -0.13649504 -0.037965491 16 20
0.85494131 -0.029022336 -0.05680187 9 19
0.82819736 -0.1353139 -0.072203271 64 18
0.83209807 -0.138468 0.18713279 90 30
0.84687561 -0.030133888 0.1567601 63 29
0.81172347 -0.13474911 0.123244 41 28
0.8507722 -0.03098006 0.099667571 8 27
0.82496309 -0.13699603 0.076596409 86 26
0.86480719 -0.031746704 0.057782371 63 25
0.82277727 -0.13663331 0.037266739 11 24
0.85908544 -0.03184706 0.019148905 49 23
0.83100492 -0.13817105 0 90 22
0.86406994 -0.032319639 -0.019264959 50 21
0.83011645 -0.13816991 -0.037616115 11 20
0.85732734 -0.032092631 -0.056974523 23 19
0.83262974 -0.1390371 -0.072650343 53 18
0.82440937 -0.14012802 0.18544184 85 30
0.85412467 -0.033355851 0.15818089 58 29
0.82098448 -0.13926001 0.12478939 45 28
0.84817898 -0.033857822 0.099364631 8 27
0.82693231 -0.14029761 0.076834284 73 26
0.86469102 -0.034765251 0.057782371 66 25
0.8296783 -0.14077711 0.037616115 14 24
0.85896909 -0.034845632 0.019148905 28 23
0.82805395 -0.14064586 0 90 22
0.86145437 -0.035240538 -0.019206932 61 21
0.82962906 -0.14106672 -0.037616115 11 20
0.83976454 -0.034420975 -0.055765972 44 19
0.82968593 -0.14151756 -0.072426803 59 18
0.86375719 -0.035340387 -0.094959065 11 17
0.82391524 -0.14300488 0.18544184 79 30
0.84664458 -0.036045413 0.1567601 59 29
0.81806082 -0.14169689 0.12440304 46 28
0.84061706 -0.036516942 0.098455809 8 27
0.82646263 -0.14303905 0.076834284 65 26
0.8595807 -0.037579723 0.05743533 66 25
0.82918185 -0.14367236 0.037616115 20 24
0.86633384 -0.038152535 0.019322986 20 23
0.82755798 -0.14353547 0 90 22
0.85633832 -0.037890323 -0.019090878 69 21
0.81929421 -0.1422272 -0.037150279 11 20
0.84462303 -0.037559226 -0.056111272 46 19
0.8243081 -0.14340165 -0.071979731 68 18
0.87107348 -0.03866468 -0.095811993 25 17
0.82823092 -0.14659809 0.18656914 68 30
0.85142541 -0.039063513 0.15770729 54 29
0.81515533 -0.14397275 0.1240167 49 28
0.8380121 -0.039195653 0.098152868 8 27
0.82840782 -0.14636248 0.077072158 60 26
0.86194283 -0.040540077 0.05760885 68 25
0.8287009 -0.14642124 0.037616115 28 24
0.85870486 -0.040841468 0.019148905 13 23
0.83199871 -0.14716266 0 85 22
0.85869771 -0.04099134 -0.019148905 70 21
0.82616627 -0.14641291 -0.037499659 11 20
0.84947681 -0.040583555 -0.056456573 48 19
0.82870346 -0.14716174 -0.072426803 74 18
0.86100817 -0.041257832 -0.094674759 45 17
0.82289684 -0.14875337 0.18544184 49 30
0.84392023 -0.041840833 0.15628651 51 29
0.8146221 -0.14695948 0.1240167 89 28
0.84777796 -0.042737909 0.099364631 9 27
0.83031368 -0.14984615 0.077310033 54 26
0.86178845 -0.043698985 0.05760885 65 25
0.82570225 -0.14900765 0.037499659 35 24
0.85106778 -0.043477613 0.018974824 9 23
0.82653576 -0.14930937 0 81 22
0.86103809 -0.044259574 -0.019206932 68 21
0.8207376 -0.14839426 -0.037266739 13 20
0.8518135 -0.043817736 -0.056629222 49 19
0.82815856 -0.1501981 -0.072426803 75 18
0.86582065 -0.044503994 -0.095243372 51 17
0.82476664 -0.15207295 0.18600549 43 30
0.84622073 -0.044909317 0.1567601 49 29
0.8141042 -0.14980216 0.1240167 90 28
0.84762365 -0.045696948 0.099364631 10 27
0.82489288 -0.15182972 0.076834284 50 26
0.86163068 -0.046706919 0.05760885 64 25
0.83008671 -0.15280601 0.037732575 38 24
0.85340685 -0.046577193 0.019032851 8 23
0.81617987 -0.1503558 0 81 22
0.86087841 -0.047264885 -0.019206932 71 21
0.832488 -0.15355515 -0.037849031 14 20
0.84916472 -0.046661191 -0.056456573 26 19
0.82273465 -0.15216936 -0.071979731 80 18
0.87310129 -0.047913376 -0.0960963 65 17
0.82901573 -0.15586376 0.18713279 31 30
0.84605879 -0.047862906 0.1567601 48 29
0.81114984 -0.152181 0.12363035 90 28
0.84745896 -0.048655428 0.099364631 10 27
0.83416414 -0.15642451 0.07778579 40 26
0.85648203 -0.049441069 0.057261806 66 25
0.82464188 -0.15476847 0.037499659 40 24
0.85573459 -0.049693625 0.019090878 8 23
0.81319422 -0.15273586 0 76 22
0.85073489 -0.049566563 -0.018974824 76 21
0.82458776 -0.15505631 -0.037499659 20 20
0.84650642 -0.049486697 -0.056283921 19 19
0.82222551 -0.15489681 -0.071979731 83 18
0.87044871 -0.050822999 -0.095811993 70 17
0.82371241 -0.15768339 0.18600549 25 30
0.84834617 -0.050807867 0.1572337 46 29
0.81549048 -0.1558101 0.12440304 90 28
0.8472929 -0.051465437 0.099364631 13 27
0.83116984 -0.15886176 0.077547915 23 26
0.85880309 -0.052425861 0.05743533 66 25
0.82657576 -0.15797745 0.037616115 40 24
0.85556507 -0.052531071 0.019090878 8 23
0.81513751 -0.15590784 0 65 22
0.86303169 -0.053270474 -0.019264959 69 21
0.82897198 -0.15874203 -0.037732575 28 20
0.84633768 -0.052293539 -0.056283921 11 19
0.82656801 -0.1587179 -0.072426803 81 18
0.87275493 -0.053855233 -0.0960963 71 17
0.82554626 -0.16103038 0.18656914 26 30
0.85061389 -0.053916987 0.15770729 40 29
0.81494164 -0.15865575 0.12440304 90 28
0.85206193 -0.054726582 0.099970512 15 27
0.82572728 -0.16079791 0.077072158 15 26
0.85861486 -0.055423327 0.05743533 63 25
0.81621933 -0.15892665 0.037150279 51 24
0.85536677 -0.055666521 0.019090878 9 23
0.81458831 -0.15875225 0 63 22
0.85535705 -0.055815812 -0.019090878 71 21
0.82593489 -0.16129427 -0.037616115 33 20
0.8361932 -0.054626301 -0.055593323 9 19
0.82845134 -0.1620867 -0.072650343 85 18
0.87255168 -0.057053681 -0.0960963 66 17
0.82017535 -0.16309224 0.18544184 28 30
0.84306145 -0.056562897 0.15628651 34 29
0.81193328 -0.16115423 0.1240167 90 28
0.84442663 -0.057366159 0.09906169 23 27
0.83245158 -0.16529642 0.07778579 11 26
0.86089462 -0.05873261 0.05760885 61 25
0.82297599 -0.16339546 0.037499659 80 24
0.85516727 -0.058651973 0.019090878 9 23
0.81645173 -0.16223051 0 56 22
0.86013454 -0.059280016 -0.019206932 70 21
0.82781482 -0.16466992 -0.037732575 35 20
0.83598739 -0.057690736 -0.055593323 6 19
0.82541108 -0.1646286 -0.072426803 89 18
0.8748256 -0.060262851 -0.096380606 66 17
0.81244349 -0.16448495 0.18375088 31 30
0.85020638 -0.060002416 0.15770729 23 29
0.81620514 -0.16497904 0.12478939 90 28
0.84669697 -0.060483065 0.099364631 26 27
0.81970841 -0.16556033 0.076596409 10 26
0.86068428 -0.061737332 0.05760885 59 25
0.8199541 -0.16576588 0.037383199 90 24
0.84997064 -0.061291501 0.018974824 10 23
0.81832945 -0.16558173 0 44 22
0.85743988 -0.061958961 -0.019148905 70 21
0.81989622 -0.16605209 -0.037383199 38 20
0.84573299 -0.061300948 -0.056283921 6 19
0.82486063 -0.16736484 -0.072426803 90 18
0.87213206 -0.063143797 -0.0960963 69 17
0.81904626 -0.16867116 0.18544184 40 30
0.84020841 -0.062126283 0.15581292 11 29
0.8059814 -0.16566941 0.123244 90 28
0.84154135 -0.062934764 0.09875875 39 27
0.82399815 -0.16943592 0.077072158 10 26
0.85549992 -0.064231902 0.057261806 59 25
0.82917899 -0.17052166 0.037849031 90 24
0.84976268 -0.064109765 0.018974824 11 23
0.82022333 -0.1688049 0 26 22
0.85472566 -0.064769872 -0.019090878 71 21
0.82423019 -0.16979057 -0.037616115 39 20
0.84055018 -0.063742451 -0.055938624 8 19
0.82427138 -0.17024311 -0.072426803 90 18
0.86696345 -0.065674327 -0.095527679 69 17
0.8136875 -0.17051719 0.18431453 48 30
0.8399865 -0.065058783 0.15581292 9 29
0.80539823 -0.16848181 0.123244 90 28
0.84131658 -0.065871902 0.09875875 46 27
0.81853259 -0.17127889 0.076596409 13 26
0.85029674 -0.066841163 0.056914765 53 25
0.81880677 -0.17134325 0.037383199 90 24
0.84702992 -0.067033865 0.018916797 14 23
0.82452017 -0.17270483 0 16 22
0.8569864 -0.067943461 -0.019148905 69 21
0.81871694 -0.17177194 -0.037383199 51 20
0.84778291 -0.067246243 -0.056456573 9 19
0.83341366 -0.17519352 -0.073320962 90 18
0.86919349 -0.069041148 -0.095811993 69 17
0.81543767 -0.17401306 0.18487819 49 30
0.837295 -0.067945734 0.15533932 9 29
0.80477524 -0.17143261 0.123244 90 28
0.83612174 -0.068563908 0.098152868 56 27
0.81789929 -0.17427781 0.076596409 14 26
0.85750455 -0.070549443 0.05743533 38 25
0.82549644 -0.17592382 0.037732575 90 24
0.84679073 -0.069990143 0.018916797 20 23
0.82388163 -0.1757257 0 13 22
0.84925765 -0.070485301 -0.018974824 70 21
0.8205533 -0.1751565 -0.037499659 84 20
0.84753072 -0.070353076 -0.056456573 10 19
0.83033246 -0.17771949 -0.073097423 90 18
0.87142307 -0.07227312 -0.0960963 66 17
0.8148253 -0.17685843 0.18487819 50 30
0.84439248 -0.071467593 0.1567601 9 29
0.80658442 -0.1747703 0.12363035 86 28
0.83587736 -0.0714821 0.098152868 65 27
0.81971675 -0.17766531 0.076834284 19 26
0.85228217 -0.073130079 0.057088286 26 25
0.81999898 -0.17773348 0.037499659 90 24
0.85401344 -0.073567763 0.019090878 23 23
0.8208214 -0.17806409 0 11 22
0.85647827 -0.074074134 -0.019148905 64 21
0.82237589 -0.17855595 -0.037616115 90 20
0.84976536 -0.07351891 -0.056629222 11 19
0.82970703 -0.1806168 -0.073097423 90 18
0.86374003 -0.07469359 -0.095243372 69 17
0.82133383 -0.18129556 0.18656914 64 30
0.83680034 -0.073789448 0.15533932 10 29
0.8107909 -0.17866069 0.12440304 78 28
0.84304005 -0.075037919 0.09906169 76 27
0.81180489 -0.17889944 0.076120645 23 26
0.84953701 -0.0758899 0.056914765 20 25
0.81937361 -0.18059473 0.037499659 90 24
0.8437916 -0.075684018 0.01885877 38 23
0.82751459 -0.18256301 0 11 22
0.85870445 -0.077280313 -0.019206932 63 21
0.81931049 -0.18088073 -0.037499659 90 20
0.84950358 -0.076484695 -0.056629222 13 19
0.83150131 -0.18405637 -0.073320962 90 18
0.86842287 -0.07813938 -0.095811993 70 17
0.81594586 -0.18308224 0.18544184 90 30
0.84387308 -0.077360772 0.1567601 11 29
0.81016237 -0.1814898 0.12440304 75 28
0.84524459 -0.078201674 0.099364631 76 27
0.81360251 -0.18228261 0.076358527 33 26
0.85175085 -0.079078302 0.057088286 13 25
0.81873822 -0.18345378 0.037499659 90 24
0.84352225 -0.078628935 0.01885877 56 23
0.82687223 -0.18545045 0 11 22
0.85594028 -0.080051623 -0.019148905 58 21
0.81867409 -0.18373956 -0.037499659 90 20
0.84426367 -0.078999199 -0.056283921 15 19
0.82599807 -0.18585187 -0.072873883 90 18
0.86072385 -0.080497511 -0.094959065 71 17
0.82004821 -0.1870251 0.18656914 90 30
0.84604216 -0.080531433 0.1572337 13 29
0.81193072 -0.18487146 0.12478939 73 28
0.8375538 -0.080461398 0.098455809 79 27
0.81053609 -0.18456252 0.076120645 36 26
0.85395271 -0.082283095 0.057261806 10 25
0.82052624 -0.1868715 0.037616115 83 24
0.85070783 -0.082273312 0.019032851 66 23
0.81891173 -0.1866498 0 16 22
0.85067904 -0.082570255 -0.019032851 40 21
0.81559438 -0.18603437 -0.037383199 90 20
0.83653373 -0.081244223 -0.055765972 23 19
0.81806672 -0.18704984 -0.072203271 90 18
0.86785614 -0.084200151 -0.095811993 68 17
0.8122766 -0.18821791 0.18487819 92 30
0.8506431 -0.083952174 0.15818089 18 29
0.80406564 -0.18601494 0.12363035 49 28
0.83973795 -0.083623223 0.09875875 75 27
0.81957942 -0.18966046 0.077072158 39 26
0.84124869 -0.084059596 0.056394204 10 25
0.81743753 -0.18916512 0.037499659 79 24
0.85041547 -0.085242331 0.019032851 73 23
0.82555741 -0.19121854 0 20 22
0.85038573 -0.085539177 -0.019032851 26 21
0.81250876 -0.18830992 -0.037266739 90 20
0.84120941 -0.084648788 -0.056111272 25 19
0.82225651 -0.19104399 -0.072650343 89 18
0.86755699 -0.087229028 -0.095811993 69 17
0.81161457 -0.19105215 0.18487819 95 30
0.85278749 -0.087163493 0.15865448 24 29
0.80100852 -0.18824896 0.123244 29 28
0.8369717 -0.086306617 0.098455809 79 27
0.81894594 -0.19237725 0.077072158 39 26
0.84591311 -0.087494455 0.056741245 10 25
0.81434268 -0.19143946 0.037383199 73 24
0.84762603 -0.087959476 0.018974824 78 23
0.81758875 -0.19236228 0 26 22
0.8426373 -0.087604873 -0.01885877 20 21
0.82399303 -0.19403869 -0.037849031 88 20
0.83842736 -0.087333471 -0.055938624 45 19
0.81919652 -0.19319174 -0.072426803 85 18
0.86230487 -0.089756556 -0.095243372 71 17
0.80860919 -0.1931702 0.18431453 95 30
0.84516805 -0.089239083 0.1572337 29 29
0.80758297 -0.19264279 0.12440304 19 28
0.83914936 -0.089337163 0.09875875 73 27
0.82068861 -0.19581863 0.077310033 39 26
0.84809893 -0.090556785 0.056914765 10 25
0.80884814 -0.19296697 0.037150279 69 24
0.84732968 -0.09076982 0.018974824 79 23
0.82423669 -0.19683348 0 33 22
0.84978372 -0.091325544 -0.019032851 13 21
0.82091761 -0.19618328 -0.037732575 85 20
0.84309423 -0.090632118 -0.056283921 59 19
0.81851721 -0.19605012 -0.072426803 88 18
0.86447281 -0.092873901 -0.095527679 68 17
0.81029534 -0.19657215 0.18487819 92 30
0.83752835 -0.091411293 0.15581292 32 29
0.80930459 -0.19604851 0.12478939 15 28
0.83883232 -0.092265792 0.09875875 71 27
0.81758296 -0.19808982 0.077072158 60 26
0.8552168 -0.094315611 0.05743533 11 25
0.80816966 -0.19578919 0.037150279 66 24
0.84947616 -0.094143026 0.019032851 79 23
0.81383246 -0.19732745 0 33 22
0.84200519 -0.093485415 -0.01885877 10 21
0.82019305 -0.19919077 -0.037732575 76 20
0.84773189 -0.094110623 -0.056629222 68 19
0.82024574 -0.19950086 -0.072650343 83 18
0.8591879 -0.095506951 -0.094959065 69 17
0.81429601 -0.20071919 0.18600549 90 30
0.83474761 -0.094212279 0.15533932 35 29
0.8109774 -0.19961014 0.12517573 13 28
0.83602202 -0.095066473 0.098455809 70 27
0.80719161 -0.19868021 0.076120645 86 26
0.84990788 -0.09689869 0.057088286 11 25
0.80259997 -0.19754337 0.036917362 66 24
0.8541103 -0.097661398 0.019148905 79 23
0.81552958 -0.20091335 0 38 22
0.84414071 -0.096848615 -0.018916797 10 21
0.81949276 -0.20205256 -0.037732575 71 20
0.84490269 -0.096939944 -0.056456573 76 19
0.81709331 -0.20190223 -0.072426803 81 18
0.85884929 -0.098505504 -0.094959065 68 17
0.81359041 -0.2035604 0.18600549 90 30
0.83441371 -0.097125523 0.15533932 46 29
0.81027573 -0.20243976 0.12517573 13 28
0.83321959 -0.097702369 0.098152868 69 27
0.8089413 -0.20196509 0.076358527 90 26
0.84460908 -0.099296719 0.056741245 13 25
0.81643277 -0.20401432 0.037616115 41 24
0.84631532 -0.099785611 0.018974824 78 23
0.81967074 -0.20498453 0 38 22
0.84381491 -0.099647358 -0.018916797 10 21
0.81878245 -0.20491189 -0.037732575 68 20
0.84208155 -0.099602818 -0.056283921 81 19
0.81400555 -0.20399904 -0.072203271 81 18
0.85850024 -0.10150284 -0.094959065 69 17
0.8105517 -0.20565194 0.18544184 90 30
0.83408707 -0.099891998 0.15533932 50 29
0.8000291 -0.20267358 0.12363035 18 28
0.83782017 -0.1010448 0.09875875 65 27
0.80582052 -0.20416993 0.076120645 90 26
0.83932149 -0.10151245 0.056394204 15 25
0.81091344 -0.20548102 0.037383199 31 24
0.84846175 -0.10288531 0.019032851 76 23
0.81414306 -0.20645978 0 41 22
0.85338956 -0.10377073 -0.019148905 11 21
0.81326061 -0.2063847 -0.037499659 61 20
0.84422326 -0.10268872 -0.056456573 80 19
0.81087703 -0.20621914 -0.071979731 85 18
0.85322601 -0.10376358 -0.094390452 70 17
0.81218594 -0.20909357 0.18600549 90 30
0.84104472 -0.10368251 0.1567601 63 29
0.80887896 -0.2079504 0.12517573 21 28
0.83007169 -0.10307305 0.097849928 63 27
0.80751163 -0.2076076 0.076358527 90 26
0.84143782 -0.10474253 0.056567725 16 25
0.81260824 -0.2089386 0.037499659 23 24
0.84559804 -0.10569152 0.018974824 75 23
0.81825644 -0.21055907 0 65 22
0.8430987 -0.10553581 -0.018916797 11 21
0.81974864 -0.21125253 -0.037849031 54 20
0.83890843 -0.10502969 -0.056111272 81 19
0.81497103 -0.21030533 -0.072426803 78 18
0.86023605 -0.10779562 -0.095243372 70 17
0.81376898 -0.21269113 0.18656914 90 30
0.84309512 -0.10706653 0.1572337 69 29
0.79855829 -0.20839325 0.12363035 24 28
0.83953804 -0.10734507 0.09906169 37 27
0.80915159 -0.21120076 0.076596409 90 26
0.83362448 -0.10689589 0.056047164 20 25
0.80459297 -0.21000431 0.037150279 18 24
0.84522396 -0.10864257 0.018974824 73 23
0.81022775 -0.21164215 0 84 22
0.84766573 -0.10924999 -0.019032851 12 21
0.8165918 -0.21347477 -0.037732575 49 20
0.84099239 -0.10841545 -0.056283921 79 19
0.80938059 -0.21201631 -0.071979731 78 18
0.85492593 -0.11017687 -0.094674759 69 17
0.80831629 -0.21426965 0.18544184 87 30
0.83784628 -0.10938755 0.15628651 79 29
0.80498421 -0.21309482 0.12478939 30 28
0.83423555 -0.1096426 0.098455809 33 27
0.80604261 -0.21323998 0.076358527 90 26
0.8431403 -0.11107963 0.056741245 19 25
0.81832951 -0.21668461 0.037849031 16 24
0.84731829 -0.11191246 0.019032851 69 23
0.81431389 -0.21576233 0 90 22
0.84482002 -0.11173975 -0.018974824 16 21
0.80860507 -0.21438488 -0.037383199 35 20
0.8455556 -0.11199111 -0.056629222 76 19
0.81107801 -0.21534444 -0.072203271 80 18
0.86192578 -0.11411756 -0.095527679 70 17
0.80525082 -0.21631075 0.18487819 85 30
0.8447808 -0.11312146 0.15770729 74 29
0.79950535 -0.21447036 0.1240167 39 28
0.83878797 -0.11305709 0.09906169 29 27
0.80769521 -0.21670353 0.076596409 89 26
0.8427673 -0.11387496 0.056741245 44 25
0.81037575 -0.21743661 0.037499659 16 24
0.84942013 -0.11505005 0.019090878 65 23
0.81359392 -0.2184615 0 90 22
0.8444249 -0.11468803 -0.018974824 18 21
0.81993991 -0.22033681 -0.037965491 20 20
0.84023494 -0.11413734 -0.056283921 78 19
0.81272399 -0.21882799 -0.072426803 76 18
0.86154258 -0.11697518 -0.095527679 69 17
0.79744595 -0.21718113 0.18318723 86 30
0.83951515 -0.11541522 0.1567601 71 29
0.79875177 -0.21725985 0.1240167 41 28
0.82855165 -0.11465262 0.097849928 24 27
0.80693382 -0.21952158 0.076596409 83 26
0.83989334 -0.11648063 0.056567725 50 25
0.80720377 -0.21960211 0.037383199 17 24
0.84403992 -0.11748761 0.018974824 61 23
0.81764734 -0.22262625 0 89 22
0.84401935 -0.11763494 -0.018974824 20 21
0.81671917 -0.22267742 -0.037849031 12 20
0.83983135 -0.11706962 -0.056283921 73 19
0.80955487 -0.22100154 -0.072203271 78 18
0.85618621 -0.11945966 -0.094959065 71 17
0.80837405 -0.22337741 0.18600549 67 30
0.84151804 -0.11882752 0.1572337 73 29
0.79795015 -0.22018597 0.1240167 44 28
0.82566792 -0.1173467 0.097546987 25 27
0.80372673 -0.22180928 0.076358527 84 26
0.84687102 -0.12059173 0.057088286 60 25
0.80398792 -0.22188845 0.037266739 23 24
0.84857512 -0.12112537 0.019090878 34 23
0.81682587 -0.22562158 0 90 22
0.83863235 -0.12003368 -0.01885877 23 21
0.80872107 -0.22351223 -0.037499659 11 20
0.83939666 -0.12014697 -0.056283921 75 19
0.80873942 -0.22396722 -0.072203271 78 18
0.86314321 -0.12348203 -0.095811993 71 17
0.80524582 -0.22553463 0.18544184 33 30
0.83380693 -0.12073045 0.15581292 74 29
0.79004604 -0.22095488 0.12285766 45 28
0.83262342 -0.12127965 0.098455809 29 27
0.80298674 -0.22447334 0.076358527 76 26
0.84397608 -0.12319401 0.056914765 63 25
0.81282121 -0.22741003 0.037732575 23 24
0.83330303 -0.12195823 0.018742716 26 23
0.8136276 -0.22779118 0 90 22
0.85059941 -0.12458992 -0.019148905 25 21
0.81274176 -0.22769375 -0.037732575 10 20
0.84637815 -0.12414086 -0.05680187 68 19
0.80799228 -0.22664788 -0.072203271 76 18
0.85533142 -0.125434 -0.094959065 75 17
0.79981071 -0.22686179 0.18431453 20 30
0.83826053 -0.12420011 0.1567601 69 29
0.79643291 -0.2256123 0.1240167 45 28
0.83221662 -0.12404006 0.098455809 34 27
0.80459082 -0.22795959 0.076596409 76 26
0.83862758 -0.12526941 0.056567725 69 25
0.81446356 -0.23079129 0.037849031 26 24
0.84031254 -0.12580973 0.018916797 20 23
0.81286782 -0.230488 0 90 22
0.84026861 -0.12610304 -0.018916797 51 21
0.80958158 -0.22969972 -0.037616115 11 20
0.84349442 -0.12658383 -0.056629222 66 19
0.80240965 -0.22809257 -0.071756192 79 18
0.85982543 -0.1289928 -0.095527679 71 17
0.80135298 -0.23033138 0.18487819 13 30
0.83782184 -0.12712543 0.1567601 64 29
0.79089594 -0.22701524 0.123244 79 28
0.83177859 -0.12694429 0.098455809 36 27
0.80140007 -0.23007371 0.076358527 75 26
0.84311795 -0.12893586 0.056914765 61 25
0.80166048 -0.23015556 0.037266739 33 24
0.83490282 -0.12814477 0.018800743 16 23
0.80245429 -0.23053747 0 86 22
0.84476614 -0.12978026 -0.019032851 65 21
0.81113237 -0.23336215 -0.037732575 13 20
0.83811504 -0.12878409 -0.056283921 59 19
0.80399942 -0.23158763 -0.071979731 80 18
0.85443485 -0.13140224 -0.094959065 74 17
0.79583037 -0.23189159 0.18375088 15 30
0.83249694 -0.12945528 0.15581292 61 29
0.79242826 -0.23060904 0.12363035 90 28
0.82885486 -0.12961583 0.098152868 43 27
0.79816371 -0.2323076 0.076120645 74 26
0.83770972 -0.13126725 0.056567725 53 25
0.80320746 -0.23379649 0.037383199 33 24
0.83198023 -0.1306777 0.018742716 13 23
0.8040024 -0.23418252 0 83 22
0.84428477 -0.13287559 -0.019032851 69 21
0.81031287 -0.23619211 -0.037732575 16 20
0.83024299 -0.13071299 -0.055765972 30 19
0.80553347 -0.23523715 -0.072203271 78 18
0.85397094 -0.13438398 -0.094959065 75 17
0.79735017 -0.23536398 0.18431453 16 30
0.82718927 -0.13160345 0.15486573 54 29
0.78925127 -0.23266894 0.123244 90 28
0.82839733 -0.13250828 0.098152868 44 27
0.80688876 -0.23793291 0.077072158 60 26
0.84463745 -0.1353533 0.057088286 45 25
0.80238652 -0.2365988 0.037383199 34 24
0.83892548 -0.13474883 0.018916797 13 23
0.8031801 -0.23698756 0 76 22
0.84381586 -0.13582191 -0.019032851 81 21
0.80230385 -0.23687887 -0.037383199 20 20
0.83470851 -0.13438886 -0.056111272 25 19
0.80470747 -0.23804756 -0.072203271 80 18
0.86085671 -0.13852715 -0.095811993 71 17
0.80351877 -0.24025774 0.18600549 19 30
0.82430077 -0.1341031 0.15439212 53 29
0.79552871 -0.23756175 0.12440304 90 28
0.81812882 -0.13382576 0.096941099 50 27
0.79656392 -0.23773511 0.076120645 40 26
0.84169745 -0.13790466 0.056914765 39 25
0.79677373 -0.23795627 0.037150279 35 24
0.83351511 -0.13688067 0.018800743 13 23
0.79756105 -0.23834541 0 76 22
0.84336078 -0.13861935 -0.019032851 84 21
0.81103492 -0.24256517 -0.037849031 24 20
0.82684809 -0.13610806 -0.055593323 18 19
0.80868053 -0.24215579 -0.072650343 78 18
0.86772376 -0.14272 -0.096664913 73 17
0.80271757 -0.24292098 0.18600549 23 30
0.82869703 -0.13762584 0.15533932 48 29
0.79001164 -0.23875669 0.12363035 90 28
0.81768054 -0.13653803 0.096941099 55 27
0.79810965 -0.24124058 0.076358527 36 26
0.85107946 -0.14231236 0.05760885 34 25
0.7912032 -0.23913939 0.036917362 38 24
0.82563406 -0.13856989 0.018626662 15 23
0.79915732 -0.24171901 0 70 22
0.84533775 -0.14196929 -0.019090878 84 21
0.80301875 -0.24320433 -0.037499659 30 20
0.83131367 -0.13966134 -0.055938624 11 19
0.80068755 -0.24279065 -0.071979731 78 18
0.87702256 -0.1473673 -0.097802147 75 17
0.79716843 -0.24442099 0.18487819 30 30
0.82818699 -0.14066225 0.15533932 38 29
0.79149109 -0.2423802 0.1240167 90 28
0.81717467 -0.13953407 0.096941099 60 27
0.79959762 -0.24489924 0.076596409 34 26
0.84317368 -0.14419074 0.057088286 29 25
0.79747897 -0.2442506 0.037266739 64 24
0.81775147 -0.14020577 0.018452579 15 23
0.79826599 -0.24464644 0 70 22
0.84727615 -0.1454826 -0.019148905 81 21
0.7997793 -0.24526744 -0.037383199 33 20
0.83079618 -0.14270732 -0.055938624 10 19
0.81168354 -0.24941146 -0.073097423 68 18
0.87895197 -0.15084115 -0.098086454 70 17
0.79863459 -0.24793048 0.18544184 38 30
0.83011085 -0.14396465 0.15581292 29 29
0.78592569 -0.24366593 0.123244 90 28
0.82402056 -0.14364263 0.097849928 63 27
0.79636288 -0.24694552 0.076358527 28 26
0.84758133 -0.14797693 0.05743533 25 25
0.80138808 -0.24852479 0.037499659 75 24
0.82957292 -0.14517786 0.018742716 16 23
0.799793 -0.24817862 0 54 22
0.84183717 -0.14759018 -0.019032851 84 21
0.80368429 -0.24955128 -0.037616115 34 20
0.83520859 -0.14645378 -0.056283921 10 19
0.80605668 -0.25075153 -0.072650343 73 18
0.87597239 -0.15348645 -0.097802147 56 17
0.80008596 -0.25145319 0.18600549 34 30
0.82476646 -0.14601983 0.15486573 18 29
0.78742498 -0.24715385 0.12363035 90 28
0.81862515 -0.1456631 0.097244047 50 27
0.79549611 -0.24972384 0.076358527 29 26
0.83969003 -0.14964315 0.056914765 24 25
0.79575443 -0.24981205 0.037266739 79 24
0.82167602 -0.14677586 0.018568633 18 23
0.79892176 -0.2509689 0 34 22
0.84377831 -0.15096097 -0.019090878 80 21
0.80042797 -0.25160003 -0.037499659 36 20
0.8346923 -0.1493683 -0.056283921 10 19
0.81229556 -0.25582609 -0.073320962 68 18
0.88766229 -0.15869547 -0.099223696 50 17
0.79460931 -0.25261667 0.18487819 40 30
0.8242777 -0.14875406 0.15486573 10 29
0.7889533 -0.25051755 0.1240167 90 28
0.82546675 -0.1496838 0.098152868 36 27
0.80414325 -0.25539851 0.077310033 31 26
0.84164423 -0.15286548 0.057088286 24 25
0.79492164 -0.25244951 0.037266739 79 24
0.81872457 -0.14905937 0.018510606 18 23
0.80760747 -0.25667048 0 19 22
0.83589298 -0.15243429 -0.018916797 79 21
0.80672282 -0.25654194 -0.037849031 41 20
0.8341924 -0.15213542 -0.056283921 10 19
0.81144273 -0.25851837 -0.073320962 68 18
0.80298889 -0.25839782 0.18713279 44 30
0.83099985 -0.15294209 0.15628651 10 29
0.79042345 -0.25403202 0.12440304 90 28
0.82738072 -0.15300843 0.098455809 30 27
0.79614508 -0.25590056 0.076596409 30 26
0.83129132 -0.15401357 0.056394204 33 25
0.79641104 -0.25599322 0.037383199 79 24
0.8280071 -0.15385701 0.018742716 20 23
0.80670661 -0.25948799 0 13 22
0.84027278 -0.15625097 -0.019032851 76 21
0.80577713 -0.25949699 -0.037849031 66 20
0.83120292 -0.15459743 -0.056111272 11 19
0.82000685 -0.26443034 -0.074215122 60 18
0.79046756 -0.25753552 0.18431453 46 30
0.82319218 -0.15464862 0.15486573 10 29
0.78948706 -0.25692734 0.12440304 90 28
0.81705487 -0.15422758 0.097244047 23 27
0.79756624 -0.25959331 0.076834284 33 26
0.8307212 -0.15705937 0.056394204 50 25
0.80021262 -0.26046881 0.037616115 75 24
0.827465 -0.15674634 0.018742716 20 23
0.80337507 -0.26166254 0 13 22
0.83478075 -0.15841186 -0.018916797 76 21
0.80486637 -0.26230812 -0.037849031 76 20
0.82082427 -0.15581122 -0.055420674 11 19
0.794186 -0.26183081 0.18544184 46 30
0.83229643 -0.15933914 0.1567601 10 29
0.78858542 -0.25968161 0.12440304 88 28
0.82626462 -0.15892509 0.098455809 13 27
0.80142456 -0.26380533 0.077310033 38 26
0.83506846 -0.1608877 0.056741245 65 25
0.7969287 -0.26247308 0.037499659 75 24
0.82936823 -0.1601004 0.018800743 28 23
0.80008447 -0.26367655 0 11 22
0.83425081 -0.16117924 -0.018916797 73 21
0.8039459 -0.26511601 -0.037849031 84 20
0.81782526 -0.15820898 -0.055248018 14 19
0.79562187 -0.26523945 0.18600549 75 30
0.83176351 -0.16209826 0.1567601 11 29
0.78771996 -0.26229522 0.12440304 85 28
0.81598622 -0.15978549 0.097244047 13 27
0.802858 -0.26739377 0.077547915 40 26
0.83453035 -0.163656 0.056741245 78 25
0.79368663 -0.26431903 0.037383199 76 24
0.82392508 -0.16190028 0.018684689 48 23
0.803945 -0.26792142 0 11 22
0.83613682 -0.16456595 -0.018974824 69 21
0.80306226 -0.26778054 -0.037849031 85 20
0.82708991 -0.16281854 -0.055938624 20 19
0.79699707 -0.2687996 0.18656914 90 30
0.83119261 -0.16500068 0.1567601 13 29
0.78212231 -0.26345372 0.12363035 86 28
0.81542349 -0.16263282 0.097244047 13 27
0.79720712 -0.2685931 0.077072158 44 26
0.83884817 -0.16753091 0.057088286 83 25
0.79275918 -0.26708791 0.037383199 76 24
0.82823032 -0.16588654 0.018800743 53 23
0.80300492 -0.27072608 0 11 22
0.8380093 -0.16796778 -0.019032851 50 21
0.79971135 -0.26991731 -0.037732575 88 20
0.82162309 -0.16473833 -0.055593323 21 19
0.78679472 -0.26854706 0.18431453 93 30
0.82095271 -0.16612709 0.15486573 16 29
0.78115141 -0.26631856 0.12363035 84 28
0.82698846 -0.16805594 0.09875875 11 27
0.79386395 -0.27070376 0.076834284 48 26
0.8333379 -0.16962354 0.056741245 85 25
0.79177487 -0.26999173 0.037383199 75 24
0.8276462 -0.16877659 0.018800743 50 23
0.80200726 -0.27366742 0 13 22
0.82758725 -0.16906548 -0.018800743 33 21
0.80112553 -0.27352026 -0.037849031 88 20
0.82590371 -0.16873285 -0.055938624 24 19
0.79735327 -0.27529687 0.18713279 94 30
0.82758486 -0.17045614 0.15628651 19 29
0.77788413 -0.2682322 0.123244 45 28
0.81910199 -0.16945486 0.097849928 13 27
0.79996568 -0.27592608 0.077547915 49 26
0.83518428 -0.17303032 0.056914765 83 25
0.79082763 -0.27275389 0.037383199 78 24
0.8197062 -0.17016205 0.018626662 48 23
0.79632497 -0.27482179 0 13 22
0.83678585 -0.17396009 -0.019032851 26 21
0.79544914 -0.27467248 -0.037616115 81 20
0.82042319 -0.17061348 -0.055593323 40 19
0.78719813 -0.27484238 0.18487819 95 30
0.82458091 -0.17284738 0.15581292 23 29
0.78859329 -0.27504399 0.12517573 34 28
0.82579499 -0.17382526 0.09875875 16 27
0.79904634 -0.27857736 0.077547915 50 26
0.837017 -0.17645206 0.057088286 81 25
0.79222661 -0.27634141 0.037499659 76 24
0.81910723 -0.17302231 0.018626662 43 23
0.80243546 -0.28008974 0 16 22
0.83375764 -0.17622419 -0.018974824 21 21
0.79919648 -0.27910641 -0.037849031 83 20
0.8247056 -0.17449458 -0.055938624 61 19
0.78628236 -0.27745131 0.18487819 95 30
0.82880783 -0.17658985 0.1567601 25 29
0.78767687 -0.27765754 0.12517573 30 28
0.81792963 -0.17502633 0.097849928 19 27
0.79572415 -0.28053123 0.077310033 45 26
0.83398724 -0.17871118 0.056914765 83 25
0.78895277 -0.2781305 0.037383199 78 24
0.82583344 -0.17743427 0.018800743 34 23
0.79914671 -0.28191137 0 19 22
0.83558238 -0.17965183 -0.019032851 18 21
0.79586476 -0.28105673 -0.037732575 70 20
0.82412243 -0.17722844 -0.055938624 73 19
0.78526014 -0.28033131 0.18487819 94 30
0.82815504 -0.17962639 0.1567601 28 29
0.79595083 -0.2838861 0.12672111 25 28
0.8100037 -0.17645991 0.096941099 23 27
0.80171615 -0.28597239 0.078023665 21 26
0.8284502 -0.18071772 0.056567725 80 25
0.79262793 -0.28271052 0.037616115 69 24
0.82520902 -0.18031588 0.018800743 28 23
0.80046052 -0.28568494 0 18 22
0.83247519 -0.18218587 -0.018974824 14 21
0.79017961 -0.2821413 -0.037499659 71 20
0.82834309 -0.18130022 -0.056283921 76 19
0.78885436 -0.28473675 0.18600549 90 30
0.8299216 -0.18303777 0.1572337 40 29
0.79031241 -0.28497481 0.12594843 21 28
0.80938286 -0.17928629 0.096941099 26 27
0.79603523 -0.28706846 0.077547915 14 26
0.83268702 -0.18467444 0.056914765 78 25
0.7892893 -0.28462228 0.037499659 60 24
0.827016 -0.18373029 0.01885877 24 23
0.79945838 -0.28847733 0 19 22
0.82939297 -0.18455479 -0.018916797 15 21
0.79388326 -0.28660601 -0.037732575 65 20
0.82526916 -0.18365586 -0.056111272 81 19
0.79242724 -0.28917065 0.18713279 90 30
0.81969035 -0.18381342 0.15533932 48 29
0.78235781 -0.28517559 0.12478939 24 28
0.81359726 -0.1831864 0.097546987 29 27
0.79975098 -0.29142284 0.078023665 10 26
0.83203733 -0.18757994 0.056914765 75 25
0.79297894 -0.28909865 0.037732575 46 24
0.82149059 -0.18552896 0.018742716 20 23
0.80548567 -0.29385471 0 16 22
0.8312158 -0.18784809 -0.018974824 16 21
0.79522163 -0.29023775 -0.037849031 63 20
0.82705724 -0.18707867 -0.056283921 80 19
0.78918099 -0.29094824 0.18656914 90 30
0.81668127 -0.18599264 0.15486573 55 29
0.78372335 -0.28862813 0.12517573 26 28
0.81782693 -0.18697535 0.098152868 31 27
0.78939676 -0.2907477 0.077072158 9 26
0.828978 -0.18978846 0.056741245 73 25
0.78265142 -0.28824964 0.037266739 48 24
0.81599545 -0.18714893 0.018626662 19 23
0.79513276 -0.29304174 0 36 22
0.82080501 -0.18853864 -0.018742716 18 21
0.79191399 -0.29200312 -0.037732575 58 20
0.82399994 -0.18926899 -0.056111272 85 19
0.79044056 -0.29455781 0.18713279 90 30
0.81842017 -0.18938859 0.15533932 65 29
0.78502363 -0.29222992 0.12556209 29 28
0.81716925 -0.18982896 0.098152868 43 27
0.78837705 -0.29350144 0.077072158 9 26
0.82831049 -0.192681 0.056741245 68 25
0.78631663 -0.29273471 0.037499659 51 24
0.81043267 -0.18901739 0.018510606 19 23
0.78942406 -0.29405791 0 54 22
0.8250131 -0.19252455 -0.01885877 16 21
0.79083842 -0.2949037 -0.037732575 53 20
0.82333428 -0.19214413 -0.056111272 85 19
0.78935564 -0.2974529 0.18713279 90 30
0.81532943 -0.19183186 0.15486573 70 29
0.78394723 -0.29510522 0.12556209 30 28
0.81888485 -0.19338606 0.098455809 58 27
0.7942763 -0.29903778 0.07778579 9 26
0.83002734 -0.19628257 0.056914765 63 25
0.78056872 -0.29384273 0.037266739 65 24
0.81950271 -0.19412129 0.018742716 19 23
0.78834105 -0.29694933 0 65 22
0.82186842 -0.19497721 -0.018800743 18 21
0.79680783 -0.30032283 -0.038081951 40 20
0.82019609 -0.19459184 -0.055938624 81 19
0.78149098 -0.29758793 0.18544184 90 30
0.81704402 -0.1952402 0.15533932 69 29
0.78060615 -0.29695559 0.12517573 30 28
0.81096029 -0.19452813 0.097546987 78 27
0.78630883 -0.29899815 0.077072158 10 26
0.82448387 -0.19802785 0.056567725 41 25
0.78420174 -0.29835394 0.037499659 74 24
0.81638837 -0.19640318 0.018684689 21 23
0.79196787 -0.30149034 0 64 22
0.8212173 -0.19770154 -0.018800743 18 21
0.78876036 -0.30041754 -0.037732575 21 20
0.81951189 -0.19745368 -0.055938624 81 19
0.78277075 -0.30105817 0.18600549 83 30
0.81161743 -0.19680576 0.15439212 63 29
0.78422368 -0.30132651 0.12594843 34 28
0.81996238 -0.19953524 0.09875875 80 27
0.79222244 -0.30443728 0.07778579 10 26
0.82624739 -0.20134433 0.056741245 28 25
0.78553677 -0.30185467 0.037616115 73 24
0.82302195 -0.20086607 0.01885877 21 23
0.78397042 -0.30140522 0 70 22
0.81809264 -0.1999805 -0.018742716 19 21
0.79241663 -0.30483684 -0.037965491 13 20
0.82127702 -0.20075537 -0.056111272 79 19
0.78171515 -0.30378872 0.18600549 80 30
0.81092548 -0.19963765 0.15439212 55 29
0.78086692 -0.3031621 0.12556209 41 28
0.81202829 -0.20063177 0.097849928 88 27
0.80042517 -0.31082818 0.078737296 11 26
0.82069415 -0.20304336 0.056394204 21 25
0.7868039 -0.30550483 0.037732575 71 24
0.8150326 -0.20195556 0.018684689 39 23
0.78058553 -0.30322859 0 69 22
0.81981713 -0.20342986 -0.018800743 23 21
0.78669727 -0.30577946 -0.037732575 11 20
0.81814891 -0.20302729 -0.055938624 79 19
0.78517944 -0.30830804 0.18713279 36 30
0.803074 -0.200703 0.15297134 50 29
0.77061599 -0.30225378 0.1240167 46 28
0.81614059 -0.20465818 0.098455809 86 27
0.79702091 -0.31270534 0.078499421 14 26
0.82240099 -0.20650727 0.056567725 13 25
0.78805512 -0.3091675 0.037849031 70 24
0.82156354 -0.20675029 0.01885877 53 23
0.7888214 -0.30962947 0 65 22
0.82637823 -0.20810042 -0.018974824 29 21
0.79485887 -0.31233802 -0.038198408 10 20
0.8222757 -0.20708613 -0.056283921 73 19
0.77952129 -0.30937475 0.18600549 19 30
0.81661952 -0.20722565 0.15581292 46 29
0.77867752 -0.30874205 0.12556209 49 28
0.81297845 -0.20704271 0.098152868 85 27
0.79355842 -0.31470108 0.078261547 21 26
0.81680179 -0.20830163 0.056220684 10 25
0.78459764 -0.31112719 0.037732575 70 24
0.82326013 -0.21022823 0.018916797 66 23
0.78303844 -0.31066254 0 64 22
0.82318676 -0.21051559 -0.018916797 35 21
0.78912634 -0.31325591 -0.037965491 10 20
0.82151121 -0.21009852 -0.056283921 69 19
0.77617836 -0.31118149 0.18544184 13 30
0.81351215 -0.20946983 0.15533932 45 29
0.77530468 -0.31053382 0.12517573 44 28
0.8170597 -0.21110687 0.09875875 85 27
0.79245508 -0.31746918 0.078261547 21 26
0.81848592 -0.21176921 0.056394204 10 25
0.78350687 -0.31386408 0.037732575 64 24
0.82494259 -0.21372055 0.018974824 71 23
0.78426743 -0.31433007 0 64 22
0.81760484 -0.21214634 -0.018800743 33 21
0.79034358 -0.31694406 -0.038081951 10 20
0.81835693 -0.21234545 -0.056111272 61 19
0.7818526 -0.31664979 0.18713279 13 30
0.81277603 -0.21230823 0.15533932 43 29
0.774216 -0.31323823 0.12517573 28 28
0.81391549 -0.21333547 0.098455809 84 27
0.7937026 -0.32103443 0.078499421 23 26
0.82256991 -0.21587722 0.056741245 9 25
0.77778155 -0.3147116 0.037499659 63 24
0.81693435 -0.21471389 0.018800743 80 23
0.78085053 -0.31612158 0 56 22
0.82657266 -0.2173714 -0.019032851 26 21
0.78692025 -0.31875736 -0.037965491 11 20
0.81036961 -0.21331729 -0.055593323 39 19
0.7830503 -0.32016852 0.18769644 10 30
0.81206751 -0.21500234 0.15533932 40 29
0.77774113 -0.31768394 0.12594843 15 28
0.81800407 -0.21729361 0.09906169 76 27
0.78797442 -0.32190871 0.078023665 28 26
0.8194375 -0.21796967 0.056567725 10 25
0.77673364 -0.31728905 0.037499659 60 24
0.82105178 -0.21869442 0.018916797 78 23
0.78673303 -0.32156482 0 49 22
0.8161419 -0.21770667 -0.018800743 21 21
0.79047686 -0.32326758 -0.038198408 11 20
0.81689262 -0.21791089 -0.056111272 28 19
0.77743036 -0.32102871 0.18656914 10 30
0.8136847 -0.21846521 0.15581292 39 29
0.76750433 -0.31660485 0.12440304 11 28
0.81004649 -0.21823211 0.098152868 79 27
0.78914398 -0.32561249 0.078261547 49 26
0.8210814 -0.22147125 0.056741245 10 25
0.77792734 -0.32095695 0.037616115 59 24
0.81783015 -0.22105709 0.01885877 79 23
0.78329748 -0.32334915 0 45 22
0.82020599 -0.22184539 -0.018916797 15 21
0.79389781 -0.32808205 -0.038431324 11 20
0.816127 -0.22076102 -0.056111272 23 19
0.7829845 -0.32670748 0.18826009 15 30
0.81050819 -0.22080781 0.15533932 35 29
0.77544796 -0.32324117 0.12594843 10 28
0.80684555 -0.22055233 0.097849928 75 27
0.78565079 -0.32753906 0.078023665 66 26
0.82026422 -0.22447915 0.056741245 11 25
0.77444327 -0.32283911 0.037499659 51 24
0.81464112 -0.22325687 0.018800743 79 23
0.78210706 -0.32621789 0 43 22
0.81456316 -0.22354122 -0.018800743 13 21
0.78584129 -0.32794809 -0.038081951 14 20
0.81290531 -0.22309773 -0.055938624 18 19
0.77735525 -0.3275353 0.18713279 18 30
0.81446862 -0.22492868 0.15628651 44 29
0.76976699 -0.32401744 0.12517573 10 28
0.80367732 -0.22271173 0.097546987 65 27
0.77768624 -0.32722899 0.077310033 74 26
0.81707048 -0.22668128 0.056567725 11 25
0.78480715 -0.33041525 0.038081951 30 24
0.81867689 -0.22742318 0.018916797 75 23
0.7901693 -0.33285168 0 35 22
0.81863719 -0.22756608 -0.018916797 11 21
0.7892893 -0.33264071 -0.038314868 14 20
0.80971694 -0.22527251 -0.055765972 13 19
0.77850366 -0.33107042 0.18769644 20 30
0.80662048 -0.22566526 0.15486573 48 29
0.77322984 -0.32851195 0.12594843 11 28
0.80054313 -0.22471201 0.097244047 64 27
0.78569096 -0.33385837 0.078261547 74 26
0.82352304 -0.23139279 0.057088286 11 25
0.78370714 -0.33301595 0.038081951 10 24
0.81551045 -0.22946677 0.01885877 76 23
0.77986842 -0.33153394 0 31 22
0.82987595 -0.23377657 -0.019206932 11 21
0.7812953 -0.33230609 -0.037965491 16 20
0.81136799 -0.2286258 -0.055938624 13 19
0.78181422 -0.3357197 0.18882374 26 30
0.81291872 -0.23046733 0.15628651 50 29
0.77888036 -0.33414832 0.12710746 11 28
0.8021428 -0.22817698 0.097546987 56 27
0.7845208 -0.3365989 0.078261547 74 26
0.8155086 -0.23223762 0.056567725 13 25
0.7917096 -0.33971193 0.038547784 8 24
0.81947464 -0.23381187 0.018974824 73 23
0.77870643 -0.33425418 0 48 22
0.83146006 -0.23735119 -0.019264959 10 21
0.7892397 -0.3391346 -0.038431324 14 20
0.80096436 -0.22874534 -0.055248018 15 19
0.78281039 -0.33955804 0.1893874 25 30
0.8144297 -0.23411654 0.1567601 60 29
0.77538663 -0.33601269 0.12672111 13 28
0.8060739 -0.23247683 0.098152868 39 27
0.78556275 -0.3404676 0.078499421 74 26
0.81225389 -0.23454012 0.056394204 16 25
0.7790153 -0.33761644 0.037965491 6 24
0.81625056 -0.23598373 0.018916797 73 23
0.7820583 -0.33910698 0 56 22
0.82577908 -0.2390209 -0.019148905 10 21
0.776609 -0.33688858 -0.037849031 33 20
0.80971116 -0.2344259 -0.055938624 16 19
0.77270639 -0.33835694 0.18713279 30 30
0.80888999 -0.235599 0.15581292 66 29
0.77872956 -0.34070921 0.1274938 16 28
0.81002545 -0.23666714 0.09875875 30 27
0.78670692 -0.34407383 0.078737296 71 26
0.81382591 -0.23806727 0.056567725 18 25
0.78240258 -0.34234762 0.038198408 8 24
0.8178224 -0.23952717 0.018974824 69 23
0.77858216 -0.34082636 0 66 22
0.82498187 -0.24175797 -0.019148905 11 21
0.77771318 -0.34060517 -0.037965491 49 20
0.81128317 -0.23794588 -0.056111272 20 19
0.77603054 -0.34289801 0.18826009 33 30
0.81046069 -0.2389674 0.15628651 68 29
0.77082455 -0.34027934 0.12633477 25 28
0.80685455 -0.23865508 0.098455809 20 27
0.77640492 -0.34277374 0.07778579 70 26
0.81542534 -0.24146594 0.056741245 41 25
0.78582686 -0.34696937 0.038431324 8 24
0.80982888 -0.24012712 0.018800743 69 23
0.7728793 -0.34137425 0 71 22
0.82173496 -0.24393183 -0.019090878 11 21
0.77886099 -0.34419766 -0.038081951 59 20
0.80570388 -0.23922908 -0.055765972 23 19
0.82288992 -0.24495926 0.21978077 83 31
0.77927238 -0.34760085 0.1893874 24 30
0.80962163 -0.24179499 0.15628651 68 29
0.77413899 -0.34499061 0.12710746 19 28
0.81315434 -0.24358574 0.099364631 10 27
0.7752037 -0.34548181 0.07778579 70 26
0.81218654 -0.24360125 0.056567725 49 25
0.77777582 -0.34664279 0.038081951 8 24
0.8113389 -0.24380603 0.01885877 59 23
0.77168298 -0.34407002 0 70 22
0.818483 -0.24608597 -0.019032851 13 21
0.77987206 -0.34807369 -0.038198408 61 20
0.8120352 -0.24417382 -0.056283921 33 19
0.81272829 -0.24521014 0.21720271 75 31
0.76690269 -0.34542382 0.18656914 48 30
0.80873001 -0.24476078 0.15628651 69 29
0.77511907 -0.34884521 0.1274938 24 28
0.80750275 -0.24513659 0.09875875 9 27
0.77619904 -0.34934801 0.078023665 59 26
0.8136766 -0.24729477 0.056741245 61 25
0.77650011 -0.34949118 0.038081951 9 24
0.80808979 -0.24591595 0.018800743 35 23
0.77041668 -0.34689605 0 71 22
0.81039685 -0.24691954 -0.01885877 16 21
0.77865225 -0.35079381 -0.038198408 61 20
0.81352264 -0.24786846 -0.056456573 40 19
0.80724305 -0.24664767 0.21591367 78 31
0.77233601 -0.35114047 0.18826009 79 30
0.80787075 -0.24758226 0.15628651 66 29
0.76940429 -0.34949389 0.12672111 25 28
0.80664217 -0.2479538 0.09875875 8 27
0.77497482 -0.35205534 0.078023665 56 26
0.81519413 -0.25086018 0.056914765 65 25
0.77981746 -0.35427707 0.038314868 10 24
0.80483586 -0.24800614 0.018742716 28 23
0.77602088 -0.35270414 0 63 22
0.81431073 -0.25120664 -0.018974824 18 21
0.77742302 -0.35350969 -0.038198408 61 20
0.80311131 -0.24779329 -0.055765972 48 19
0.80637717 -0.24946399 0.21591367 80 31
0.76447254 -0.35076937 0.18656914 90 30
0.79996181 -0.24823907 0.15486573 69 29
0.77490729 -0.35528326 0.12788014 33 28
0.8034001 -0.25003746 0.098455809 8 27
0.77374119 -0.35475835 0.078023665 50 26
0.81431353 -0.25370422 0.056914765 70 25
0.78537798 -0.36013708 0.03866424 11 24
0.80874139 -0.25228882 0.01885877 20 23
0.77478504 -0.35541078 0 64 22
0.81820446 -0.25552407 -0.019090878 43 21
0.77618432 -0.35622123 -0.038198408 60 20
0.8070069 -0.25206849 -0.056111272 56 19
0.79631609 -0.2492779 0.2133356 79 31
0.77434319 -0.35844731 0.1893874 89 30
0.81085509 -0.25453216 0.1572337 64 29
0.77148581 -0.35680833 0.1274938 66 28
0.80019736 -0.25196192 0.098152868 9 27
0.77707261 -0.35942334 0.078499421 49 26
0.81346774 -0.25640318 0.056914765 73 25
0.77738786 -0.35957688 0.038314868 13 24
0.80551469 -0.254224 0.018800743 13 23
0.77360219 -0.35797814 0 61 22
0.80781132 -0.25525132 -0.01885877 54 21
0.77726233 -0.35984823 -0.038314868 58 20
0.81092715 -0.25623238 -0.056456573 60 19
0.79774594 -0.25277877 0.21398012 78 31
0.7686792 -0.35907477 0.18826009 90 30
0.80059516 -0.25441498 0.15533932 65 29
0.77247107 -0.36054963 0.12788014 80 28
0.79694641 -0.25400695 0.097849928 9 27
0.77130854 -0.36001679 0.078023665 49 26
0.81494594 -0.25999236 0.057088286 70 25
0.78064829 -0.36441249 0.038547784 11 24
0.81172603 -0.25943685 0.018974824 10 23
0.76329809 -0.35642168 0 58 22
0.81168079 -0.2595785 -0.018974824 68 21
0.77593821 -0.36269462 -0.038314868 61 20
0.81240553 -0.25981435 -0.056629222 69 19
0.79911631 -0.25643215 0.21462463 79 31
0.77395856 -0.36502388 0.18995105 90 30
0.79497951 -0.25585741 0.15439212 59 29
0.75998652 -0.35808507 0.12594843 83 28
0.80782926 -0.26070273 0.099364631 9 27
0.76998383 -0.36284134 0.078023665 35 26
0.81161219 -0.26221764 0.056914765 68 25
0.78607619 -0.37048239 0.03889716 11 24
0.80129468 -0.25921923 0.018742716 10 23
0.76424521 -0.36028886 0 56 22
0.81310391 -0.26331493 -0.019032851 71 21
