# .PCD v0.7 - Point Cloud Data file format
VERSION 0.7
FIELDS x y z intensity ring
SIZE 4 4 4 4 2
TYPE F F F F U
COUNT 1 1 1 1 1
WIDTH 1221
HEIGHT 1
VIEWPOINT 0 0 0 1 0 0 0
POINTS 1221
DATA ascii
-1.6569252 0.44589046 -0.11636614 77 19
-1.6027968 0.66577196 -0.15267749 83 18
-1.6646454 0.44796252 -0.19332983 75 17
-1.6121671 0.6703319 -0.23773409 77 16
-1.6605614 0.44626734 -0.29370472 71 15
-1.6070303 0.67077678 -0.48836285 60 13
-1.6552595 0.44455993 -0.38454834 67 14
-1.6035534 0.67126095 -0.5892157 60 12
-1.6574519 0.44120562 -0.67956102 59 11
-1.6043861 0.67776316 -0.90636027 71 9
-1.658851 0.43976086 -0.78971148 67 10
-1.6057223 0.68157721 -1.0332675 72 8
-0.80473816 0.21114194 -0.53947592 38 7
-0.66530097 0.28319815 -0.52405989 81 6
-0.61735386 0.16026728 -0.51043797 90 5
-0.25676596 0.10875847 -0.23321539 42 4
-0.2459694 0.064650208 -0.23288728 88 3
-0.22966416 0.098045066 -0.25377479 38 2
-0.29351756 0.075187281 -0.35199699 9 1
-0.28582162 0.12378728 -0.38922352 4 0
-1.6544601 0.44652602 0.44794029 59 31
-1.5980347 0.66932315 0.39286613 68 30
-1.6567092 0.44865507 0.32441291 72 29
-1.5952779 0.66752923 0.26503256 75 28
-1.6525168 0.4490487 0.20478809 75 27
-1.6049179 0.67126143 0.16294576 80 26
-1.660449 0.45180777 0.11729994 77 25
-1.6033409 0.67093515 0.079424739 79 24
-1.6469011 0.44875315 0.038820054 83 23
-1.6026254 0.67096359 0 83 22
-1.6516473 0.45034862 -0.038936108 81 21
-1.6008046 0.67052704 -0.079308279 77 20
-1.6505448 0.45036533 -0.11602084 77 19
-1.6051705 0.67301476 -0.15312457 83 18
-1.6630718 0.45377046 -0.19332983 76 17
-1.6076534 0.67471319 -0.23739004 76 16
-1.6589936 0.45206106 -0.29370472 70 15
-1.6024653 0.67544585 -0.48767498 60 13
-1.6537763 0.45004651 -0.38454834 67 14
-1.6055505 0.67869991 -0.59085011 60 12
-1.6515025 0.44549903 -0.67768639 59 11
-1.6041595 0.68394852 -0.90753275 64 9
-1.6573057 0.44554865 -0.78971148 68 10
-1.6014878 0.68605298 -1.0319743 72 8
-0.79999113 0.21289824 -0.53667343 38 7
-0.65705949 0.28223681 -0.51800138 76 6
-0.61497146 0.16183653 -0.50882262 90 5
-0.25640389 0.10960934 -0.23321539 45 4
-0.24575366 0.06546551 -0.23288728 85 3
-0.22343332 0.096182227 -0.24614246 38 2
-0.29032588 0.075430281 -0.34801963 9 1
-0.29465973 0.1288819 -0.40348825 7 0
-1.6506394 0.45137626 0.44729578 60 31
-1.5935644 0.67366749 0.39230248 70 30
-1.6575804 0.45479253 0.3248865 71 29
-1.5953298 0.67377967 0.26541892 75 28
-1.648625 0.45387086 0.20448515 75 27
-1.6025649 0.67685962 0.16294576 83 26
-1.6589415 0.45731154 0.11729994 77 25
-1.6034065 0.67722297 0.079541199 77 24
-1.6478143 0.45487362 0.03887808 79 23
-1.6049948 0.67822647 0 81 22
-1.6524751 0.45677364 -0.038994133 80 21
-1.600871 0.67680717 -0.079424739 80 20
-1.6514469 0.45649734 -0.1161935 77 19
-1.6028115 0.67861378 -0.15312457 80 18
-1.6615577 0.45928293 -0.19332983 75 17
-1.607567 0.68128997 -0.23773409 76 16
-1.6551105 0.45690805 -0.29327536 64 15
-1.6024271 0.68169993 -0.48836285 60 13
-1.6521953 0.45581651 -0.38454834 68 14
-1.601119 0.68309033 -0.59003288 60 12
-1.6544104 0.45247722 -0.67956102 60 11
-1.5997356 0.68866807 -0.90636027 66 9
-1.6536349 0.4504506 -0.78864861 70 10
-1.5990833 0.69163907 -1.0319743 68 8
-0.79928076 0.21554995 -0.53667343 37 7
-0.65607029 0.28452867 -0.51800138 80 6
-0.61255711 0.16349864 -0.50720733 90 5
-0.24941106 0.10757513 -0.22630529 43 4
-0.25050524 0.067603856 -0.23834558 89 3
-0.22309621 0.096961558 -0.24614246 38 2
-0.29593709 0.077923633 -0.35597438 9 1
-0.29948556 0.13229811 -0.41163954 8 0
-1.6513823 0.4577772 0.44794029 60 31
-1.5956807 0.68114418 0.39342979 70 30
-1.6536168 0.45992145 0.32441291 72 29
-1.5929681 0.67934436 0.26541892 75 28
-1.6494219 0.46028647 0.20478809 75 27
-1.6024804 0.68342865 0.16318363 83 26
-1.657335 0.46309957 0.11729994 77 25
-1.6010329 0.68281573 0.079541199 77 24
-1.6485437 0.46158051 0.038936108 81 23
-1.6003194 0.6828407 0 80 22
-1.6460556 0.46119741 -0.03887808 81 21
-1.600675 0.68365395 -0.079541199 80 20
-1.6498435 0.4622592 -0.1161935 77 19
-1.602721 0.68518615 -0.1533481 83 18
-1.6622558 0.46603689 -0.19361414 75 17
-1.6051791 0.68689728 -0.23773409 76 16
-1.6534246 0.46297124 -0.29327536 67 15
-1.604332 0.6894722 -0.48973849 59 13
-1.6505941 0.46158099 -0.38454834 66 14
-1.6007731 0.68989205 -0.59085011 60 12
-1.6549749 0.4591541 -0.68049836 59 11
-1.5993456 0.69513088 -0.90753275 67 9
-1.6563369 0.45770726 -0.79077435 68 10
-1.6024157 0.70007324 -1.0358539 71 8
-0.79448771 0.21739861 -0.533871 37 7
-0.65320408 0.28612682 -0.5164867 74 6
-0.61010969 0.16525237 -0.50559199 90 5
-0.25726247 0.11217949 -0.23494291 46 4
-0.25025576 0.068521559 -0.23834558 87 3
-0.21834187 0.095740929 -0.24041823 37 2
-0.29418182 0.078632295 -0.3539857 9 1
-0.30558455 0.13640459 -0.42182863 9 0
-1.6496935 0.46382675 0.44794029 59 31
-1.5909382 0.68602073 0.39286613 70 30
-1.6542834 0.46664217 0.3248865 71 29
-1.5927346 0.68615842 0.26580524 75 28
-1.6453352 0.46565643 0.20448515 75 27
-1.602249 0.69028509 0.16342153 79 26
-1.6580272 0.46984747 0.11747347 77 25
-1.5985194 0.68867922 0.079541199 79 24
-1.6469225 0.46733218 0.038936108 79 23
-1.5978059 0.68870157 0 81 22
-1.6515695 0.46926638 -0.039052162 80 21
-1.598279 0.68923718 -0.079541199 79 20
-1.6481382 0.46830302 -0.1161935 77 19
-1.5979145 0.69006574 -0.15312457 79 18
-1.6582288 0.47116092 -0.19332983 75 17
-1.6026506 0.69277591 -0.23773409 75 16
-1.6541687 0.46940887 -0.29370472 66 15
-1.6019154 0.69506818 -0.48973849 59 13
-1.6488912 0.46762761 -0.38454834 67 14
-1.5983553 0.6954757 -0.59085011 59 12
-1.6533622 0.4649283 -0.68049836 59 11
-1.5967871 0.70098811 -0.90753275 72 9
-1.6547291 0.46348616 -0.79077435 68 10
-1.5980058 0.70479631 -1.0345607 70 8
-0.79971474 0.22181056 -0.53807467 39 7
-0.65583366 0.29002696 -0.51951599 71 6
-0.61505598 0.16887128 -0.51043797 74 5
-0.25686929 0.11307682 -0.23494291 45 4
-0.25332993 0.070272379 -0.24198443 89 3
-0.22239666 0.098555513 -0.24614246 34 2
-0.29830468 0.080800503 -0.35995173 8 1
-0.31299698 0.14110966 -0.43405554 9 0
-1.6480645 0.46958241 0.44794029 59 31
-1.5885339 0.69156992 0.39286613 72 30
-1.6526445 0.47241387 0.3248865 71 29
-1.5903298 0.69171387 0.26580524 75 28
-1.646086 0.47207761 0.20478809 75 27
-1.5976702 0.69459933 0.16318363 80 26
-1.6539788 0.47494724 0.11729994 77 25
-1.6006832 0.69625288 0.079774112 77 24
-1.6452812 0.47307819 0.038936108 79 23
-1.5953921 0.69427478 0 81 22
-1.6500043 0.47474065 -0.039052162 80 21
-1.5981517 0.69581175 -0.079657651 79 20
-1.6464933 0.47405326 -0.1161935 77 19
-1.6001799 0.69735616 -0.15357165 83 18
-1.6565739 0.47694632 -0.19332983 75 17
-1.6003447 0.69808668 -0.23773409 76 16
-1.6525202 0.47518018 -0.29370472 63 15
-1.6016797 0.7016229 -0.49042633 59 13
-1.6496747 0.47376221 -0.38510644 67 14
-1.5959178 0.7010507 -0.59085011 59 12
-1.6518112 0.47040847 -0.68049836 59 11
-1.5964713 0.70717645 -0.90870529 72 9
-1.6509234 0.4686448 -0.78971148 70 10
-1.5995668 0.71183681 -1.037147 71 8
-0.79295063 0.22293983 -0.533871 37 7
-0.65486825 0.29220021 -0.51951599 71 6
-0.60344887 0.16789286 -0.50074607 59 5
-0.25813735 0.11467741 -0.23667043 47 4
-0.24647164 0.069334723 -0.23470671 85 3
-0.21913499 0.097939417 -0.2423263 35 2
-0.29070956 0.079861969 -0.35000831 8 1
-0.31909257 0.14520128 -0.44424465 9 0
-1.6464982 0.47504497 0.44794029 60 31
-1.5862317 0.69683397 0.39286613 70 30
-1.6534278 0.47857073 0.32536009 71 29
-1.5902877 0.69797939 0.2661916 75 28
-1.6445115 0.47753364 0.20478809 75 27
-1.5952359 0.70017195 0.16318363 80 26
-1.6571864 0.48181516 0.11764698 77 25
-1.5983655 0.7015571 0.079774112 77 24
-1.6437032 0.47853151 0.038936108 79 23
-1.5976565 0.7015776 0 79 22
-1.6483371 0.48049733 -0.039052162 80 21
-1.5981206 0.702115 -0.079774112 79 20
-1.6449122 0.47951064 -0.1161935 77 19
-1.6000139 0.70394319 -0.15379518 79 18
-1.6525978 0.48174545 -0.19304553 76 17
-1.602428 0.70567036 -0.23842219 75 16
-1.6509353 0.48065746 -0.29370472 63 15
-1.6037383 0.70887941 -0.49180201 58 13
-1.6503516 0.48019519 -0.38566458 66 14
-1.5957429 0.70729923 -0.59166729 60 12
-1.6479316 0.47553226 -0.67956102 59 11
-1.5960076 0.71364892 -0.90987778 74 9
-1.6493603 0.47411689 -0.78971148 70 10
-1.5970722 0.71741599 -1.037147 71 8
-0.80217272 0.22836937 -0.54087716 38 7
-0.65565491 0.29530758 -0.5210306 71 6
-0.60837567 0.17152607 -0.50559199 53 5
-0.25937724 0.1163329 -0.23839796 49 4
-0.24788252 0.070644759 -0.23652615 88 3
-0.22025621 0.099385388 -0.24423438 33 2
-0.29335651 0.081657395 -0.3539857 8 1
-0.32120562 0.14754517 -0.4483203 9 0
-1.6448298 0.48078942 0.44794029 60 31
-1.586015 0.70335698 0.39342979 71 30
-1.6493907 0.48365206 0.3248865 71 29
-1.5855846 0.70252281 0.26580524 75 28
-1.6452163 0.48396808 0.20509103 75 27
-1.5996042 0.70876926 0.16389728 79 26
-1.6507077 0.48619446 0.11729994 76 25
-1.5959069 0.7071321 0.079774112 77 24
-1.6443363 0.48525679 0.038994133 79 23
-1.5951978 0.70715016 0 79 22
-1.6442517 0.48554376 -0.038994133 81 21
-1.5955365 0.70796764 -0.079774112 79 20
-1.6456214 0.48595247 -0.11636614 77 19
-1.5952727 0.7085104 -0.15357165 79 18
-1.6532038 0.4884997 -0.19332983 76 17
-1.5976936 0.71025085 -0.23807815 76 16
-1.6491625 0.48670527 -0.29370472 63 15
-1.5945489 0.71180493 -0.48973849 60 13
-1.6463269 0.48526752 -0.38510644 67 14
-1.595295 0.71411139 -0.59248453 59 12
-1.6484029 0.48221642 -0.68049836 59 11
-1.595518 0.72012669 -0.91105038 72 9
-1.6497848 0.48078877 -0.79077435 67 10
-1.5963793 0.72415125 -1.0384402 71 8
-0.79933929 0.2307404 -0.53947592 34 7
-0.65456814 0.29770869 -0.5210306 71 6
-0.60223198 0.17220671 -0.50074607 47 5
-0.26550511 0.12032738 -0.24530804 47 4
-0.24762192 0.071552821 -0.23652615 88 3
-0.22137001 0.10084036 -0.24614246 34 2
-0.29013062 0.081940182 -0.35000831 8 1
-0.31150216 0.14437954 -0.43405554 9 0
-1.6453736 0.48749763 0.44858482 59 31
-1.5856479 0.71016371 0.39399344 70 30
-1.6499609 0.49039006 0.32536009 70 29
-1.5852524 0.70934129 0.2661916 75 28
-1.6434314 0.48999482 0.20509103 75 27
-1.5992661 0.71564674 0.16413514 79 26
-1.6513054 0.49295133 0.11747347 77 25
-1.5933044 0.71297669 0.079774112 75 24
-1.6402369 0.49028125 0.038936108 79 23
-1.5925952 0.71299207 0 81 22
-1.6448566 0.49228022 -0.039052162 81 21
-1.5884999 0.71148545 -0.079541199 80 20
-1.6438292 0.4919807 -0.11636614 77 19
-1.5972062 0.71639645 -0.15401873 79 18
-1.6538692 0.49497628 -0.19361414 75 17
-1.5973372 0.71711898 -0.23842219 72 16
-1.6498142 0.49316087 -0.29413414 63 15
-1.5986247 0.72033727 -0.49180201 60 13
-1.6468731 0.49199247 -0.38566458 67 14
-1.5906408 0.71869999 -0.59166729 62 12
-1.6444864 0.48731238 -0.67956102 59 11
-1.59086 0.72505128 -0.90987778 71 9
-1.6502676 0.48718199 -0.79183722 67 10
-1.5938418 0.72971928 -1.0384402 71 8
-0.79057258 0.23123121 -0.533871 33 7
-0.65352494 0.2999917 -0.5210306 70 6
-0.60713267 0.1758751 -0.50559199 45 5
-0.25853813 0.11818598 -0.23839796 49 4
-0.25067294 0.073340625 -0.24016501 87 3
-0.22099893 0.10165104 -0.24614246 30 2
-0.29568654 0.084556572 -0.35796306 8 1
-0.31360921 0.14671569 -0.43813115 9 0
-1.6390328 0.49185631 0.44729578 59 31
-1.5831593 0.71569425 0.39399344 70 30
-1.6458875 0.49544236 0.3248865 71 29
-1.5850164 0.71589005 0.26657793 74 28
-1.6393343 0.49501452 0.20478809 75 27
-1.5946171 0.71991932 0.16389728 79 26
-1.6519629 0.49943078 0.11764698 76 25
-1.5953553 0.72059572 0.080007032 76 24
-1.6409086 0.49672449 0.038994133 76 23
-1.5969275 0.72164404 0 80 22
-1.6432151 0.49773201 -0.039052162 79 21
-1.5928291 0.72012085 -0.079890572 77 20
-1.6444898 0.49843574 -0.11653879 76 19
-1.5925545 0.72065961 -0.15379518 77 18
-1.6497533 0.50002921 -0.19332983 76 17
-1.5972048 0.72343647 -0.23876624 75 16
-1.6433662 0.49749643 -0.29327536 63 15
-1.593914 0.72491527 -0.49111417 59 13
-1.642899 0.4967491 -0.38510644 67 14
-1.5881222 0.72424799 -0.59166729 62 12
-1.6428615 0.49276298 -0.67956102 59 11
-1.5884467 0.73032278 -0.90987778 72 9
-1.6485569 0.49293947 -0.79183722 67 10
-1.5914133 0.73500067 -1.0384402 70 8
-0.79969597 0.23689662 -0.54087716 34 7
-0.65613025 0.3038415 -0.52405989 68 6
-0.60287929 0.17683044 -0.50236142 45 5
-0.2581448 0.11904267 -0.23839796 53 4
-0.24712914 0.073236659 -0.23652615 85 3
-0.21628894 0.10029254 -0.24041823 33 2
-0.29102576 0.084319003 -0.35199699 8 1
-0.30920774 0.14586735 -0.43201771 9 0
-1.6397048 0.49798736 0.44794029 59 31
-1.5829921 0.72195387 0.39455709 67 30
-1.6418864 0.50018567 0.32441291 72 29
-1.58488 0.72216928 0.26696429 75 28
-1.6400582 0.50116986 0.20509103 75 27
-1.5943576 0.72651589 0.16413514 79 26
-1.6479118 0.50417989 0.11747347 76 25
-1.595228 0.72692049 0.080123484 77 24
-1.6392524 0.50216317 0.038994133 79 23
-1.5922523 0.72589576 0 81 22
-1.6462486 0.50492382 -0.039168216 80 21
-1.5904324 0.72539896 -0.079890572 77 20
-1.6452132 0.50461429 -0.11671145 76 19
-1.5945566 0.72828889 -0.15424226 77 18
-1.6504618 0.50622225 -0.19361414 74 17
-1.5946698 0.72900736 -0.23876624 72 16
-1.6464192 0.50437927 -0.29413414 66 15
-1.5936846 0.73120207 -0.49180201 59 13
-1.6434863 0.50319088 -0.38566458 67 14
-1.5900022 0.73149091 -0.59330177 60 12
-1.6433499 0.49916491 -0.68049836 59 11
-1.5878894 0.73679513 -0.91105038 71 9
-1.6447467 0.4977515 -0.79077435 68 10
-1.5888379 0.74055129 -1.0384402 70 8
-0.7949357 0.23837116 -0.53807467 34 7
-0.64966887 0.30358472 -0.51951599 70 6
-0.59859514 0.17786402 -0.49913079 42 5
-0.2560966 0.11916506 -0.23667043 50 4
-0.24357608 0.073152512 -0.23288728 83 3
-0.2203019 0.10315297 -0.24614246 30 2
-0.29510412 0.086567275 -0.35796306 9 1
-0.3073945 0.14631207 -0.42997989 8 0
-1.6379566 0.503708 0.44794029 60 31
-1.5848848 0.72951758 0.39568439 70 30
-1.6424769 0.506634 0.3248865 71 29
-1.5823494 0.72769719 0.26696429 74 28
-1.635927 0.50616157 0.20478809 75 27
-1.5940717 0.73311955 0.16437303 77 26
-1.646142 0.50992912 0.11747347 76 25
-1.5926808 0.73248446 0.080123484 77 24
-1.6374896 0.50788218 0.038994133 79 23
-1.5897087 0.73144937 0 79 22
-1.6397002 0.50919163 -0.039052162 80 21
-1.5856236 0.72989911 -0.079774112 77 20
-1.638676 0.50888157 -0.11636614 77 19
-1.5965246 0.73594099 -0.15468936 77 18
-1.6510576 0.51271361 -0.19389845 74 17
-1.5966097 0.73664981 -0.23945431 72 16
-1.6446487 0.51012337 -0.29413414 71 15
-1.5889428 0.73574781 -0.49111417 59 13
-1.6393911 0.50820649 -0.38510644 67 14
-1.5831558 0.73504114 -0.59166729 63 12
-1.6415975 0.50489819 -0.68049836 59 11
-1.5853078 0.74233341 -0.91105038 72 9
-1.6451634 0.50414932 -0.79183722 66 10
-1.5920476 0.74883282 -1.0423198 71 8
-0.79409885 0.24114454 -0.53807467 32 7
-0.65219712 0.30756006 -0.52254522 68 6
-0.59980041 0.18049371 -0.50074607 42 5
-0.25893578 0.12162561 -0.24012548 51 4
-0.24167295 0.073523395 -0.23106785 83 3
-0.21848816 0.10321425 -0.24423438 30 2
-0.29334345 0.087180786 -0.35597438 9 1
-0.31338176 0.15057546 -0.44016898 8 0
-1.6360996 0.50970799 0.44794029 59 31
-1.5822004 0.73532158 0.39568439 67 30
-1.6429532 0.51337928 0.32536009 71 29
-1.5796717 0.7334919 0.26696429 75 28
-1.6364298 0.5128929 0.20509103 75 27
-1.59363 0.74000823 0.16461091 77 26
-1.644262 0.51595914 0.11747347 76 25
-1.5922492 0.73937166 0.080239952 76 24
-1.6380026 0.51462626 0.039052162 79 23
-1.589283 0.73832715 0 80 22
-1.640208 0.51594454 -0.039110187 81 21
-1.585201 0.73676115 -0.079890572 76 20
-1.6344197 0.51413924 -0.1161935 77 19
-1.5870481 0.73862714 -0.15401873 77 18
-1.6515378 0.51950353 -0.19418277 74 17
-1.593899 0.74249679 -0.23945431 71 16
-1.6427679 0.51614785 -0.29413414 71 15
-1.5927635 0.74462879 -0.49317768 58 13
-1.6398433 0.51493847 -0.38566458 66 14
-1.582589 0.74184436 -0.59248453 62 12
-1.6397359 0.51091158 -0.68049836 59 11
-1.5865662 0.75003159 -0.9133954 72 9
-1.6433047 0.51017576 -0.79183722 67 10
-1.5892923 0.75466299 -1.0423198 70 8
-0.79717141 0.24525785 -0.54087716 33 7
-0.64747983 0.30822584 -0.51951599 68 6
-0.59913486 0.18269089 -0.50074607 42 5
-0.25523734 0.12099458 -0.23667043 53 4
-0.2446909 0.075378574 -0.23470671 88 3
-0.21955812 0.10472676 -0.24614246 28 2
-0.29156676 0.087833963 -0.3539857 8 1
-0.31282777 0.15172306 -0.44016898 8 0
-1.636615 0.51613909 0.44858482 59 31
-1.5796239 0.74083996 0.39568439 67 30
-1.6434927 0.51984811 0.32583368 67 29
-1.5838076 0.74215412 0.26812333 74 28
-1.6346295 0.51860201 0.20509103 75 27
-1.5887848 0.74450755 0.16437303 77 26
-1.6448287 0.52244705 0.11764698 76 25
-1.5919185 0.74598753 0.080356404 76 24
-1.6338133 0.51958674 0.038994133 77 23
-1.586696 0.74387032 0 79 22
-1.6407796 0.52242172 -0.039168216 80 21
-1.5826195 0.74229002 -0.079890572 76 20
-1.6326152 0.51984125 -0.1161935 77 19
-1.5889652 0.74628514 -0.15446581 76 18
-1.6449789 0.52376485 -0.19361414 74 17
-1.593537 0.74911225 -0.23979835 72 16
-1.6409562 0.52187908 -0.29413414 71 15
-1.5879822 0.74915576 -0.49248984 59 13
-1.6357125 0.51992464 -0.38510644 67 14
-1.5821244 0.74837708 -0.59330177 63 12
-1.6423651 0.51801986 -0.68237299 58 11
-1.5819468 0.75461185 -0.91222286 71 9
-1.6415138 0.5159089 -0.79183722 68 10
-1.5866483 0.76020598 -1.0423198 68 8
-0.79037422 0.24621165 -0.53667343 32 7
-0.64818984 0.31135163 -0.5210306 67 6
-0.60031927 0.18533549 -0.50236142 42 5
-0.26130423 0.12506601 -0.24358052 54 4
-0.24606912 0.07672292 -0.23652615 81 3
-0.21774399 0.10477506 -0.24423438 26 2
-0.29852691 0.090983547 -0.36392909 8 1
-0.30841017 0.15087149 -0.43405554 8 0
-1.6371056 0.52258003 0.44922933 59 31
-1.5770283 0.74634945 0.39568439 67 30
-1.6393291 0.52483672 0.32536009 70 29
-1.5812073 0.7476781 0.26812333 75 28
-1.6304455 0.5235495 0.20478809 75 27
-1.5863072 0.74977213 0.16437303 79 26
-1.6406199 0.52742559 0.11747347 76 25
-1.5893048 0.75153983 0.080356404 76 24
-1.6319896 0.52528661 0.038994133 79 23
-1.588607 0.75154823 0 80 22
-1.6366582 0.52709705 -0.039110187 80 21
-1.5845306 0.74995226 -0.080123484 75 20
-1.6355405 0.52706021 -0.11653879 76 19
-1.5842326 0.75048143 -0.15424226 77 18
-1.6455057 0.53026223 -0.19389845 74 17
-1.5932804 0.75545621 -0.24014241 71 16
-1.6391245 0.52760386 -0.29413414 70 15
-1.591864 0.75780195 -0.49455336 58 13
-1.6409426 0.52757359 -0.38678083 67 14
-1.5795025 0.75389522 -0.59330177 59 12
-1.6384294 0.52276218 -0.6814357 59 11
-1.5794359 0.75985366 -0.91222286 71 9
-1.6440177 0.52300113 -0.79396296 67 10
-1.5860438 0.76639694 -1.0436131 70 8
-0.79346317 0.25020114 -0.53947592 30 7
-0.64358002 0.31175247 -0.51800138 68 6
-0.59422958 0.18564397 -0.49751547 43 5
-0.2527878 0.12192842 -0.23494291 56 4
-0.24088977 0.07605011 -0.23106785 77 3
-0.22028503 0.10694107 -0.24805054 26 2
-0.29677126 0.091541708 -0.36194041 9 1
-0.30532169 0.15058972 -0.42997989 8 0
-1.6353636 0.5280059 0.44922933 59 31
-1.5767412 0.7526269 0.39624804 67 30
-1.6399162 0.53102285 0.32583368 71 29
-1.5764911 0.75185138 0.26773697 75 28
-1.6287004 0.52895331 0.20478809 75 27
-1.5881703 0.75745308 0.16484877 77 26
-1.6412345 0.53363091 0.11764698 76 25
-1.5845512 0.75572824 0.080239952 76 24
-1.630146 0.53098011 0.038994133 77 23
-1.5861059 0.75681216 0 77 22
-1.6443177 0.53589112 -0.039342295 79 21
-1.5819031 0.75547874 -0.080123484 75 20
-1.6385282 0.53401977 -0.1168841 76 19
-1.5883389 0.75923687 -0.15491289 77 18
-1.6460072 0.53676957 -0.19418277 74 17
-1.5906337 0.76101315 -0.24014241 71 16
-1.6419585 0.53484106 -0.29499292 70 15
-1.589209 0.76335394 -0.49455336 58 13
-1.634454 0.53179705 -0.38566458 67 14
-1.5768613 0.75940412 -0.59330177 62 12
-1.6387087 0.52947301 -0.68237299 60 11
-1.578759 0.76632917 -0.9133954 70 9
-1.6400272 0.52804643 -0.79290009 67 10
-1.5813024 0.77126431 -1.0423198 68 8
-0.79061049 0.25234637 -0.53807467 32 7
-0.64778405 0.31674922 -0.52254522 71 6
-0.59718895 0.18895487 -0.50074607 41 5
-0.25719053 0.12527396 -0.24012548 43 4
-0.23733069 0.075928226 -0.22742899 79 3
-0.21846807 0.10698206 -0.24614246 25 2
-0.29498306 0.092192203 -0.35995173 8 1
-0.3008953 0.14973806 -0.42386642 7 0
-1.6311204 0.53324908 0.44858482 59 31
-1.5761651 0.75946099 0.39681172 67 30
-1.6356251 0.53626847 0.32536009 68 29
-1.5737247 0.75762445 0.26773697 72 28
-1.6338261 0.53723466 0.20569691 74 27
-1.5853833 0.76326889 0.16484877 76 26
-1.6416378 0.54041928 0.11782051 76 25
-1.5840193 0.76261693 0.080356404 74 24
-1.6259079 0.53588825 0.038936108 77 23
-1.5833215 0.76262051 0 79 22
-1.6375935 0.54035467 -0.039226241 79 21
-1.5815048 0.76208287 -0.080239952 75 20
-1.6318209 0.53846538 -0.11653879 76 19
-1.5833043 0.76396847 -0.15468936 76 18
-1.6417636 0.5417369 -0.19389845 74 17
-1.5922906 0.76899737 -0.2408305 74 16
-1.6377413 0.53980172 -0.29456353 70 15
-1.5843731 0.76784569 -0.49386552 58 13
-1.6348096 0.53854322 -0.38622272 68 14
-1.5784482 0.76697451 -0.59493619 60 12
-1.6390545 0.53590691 -0.68331033 58 11
-1.5779208 0.77308458 -0.91456789 70 9
-1.6424789 0.5351634 -0.79502583 66 10
-1.5824375 0.77867401 -1.0449063 66 8
-0.78972483 0.25510457 -0.53807467 33 7
-0.63955212 0.3154636 -0.5164867 72 6
-0.59288597 0.18989138 -0.49751547 39 5
-0.25190884 0.1237342 -0.23494291 45 4
-0.23706421 0.076756194 -0.22742899 80 3
-0.22095378 0.10924722 -0.24995862 24 2
-0.29900694 0.094546333 -0.36591777 8 1
-0.29908222 0.1501264 -0.42182863 7 0
-1.6315434 0.53969479 0.44922933 58 31
-1.5735044 0.76495826 0.39681172 67 30
-1.6360742 0.54274416 0.32583368 68 29
-1.5688504 0.7620312 0.26735064 74 28
-1.629585 0.54215449 0.20539397 74 27
-1.5849466 0.76988852 0.16508666 77 26
-1.6397414 0.54614639 0.11782051 76 25
-1.5835927 0.76923561 0.080472864 74 24
-1.6263994 0.54234767 0.038994133 77 23
-1.5828968 0.76923811 0 77 22
-1.6380692 0.54685581 -0.039284267 77 21
-1.5765904 0.76650405 -0.080123484 75 20
-1.6299314 0.54415834 -0.11653879 76 19
-1.5851027 0.77167594 -0.15513644 76 18
-1.6445767 0.54903084 -0.19446707 74 17
-1.5895966 0.77455086 -0.2408305 71 16
-1.635847 0.54551524 -0.29456353 70 15
-1.5838411 0.77443004 -0.49455336 60 13
-1.6352328 0.54501361 -0.38678083 64 14
-1.5757614 0.77247959 -0.59493619 60 12
-1.632771 0.54017574 -0.6814357 58 11
-1.5752128 0.77858788 -0.91456789 68 9
-1.6363008 0.53948301 -0.79290009 67 10
-1.5777947 0.78323895 -1.0436131 68 8
-0.78094923 0.25531289 -0.53246975 32 7
-0.64377952 0.32037142 -0.5210306 70 6
-0.59767306 0.1936992 -0.50236142 41 5
-0.24825248 0.122977 -0.23148786 45 4
-0.23843065 0.078096814 -0.22924842 75 3
-0.219134 0.10928023 -0.24805054 30 2
-0.29722747 0.095142767 -0.36392909 8 1
-0.28698057 0.14517938 -0.40348825 7 0
-1.6319413 0.54614985 0.44987386 59 31
-1.5751953 0.77259678 0.39793903 66 30
-1.6364981 0.5492295 0.3263073 68 29
-1.5772636 0.77295154 0.26928237 74 28
-1.6323889 0.54941595 0.20599985 74 27
-1.5846183 0.77623767 0.16532454 76 26
-1.6378249 0.55186677 0.11782051 76 25
-1.5831391 0.77586043 0.080589324 76 24
-1.6292351 0.54961264 0.039110187 76 23
-1.5802021 0.77475876 0 77 22
-1.6315084 0.55069292 -0.039168216 77 21
-1.5783864 0.77420777 -0.080356404 75 20
-1.6280221 0.54984444 -0.11653879 76 19
-1.5870026 0.77912837 -0.15558352 75 18
-1.6379415 0.55318534 -0.19389845 74 17
-1.5870193 0.77981788 -0.2408305 71 16
-1.6362677 0.55200601 -0.29499292 70 15
-1.5811282 0.77995402 -0.49455336 56 13
-1.6334164 0.55043328 -0.38678083 66 14
-1.5772882 0.78007561 -0.59657061 59 12
-1.6331697 0.54631913 -0.68237299 58 11
-1.5726221 0.7838071 -0.91456789 68 9
-1.63226 0.54447865 -0.79183722 67 10
-1.5809244 0.7913478 -1.0474926 67 8
-0.78202116 0.25868094 -0.533871 30 7
-0.63739002 0.31980953 -0.5164867 75 6
-0.59521151 0.19509426 -0.50074607 41 5
-0.24301718 0.1213299 -0.22630529 43 4
-0.23817037 0.078887045 -0.22924842 76 3
-0.22020504 0.11074866 -0.24995862 28 2
-0.29112583 0.09432178 -0.35597438 8 1
-0.29163349 0.14880955 -0.41163954 4 0
-1.6278321 0.55078769 0.44922933 60 31
-1.5704428 0.77673352 0.39737535 68 30
-1.6346678 0.55465329 0.3263073 67 29
-1.5769048 0.77927476 0.26966873 72 28
-1.6305579 0.55482614 0.20599985 74 27
-1.584129 0.78286976 0.16556242 76 26
-1.635986 0.55729496 0.11782051 75 25
-1.5805576 0.781106 0.080589324 76 24
-1.6274036 0.55501235 0.039110187 77 23
-1.5776242 0.77999467 0 77 22
-1.6319426 0.55718881 -0.039226241 77 21
-1.5780476 0.78054768 -0.080472864 74 20
-1.628551 0.55604267 -0.11671145 76 19
-1.5798135 0.78244746 -0.15513644 76 18
-1.6384499 0.55941314 -0.19418277 74 17
-1.5820702 0.78425026 -0.24048644 72 16
-1.6320959 0.55663741 -0.29456353 71 15
-1.5785332 0.78519291 -0.49455336 58 13
-1.6337928 0.55691451 -0.38733897 66 14
-1.5768057 0.78635901 -0.59738785 62 12
-1.6290563 0.5512771 -0.6814357 59 11
-1.5738193 0.79128087 -0.91691291 68 9
-1.6304454 0.54988843 -0.79183722 67 10
-1.5781523 0.79686147 -1.0474926 66 8
-0.78705603 0.26322308 -0.53807467 30 7
-0.63981253 0.32384151 -0.51951599 74 6
-0.59452689 0.19717075 -0.50074607 43 5
-0.24419799 0.12300627 -0.22803281 47 4
-0.23952582 0.080242634 -0.23106785 75 3
-0.21695308 0.11002192 -0.24614246 28 2
-0.2893503 0.094880857 -0.3539857 8 1
-0.28470409 0.14645512 -0.40145043 4 0
-1.6304725 0.55802423 0.45051837 59 31
-1.5720781 0.78439099 0.39850265 67 30
-1.6350446 0.56114948 0.32678086 68 29
-1.5697567 0.78256482 0.26889601 72 28
-1.6262637 0.5597102 0.20569691 74 27
-1.5769348 0.78616828 0.16508666 76 26
-1.6387488 0.56462038 0.11816755 75 25
-1.5800548 0.7877354 0.080705784 72 24
-1.6253585 0.56097335 0.039110187 77 23
-1.5793636 0.78773409 0 77 22
-1.6299877 0.56288195 -0.039226241 79 21
-1.5774093 0.78744447 -0.080589324 74 20
-1.6242417 0.56091326 -0.11653879 76 19
-1.5770725 0.78795725 -0.15513644 75 18
-1.6340398 0.56460679 -0.19389845 71 17
-1.5837498 0.79198849 -0.24117453 71 16
-1.6323742 0.56341583 -0.29499292 70 15
-1.5777912 0.79205424 -0.49524119 60 13
-1.629534 0.56182319 -0.38678083 66 14
-1.573913 0.79213297 -0.59738785 58 12
-1.6292186 0.55799186 -0.68237299 56 11
-1.5710477 0.79676968 -0.91691291 67 9
-1.6348469 0.5580439 -0.79502583 64 10
-1.5771261 0.80361432 -1.0487858 66 8
-0.78608596 0.26610598 -0.53807467 32 7
-0.63685322 0.32527336 -0.51800138 74 6
-0.60104692 0.20174371 -0.50720733 39 5
-0.2453483 0.1247352 -0.22976033 46 4
-0.23759976 0.080589324 -0.22924842 71 3
-0.2165677 0.11077856 -0.24614246 25 2
-0.28755775 0.095478877 -0.35199699 8 1
-0.28544456 0.14817661 -0.40348825 4 0
-1.623849 0.56242198 0.44922933 60 31
-1.5713665 0.79124588 0.39906633 67 30
-1.6306568 0.56633645 0.3263073 68 29
-1.566878 0.78831303 0.26889601 72 28
-1.6242014 0.56566703 0.20569691 74 27
-1.5762645 0.79306406 0.16532454 75 26
-1.6343122 0.56980515 0.11799403 75 25
-1.5816159 0.79577166 0.080938697 75 24
-1.6233903 0.56664348 0.039110187 77 23
-1.5764657 0.79351747 0 77 22
-1.6302742 0.56967348 -0.039284267 77 21
-1.5746509 0.79294586 -0.080589324 74 20
-1.626886 0.56850135 -0.1168841 76 19
-1.5763958 0.79485613 -0.15535997 75 18
-1.6390966 0.57275528 -0.19475138 74 17
-1.5808363 0.79778796 -0.24117453 70 16
-1.6327238 0.56991869 -0.29542232 68 15
-1.5728741 0.7964685 -0.49455336 56 13
-1.6251618 0.56699252 -0.38622272 64 14
-1.5711384 0.7976222 -0.59738785 58 12
-1.629452 0.56443071 -0.68331033 56 11
-1.570081 0.80353105 -0.91808546 67 9
-1.632889 0.56374717 -0.79502583 66 10
-1.5743114 0.80911458 -1.0487858 66 8
-0.78123033 0.26752007 -0.53527224 33 7
-0.63571393 0.32749441 -0.51800138 75 6
-0.59491032 0.20202515 -0.50236142 42 5
-0.24171168 0.12391026 -0.22630529 49 4
-0.24057397 0.082490936 -0.23288728 75 3
-0.21758687 0.11232916 -0.24805054 25 2
-0.28866395 0.096948959 -0.3539857 8 1
-0.28109524 0.14712174 -0.39737478 4 0
-1.6241568 0.56888211 0.44987386 59 31
-1.5685951 0.79672617 0.39906633 66 30
-1.6286701 0.57202506 0.3263073 68 29
-1.568519 0.79601878 0.26966873 74 28
-1.6245588 0.57215416 0.20599985 74 27
-1.575844 0.79941547 0.16556242 75 26
-1.6346664 0.57633245 0.11816755 75 25
-1.5766031 0.80015475 0.080822244 72 24
-1.6237606 0.57313526 0.039168216 77 23
-1.5759139 0.8001501 0 75 22
-1.6260184 0.5742476 -0.039226241 79 21
-1.5763236 0.80070502 -0.080822244 74 20
-1.622539 0.57334924 -0.11671145 76 19
-1.5759695 0.80121046 -0.15558352 75 18
-1.6324015 0.5768249 -0.19418277 71 17
-1.5825932 0.80527723 -0.24186261 70 16
-1.6307244 0.57561445 -0.29542232 70 15
-1.5765014 0.805242 -0.49661684 62 13
-1.6278713 0.57399267 -0.38733897 64 14
-1.5704461 0.80418116 -0.59820509 62 12
-1.6253828 0.56906855 -0.68237299 58 11
-1.5674076 0.80873322 -0.91808546 67 9
-1.6309111 0.56944352 -0.79502583 66 10
-1.573518 0.81531769 -1.0500791 66 8
-0.79008508 0.27360031 -0.54227841 34 7
-0.62933904 0.3268317 -0.51345748 81 6
-0.59423715 0.20399682 -0.50236142 42 5
-0.24609065 0.12724793 -0.23148786 49 4
-0.23867241 0.082746498 -0.23106785 77 3
-0.21294084 0.11076313 -0.2423263 24 2
-0.28834087 0.097905673 -0.3539857 8 1
-0.27805677 0.14667769 -0.39329916 4 0
-1.6268177 0.57587034 0.4511629 58 31
-1.5659444 0.80192345 0.39906633 66 30
-1.6313933 0.57905835 0.32725447 67 29
-1.568068 0.80234361 0.27005506 71 28
-1.6226524 0.57753819 0.20599985 74 27
-1.5730439 0.80491132 0.16556242 75 26
-1.6327463 0.58175004 0.11816755 75 25
-1.5761625 0.80651885 0.080938697 71 24
-1.6194957 0.57768029 0.039110187 76 23
-1.5754759 0.80651361 0 75 22
-1.626359 0.58075714 -0.039284267 77 21
-1.575881 0.807069 -0.080938697 74 20
-1.6206288 0.57872659 -0.11671145 75 19
-1.5753775 0.80784565 -0.15580705 74 18
-1.6328199 0.58306688 -0.19446707 74 17
-1.5775709 0.80966318 -0.24151857 70 16
-1.6288067 0.58101892 -0.29542232 70 15
-1.5738223 0.81046534 -0.49661684 60 13
-1.6258578 0.57967156 -0.38733897 66 14
-1.5698687 0.81047112 -0.59902233 60 12
-1.6277581 0.57627916 -0.68424767 59 11
-1.5684897 0.81624347 -0.92043054 66 9
-1.6268789 0.574099 -0.79396296 66 10
-1.5725572 0.82179892 -1.0513723 66 8
-0.78330415 0.2741864 -0.53807467 32 7
-0.63171148 0.33088481 -0.5164867 80 6
-0.59171599 0.20545243 -0.50074607 42 5
-0.24405088 0.12725499 -0.22976033 46 4
-0.24000691 0.084126554 -0.23288728 77 3
-0.21255291 0.11150575 -0.2423263 22 2
-0.29087338 0.09986496 -0.35796306 7 1
-0.28008729 0.14903167 -0.39737478 7 0
-1.6225224 0.58073473 0.45051837 59 31
-1.5652982 0.80850512 0.39962995 64 30
-1.6316737 0.58557534 0.32772809 68 29
-1.5608708 0.80554128 0.26928237 72 28
-1.6229628 0.58403575 0.20630279 74 27
-1.5790648 0.81497383 0.16651392 74 26
-1.6330531 0.58828777 0.11834107 75 25
-1.5755554 0.813164 0.081055157 72 24
-1.6198217 0.58417451 0.039168216 76 23
-1.572651 0.81200814 0 74 22
-1.6290258 0.58812147 -0.039400321 76 21
-1.5730542 0.81256497 -0.080938697 74 20
-1.6256397 0.5869109 -0.11722939 75 19
-1.5747582 0.81448644 -0.1560306 74 18
-1.6307745 0.58876294 -0.19446707 74 17
-1.5747352 0.81516498 -0.24151857 68 16
-1.6290866 0.5875333 -0.29585171 68 15
-1.5709836 0.81595415 -0.49661684 59 13
-1.6261182 0.58616638 -0.38789707 64 14
-1.5670301 0.8159461 -0.59902233 62 12
-1.6235535 0.58117974 -0.68331033 58 11
-1.5656308 0.82171351 -0.92043054 66 9
-1.6291295 0.5812887 -0.7960887 63 10
-1.5753531 0.83028364 -1.0552518 63 8
-0.78429633 0.2776033 -0.53947592 32 7
-0.63230795 0.33402318 -0.51800138 84 6
-0.59099519 0.20751666 -0.50074607 42 5
-0.24201405 0.12724939 -0.22803281 51 4
-0.23971181 0.084963828 -0.23288728 74 3
-0.21641864 0.11456376 -0.24805054 20 2
-0.28765032 0.099916272 -0.3539857 8 1
-0.27956539 0.15000844 -0.39737478 7 0
-1.6250304 0.58803213 0.45180741 58 31
-1.564625 0.81509221 0.40019363 66 30
-1.6273109 0.59043342 0.32725447 67 29
-1.564618 0.81441438 0.27044141 72 28
-1.6185811 0.58885229 0.20599985 74 27
-1.5740044 0.8193289 0.16627604 74 26
-1.6309898 0.59398454 0.11834107 75 25
-1.5749211 0.8198145 0.081171617 71 24
-1.6176697 0.5901075 0.039168216 76 23
-1.5720228 0.81865025 0 74 22
-1.6246138 0.59295058 -0.039342295 76 21
-1.5700654 0.81832504 -0.080938697 71 20
-1.6235812 0.59258187 -0.11722939 75 19
-1.5719055 0.81997842 -0.1560306 74 18
-1.63094 0.59558481 -0.19475138 70 17
-1.5740737 0.8218056 -0.24186261 68 16
-1.6292372 0.59434092 -0.2962811 67 15
-1.5722376 0.82394338 -0.49799252 59 13
-1.6240621 0.59183896 -0.38789707 64 14
-1.5682092 0.82388711 -0.60065675 60 12
-1.6257733 0.58869809 -0.68518502 56 11
-1.5627531 0.82717359 -0.92043054 64 9
-1.6248587 0.58649087 -0.79502583 64 10
-1.5704117 0.83504492 -1.0539587 63 8
-0.78327364 0.280476 -0.53947592 33 7
-0.63107944 0.33633843 -0.51800138 79 6
-0.58662874 0.20842068 -0.49751547 42 5
-0.2367821 0.12554789 -0.22285026 49 4
-0.23777793 0.085282788 -0.23106785 70 3
-0.21460138 0.11454131 -0.24614246 18 2
-0.29158589 0.10243081 -0.35995173 8 1
-0.27901369 0.15103211 -0.39737478 4 0
-1.6228641 0.59398419 0.45180741 58 31
-1.5573181 0.81854951 0.39906633 66 30
-1.6228302 0.59555143 0.32678086 67 29
-1.5638077 0.82129472 0.27082774 71 28
-1.618742 0.59563434 0.20630279 74 27
-1.5709908 0.82509249 0.16627604 72 26
-1.6288016 0.59995854 0.11834107 75 25
-1.5719059 0.82558137 0.081171617 72 24
-1.6156001 0.59575069 0.039168216 76 23
-1.5690119 0.82440645 0 72 22
-1.6224296 0.59890109 -0.039342295 76 21
-1.5694085 0.82496536 -0.081055157 74 20
-1.6167165 0.59680784 -0.1168841 75 19
-1.5732936 0.8280592 -0.15647767 72 18
-1.6288511 0.60127419 -0.19475138 70 17
-1.5732405 0.82872611 -0.24220666 68 16
-1.6248407 0.59917563 -0.29585171 70 15
-1.5651047 0.8271749 -0.49661684 59 13
-1.6195945 0.59694809 -0.38733897 64 14
-1.5653238 0.82935619 -0.60065675 62 12
-1.6237084 0.59436953 -0.68518502 55 11
-1.5655496 0.83602393 -0.92394805 64 9
-1.6291821 0.59447646 -0.79821444 63 10
-1.5693715 0.84153527 -1.0552518 62 8
-0.7783916 0.28181192 -0.53667343 33 7
-0.62290722 0.334748 -0.51194286 77 6
-0.58769637 0.21110374 -0.49913079 42 5
-0.23792738 0.12724173 -0.22457777 49 4
-0.23747879 0.086112268 -0.23106785 72 3
-0.21983288 0.1184566 -0.25377479 18 2
-0.2912266 0.103448 -0.35995173 8 1
-0.27848479 0.15200512 -0.39737478 7 0
-1.6207809 0.59964544 0.45180741 56 31
-1.5587524 0.82626748 0.40019363 66 30
-1.6276497 0.60376388 0.32820165 67 29
-1.5652939 0.8290661 0.27160043 71 28
-1.6166531 0.60128123 0.20630279 74 27
-1.5724967 0.83290642 0.1667518 74 26
-1.6266975 0.60564035 0.11834107 75 25
-1.5756307 0.83457822 0.081520997 71 24
-1.6181971 0.60312563 0.039284267 75 23
-1.5683321 0.83105171 0 72 22
-1.6226722 0.6054312 -0.039400321 76 21
-1.5665193 0.83043861 -0.081055157 71 20
-1.6169612 0.60331607 -0.11705674 76 19
-1.5703934 0.83354598 -0.15647767 72 18
-1.6290706 0.60782123 -0.19503568 70 17
-1.570338 0.83421272 -0.24220666 68 16
-1.6250483 0.60570061 -0.2962811 70 15
-1.5664471 0.83489949 -0.49799252 59 13
-1.6197854 0.60344523 -0.38789707 64 14
-1.5624192 0.83481508 -0.60065675 60 12
-1.6194489 0.59923273 -0.68424767 56 11
-1.5645645 0.84253311 -0.92512059 64 9
-1.6249731 0.5993799 -0.79715157 63 10
-1.5683051 0.84802854 -1.0565451 62 8
-0.7793498 0.28523234 -0.53807467 32 7
-0.62173492 0.33692029 -0.51194286 75 6
-0.59234548 0.21508257 -0.5039767 46 5
-0.24222751 0.13069236 -0.22976033 50 4
-0.23394297 0.085799992 -0.22742899 75 3
-0.21377625 0.11607403 -0.24614246 20 2
-0.28800142 0.10346999 -0.35597438 8 1
-0.27795249 0.15297629 -0.39737478 4 0
-1.6164142 0.60445654 0.4511629 59 31
-1.5558586 0.83170348 0.40019363 66 30
-1.6186329 0.60686636 0.32678086 67 29
-1.558036 0.83219206 0.27082774 71 28
-1.6145443 0.60692072 0.20630279 74 27
-1.569726 0.83811647 0.1667518 74 26
-1.6245736 0.61131495 0.11834107 75 25
-1.5705063 0.83889377 0.08140453 72 24
-1.6160818 0.60877049 0.039284267 76 23
-1.5698286 0.83888304 0 72 22
-1.6206557 0.61080885 -0.039400321 76 21
-1.5658118 0.83708173 -0.081171617 74 20
-1.6125107 0.60807997 -0.1168841 75 19
-1.5742027 0.84228116 -0.15714829 71 18
-1.6315895 0.61525023 -0.19560429 72 17
-1.5675631 0.83941561 -0.24220666 68 16
-1.6206181 0.61050451 -0.29585171 70 15
-1.5635232 0.84036237 -0.49799252 59 13
-1.6223395 0.61052346 -0.38901332 63 14
-1.5615742 0.84138721 -0.60147393 59 12
-1.6152806 0.60379142 -0.68331033 58 11
-1.5598227 0.84666079 -0.92394805 64 9
-1.6228708 0.60504848 -0.79715157 63 10
-1.5673614 0.85425097 -1.0578382 63 8
-0.78029364 0.28866288 -0.53947592 33 7
-0.62235636 0.33993989 -0.51345748 75 6
-0.58983457 0.21639684 -0.50236142 47 5
-0.23547675 0.12797943 -0.22285026 49 4
-0.23365717 0.086575307 -0.22742899 72 3
-0.21761365 0.11915822 -0.2518667 18 2
-0.29194516 0.10592963 -0.36194041 8 1
-0.28248298 0.15675408 -0.40552607 4 0
-1.6189228 0.61151409 0.45245194 58 31
-1.5595204 0.84033251 0.40188456 66 30
-1.6235023 0.61482888 0.32820165 67 29
-1.5552676 0.83735406 0.27082774 71 28
-1.614844 0.61314905 0.20660573 74 27
-1.5689807 0.84477323 0.16698968 74 26
-1.6248699 0.61758167 0.11851459 72 25
-1.5677158 0.84409714 0.08140453 71 24
-1.611717 0.61324084 0.039226241 76 23
-1.5648386 0.84289587 0 72 22
-1.6185136 0.61646235 -0.039400321 76 21
-1.5630273 0.84226954 -0.081171617 71 20
-1.6174812 0.61607724 -0.11740204 74 19
-1.5690632 0.84658599 -0.15692475 72 18
-1.6248956 0.61889583 -0.19503568 74 17
-1.5668008 0.84606153 -0.2425507 70 16
-1.625494 0.61849302 -0.29713988 67 15
-1.5628396 0.84669018 -0.49868038 59 13
-1.6179196 0.61531973 -0.38845521 64 14
-1.562925 0.84882146 -0.60310835 58 12
-1.617502 0.61105776 -0.68518502 56 11
-1.5607285 0.85422581 -0.92629313 62 9
-1.6208556 0.61042678 -0.79715157 63 10
-1.5587491 0.85661787 -1.0539587 53 8
-0.77350664 0.289094 -0.53527224 30 7
-0.62116587 0.34211028 -0.51345748 79 6
-0.58907562 0.21845444 -0.50236142 46 5
-0.23818046 0.13056935 -0.22630529 50 4
-0.23657948 0.088553086 -0.23106785 71 3
-0.2200065 0.12151088 -0.25568286 18 2
-0.29442906 0.10796147 -0.36591777 8 1
-0.28444877 0.15917644 -0.40960172 7 0
-1.6122624 0.61544514 0.4511629 58 31
-1.5565774 0.84577119 0.40188456 63 30
-1.6190525 0.61961812 0.32772809 66 29
-1.5566738 0.8451404 0.27160043 70 28
-1.615012 0.61966783 0.20690867 72 27
-1.5682079 0.85143495 0.16722755 72 26
-1.6250336 0.62414062 0.11868811 72 25
-1.5669532 0.85075867 0.081520997 71 24
-1.6141263 0.62093198 0.039342295 75 23
-1.5640823 0.84954906 0 72 22
-1.6186855 0.62300259 -0.039458349 76 21
-1.5665076 0.85157901 -0.081520997 70 20
-1.6153208 0.62171954 -0.11740204 75 19
-1.5660985 0.85205793 -0.15692475 71 18
-1.6272545 0.62662584 -0.19560429 72 17
-1.5660112 0.85271245 -0.24289475 68 16
-1.6209164 0.62356555 -0.29671049 66 15
-1.5597259 0.85241252 -0.49868038 59 13
-1.6180377 0.62183452 -0.38901332 63 14
-1.561874 0.85568213 -0.60392559 59 12
-1.6152514 0.6169821 -0.68518502 56 11
-1.5577374 0.85966861 -0.92629313 63 9
-1.6186073 0.61636341 -0.79715157 64 10
-1.5668181 0.86856449 -1.0617179 63 8
-0.77632022 0.29337791 -0.53807467 30 7
-0.61990786 0.34438464 -0.51345748 76 6
-0.59185034 0.22193536 -0.50559199 46 5
-0.24084565 0.13322175 -0.22976033 50 4
-0.23625334 0.089419596 -0.23106785 72 3
-0.22238556 0.12388169 -0.25949904 14 2
-0.29117969 0.10801601 -0.36194041 8 1
-0.27758998 0.15660179 -0.3994126 4 0
-1.6145055 0.62308311 0.45245194 59 31
-1.5577358 0.8538174 0.40301186 66 30
-1.6167705 0.62554812 0.32772809 67 29
-1.5535657 0.85084021 0.27160043 71 28
-1.6104152 0.62468874 0.20660573 74 27
-1.5694392 0.8595733 0.1677033 72 26
-1.6273875 0.63189137 0.11903515 71 25
-1.5638245 0.85649616 0.081520997 71 24
-1.6119491 0.6265626 0.039342295 75 23
-1.5653398 0.85768396 0 71 22
-1.6163913 0.62893116 -0.039458349 76 21
-1.5657136 0.85824502 -0.08163745 70 20
-1.6130313 0.62763578 -0.11740204 75 19
-1.5651463 0.85899287 -0.15714829 71 18
-1.6227415 0.6314047 -0.19532 74 17
-1.5628754 0.85844642 -0.24289475 68 16
-1.6187298 0.62921983 -0.29671049 67 15
-1.5588444 0.85901451 -0.49936819 58 13
-1.613475 0.62688148 -0.38845521 64 14
-1.556811 0.85998368 -0.60310835 60 12
-1.619578 0.62511057 -0.68799692 58 11
-1.5584316 0.86752522 -0.92863816 63 9
-1.616446 0.62200969 -0.79715157 64 10
-1.5619105 0.87298203 -1.0604247 64 8
-0.77141809 0.29462165 -0.53527224 33 7
-0.61697024 0.34556821 -0.51194286 77 6
-0.58570999 0.22199622 -0.50074607 47 5
-0.23567046 0.13137476 -0.22457777 51 4
-0.23915732 0.091429472 -0.23470671 66 3
-0.21633273 0.12146825 -0.2518667 16 2
-0.29222494 0.10954867 -0.36392909 8 1
-0.28205028 0.1604802 -0.40756389 4 0
-1.616824 0.63046348 0.45374098 58 31
-1.5547459 0.85924971 0.40301186 66 30
-1.6145773 0.63118786 0.32772809 67 29
-1.5549078 0.8586514 0.27237311 71 28
-1.6105366 0.6312086 0.20690867 72 27
-1.5665802 0.86477304 0.1677033 72 26
-1.620526 0.6357531 0.11868811 72 25
-1.5651944 0.86436951 0.08175391 71 24
-1.6097522 0.63218546 0.039342295 74 23
-1.5601497 0.86193115 0 72 22
-1.6119695 0.63337725 -0.039400321 76 21
-1.5648926 0.86491579 -0.08175391 70 20
-1.613153 0.63417172 -0.1175747 74 19
-1.5644667 0.86538637 -0.15737183 71 18
-1.6182145 0.63615978 -0.19503568 70 17
-1.5600201 0.86362433 -0.24289475 70 16
-1.6188172 0.63576347 -0.29713988 67 15
-1.5579361 0.86562067 -0.50005603 59 13
-1.6136572 0.63311529 -0.38901332 63 14
-1.5537996 0.86541277 -0.60310835 62 12
-1.6131749 0.62880087 -0.6861223 55 11
-1.5574704 0.87377131 -0.9298107 60 9
-1.614265 0.62764829 -0.79715157 63 10
-1.564595 0.88131446 -1.0643042 63 8
-0.77038503 0.29731259 -0.53527224 34 7
-0.60717827 0.34269261 -0.50436974 75 6
-0.58854091 0.22528495 -0.5039767 47 5
-0.2368001 0.13305637 -0.22630529 54 4
-0.23403239 0.090427428 -0.22924842 76 3
-0.22151528 0.12543121 -0.25949904 14 2
-0.29328239 0.11103875 -0.36591777 8 1
-0.27276841 0.15629239 -0.39329916 4 0
-1.6124758 0.63493991 0.45309645 58 31
-1.5497619 0.86321288 0.40244824 64 30
-1.6147597 0.63743651 0.32820165 67 29
-1.5520518 0.86380291 0.27237311 70 28
-1.6107433 0.6374557 0.20721161 72 27
-1.5635518 0.87023616 0.1677033 72 26
-1.6207286 0.6420387 0.11886163 71 25
-1.5644999 0.8707723 0.08187037 71 24
-1.6146208 0.64027423 0.039516374 74 23
-1.5616481 0.86953783 0 71 22
-1.6143972 0.64083779 -0.039516374 76 21
-1.5598357 0.86888248 -0.08163745 72 20
-1.6064024 0.63768381 -0.11722939 74 19
-1.5636094 0.87205756 -0.15759537 70 18
-1.6207159 0.64334881 -0.19560429 70 17
-1.5591567 0.87027413 -0.24323879 68 16
-1.6167001 0.64112812 -0.29713988 66 15
-1.5571526 0.87195909 -0.50074387 58 13
-1.613704 0.6396389 -0.38957146 63 14
-1.5570976 0.87403798 -0.60556006 59 12
-1.6131278 0.63527411 -0.68705964 58 11
-1.5563313 0.8802923 -0.93098325 60 9
-1.6142821 0.63382173 -0.79821444 63 10
-1.5596502 0.88571149 -1.0630112 63 8
-0.76746333 0.29912031 -0.533871 34 7
-0.61287868 0.34876981 -0.51042825 74 6
-0.58418536 0.22597785 -0.50074607 46 5
-0.23946106 0.13569473 -0.22976033 51 4
-0.23371533 0.091243811 -0.22924842 68 3
-0.21550092 0.12293795 -0.2518667 14 2
-0.29147249 0.11153523 -0.36392909 8 1
-0.26972684 0.15577136 -0.38922352 4 0
-1.6080039 0.63967502 0.45245194 58 31
-1.5488613 0.86981255 0.40301186 64 30
-1.6125247 0.64306921 0.32820165 67 29
-1.5511796 0.87042671 0.27275947 71 28
-1.6085082 0.64307445 0.20721161 70 27
-1.5648423 0.87812984 0.16817905 72 26
-1.6207944 0.64861554 0.11903515 71 25
-1.5614508 0.87622815 0.08187037 71 24
-1.6076208 0.64433479 0.039400321 74 23
-1.5629604 0.87743664 0 71 22
-1.6121503 0.64646918 -0.039516374 76 21
-1.5588162 0.87581974 -0.08175391 70 20
-1.6087989 0.64513737 -0.1175747 72 19
-1.5605558 0.87751031 -0.15759537 70 18
-1.6206534 0.65020633 -0.19588861 72 17
-1.5561093 0.87571132 -0.24323879 68 16
-1.612052 0.64613634 -0.29671049 66 15
-1.5560377 0.87884516 -0.5014317 58 13
-1.6137249 0.64617044 -0.39012957 63 14
-1.5538836 0.87973917 -0.60556006 59 12
-1.6129432 0.6420362 -0.68799692 59 11
-1.5570822 0.88791209 -0.93332827 59 9
-1.6140527 0.64056563 -0.79927731 67 10
-1.5601035 0.89355367 -1.0655974 63 8
-0.77407718 0.30494085 -0.53947592 32 7
-0.60987478 0.35001755 -0.50891364 74 6
-0.57801235 0.22605772 -0.49590015 49 5
-0.23740201 0.13565947 -0.22803281 51 4
-0.23017438 0.090880439 -0.22560956 71 3
-0.21367952 0.12286817 -0.24995862 13 2
-0.29248029 0.11313458 -0.36591777 8 1
-0.26790965 0.15601824 -0.38718569 3 0
-1.6101333 0.64735997 0.45374098 60 31
-1.5477806 0.87668663 0.40357554 64 30
-1.6124351 0.64988947 0.32867527 66 29
-1.5501269 0.87732548 0.27314579 72 28
-1.6061404 0.6489656 0.20721161 70 27
-1.559449 0.88263083 0.16794118 72 26
-1.6160929 0.65361983 0.11886163 75 25
-1.5582289 0.88194525 0.08187037 71 24
-1.6076798 0.65087712 0.039458349 72 23
-1.5597339 0.88315928 0 71 22
-1.6144055 0.65424466 -0.039632428 75 21
-1.5600923 0.88372266 -0.08198683 70 20
-1.6064236 0.65102959 -0.1175747 74 19
-1.5573291 0.88322413 -0.15759537 70 18
-1.6114641 0.65307057 -0.19503568 70 17
-1.5528891 0.88140887 -0.24323879 68 16
-1.6143551 0.65360153 -0.29756927 67 15
-1.5529604 0.88427144 -0.5014317 56 13
-1.6113458 0.65208071 -0.39012957 63 14
-1.5549041 0.88750553 -0.60719448 58 12
-1.6085407 0.64680105 -0.68705964 59 11
-1.5519048 0.89250976 -0.93215573 59 9
-1.6076037 0.64451814 -0.79715157 64 10
-1.556975 0.89899403 -1.0655974 63 8
-0.76337701 0.30384532 -0.53246975 32 7
-0.61380309 0.35515109 -0.51345748 72 6
-0.58610904 0.23153797 -0.5039767 50 5
-0.23381321 0.13465244 -0.22457777 51 4
-0.23305643 0.092913888 -0.22924842 70 3
-0.21461567 0.12447689 -0.2518667 11 2
-0.29208359 0.11415483 -0.36591777 8 1
-0.26860529 0.15769747 -0.38922352 3 0
-1.6101031 0.65388209 0.45438549 58 31
-1.544711 0.88208407 0.40357554 64 30
-1.6078818 0.65459162 0.32820165 67 29
-1.547055 0.88273108 0.27314579 71 28
-1.6038654 0.65456814 0.20721161 72 27
-1.5565135 0.88779736 0.16794118 71 26
-1.6161116 0.66019702 0.11903515 70 25
-1.5573083 0.88861948 0.08198683 71 24
-1.6077127 0.65742773 0.039516374 74 23
-1.5609808 0.89108253 0 71 22
-1.6099125 0.65865147 -0.039574403 76 21
-1.5526638 0.88668084 -0.08175391 68 20
-1.6064508 0.65757459 -0.11774734 72 19
-1.5608726 0.89209819 -0.15826598 68 18
-1.6160747 0.66150469 -0.19588861 70 17
-1.5542536 0.88901782 -0.24392687 68 16
-1.6120638 0.65923268 -0.29756927 66 15
-1.5519471 0.89088601 -0.50211954 56 13
-1.6069175 0.65650219 -0.38957146 63 14
-1.553843 0.89410871 -0.60801172 58 12
-1.6106845 0.65386879 -0.68893427 58 11
-1.5527544 0.89987051 -0.93450081 59 9
-1.6095414 0.65181816 -0.79927731 63 10
-1.5576811 0.90630913 -1.0681839 63 8
-0.77000588 0.30957159 -0.53807467 32 7
-0.61090738 0.35617658 -0.51194286 75 6
-0.57823581 0.23068553 -0.49751547 53 5
-0.23491925 0.13634965 -0.22630529 58 4
-0.23434532 0.094306797 -0.23106785 64 3
-0.21835724 0.12768084 -0.25759095 11 2
-0.29453328 0.11620566 -0.36989516 8 1
-0.2569263 0.15184519 -0.37088314 3 0
-1.6056896 0.65830469 0.45374098 60 31
-1.5459964 0.88963652 0.40470284 63 30
-1.6102459 0.6617797 0.32914886 66 29
-1.5441194 0.88785642 0.27314579 70 28
-1.6039817 0.66082513 0.20751455 70 27
-1.5620288 0.89819795 0.1688927 71 26
-1.6116065 0.66460502 0.11886163 70 25
-1.5543531 0.89377886 0.08198683 70 24
-1.6032122 0.66180509 0.039458349 72 23
-1.5536864 0.8937555 0 71 22
-1.6099148 0.66521829 -0.039632428 75 21
-1.5562037 0.89556956 -0.082103282 68 20
-1.6065677 0.66384739 -0.11792 72 19
-1.555593 0.89629543 -0.15804245 70 18
-1.6138722 0.66686016 -0.19588861 70 17
-1.5532845 0.89567727 -0.24427092 67 16
-1.6144243 0.66644788 -0.29842806 66 15
-1.5531422 0.89843982 -0.50349522 56 13
-1.6068699 0.6630336 -0.39012957 63 14
-1.5508695 0.89925647 -0.60801172 58 12
-1.6105379 0.6603632 -0.68987161 56 11
-1.5496038 0.90528512 -0.93450081 59 9
-1.6073711 0.65715194 -0.79927731 63 10
-1.554508 0.91174108 -1.0681839 62 8
-0.76705408 0.31135109 -0.53667343 33 7
-0.60623825 0.35627899 -0.50891364 71 6
-0.58274639 0.23481722 -0.50236142 51 5
-0.23444188 0.13716885 -0.22630529 58 4
-0.2324186 0.09449809 -0.22924842 67 3
-0.21376342 0.12593484 -0.2518667 12 2
-0.29271284 0.11668669 -0.36790645 8 1
-0.26752567 0.15952215 -0.38922352 3 0
-1.6056149 0.66482645 0.45438549 60 31
-1.544987 0.89625245 0.40526652 62 30
-1.612463 0.66927212 0.33009604 66 29
-1.5410107 0.89324105 0.27314579 71 28
-1.6062503 0.66832018 0.20812044 72 27
-1.5567322 0.90239424 0.16865481 71 26
-1.6115804 0.6711821 0.11903515 71 25
-1.5512236 0.89919913 0.08198683 70 24
-1.603084 0.66863561 0.039516374 72 23
-1.5548794 0.90168703 0 70 22
-1.607583 0.67083395 -0.039632428 75 21
-1.5550693 0.90252346 -0.082219742 67 20
-1.6019377 0.66849399 -0.11774734 72 19
-1.5567582 0.90422648 -0.15848951 68 18
-1.6137105 0.67372447 -0.19617291 70 17
-1.5522878 0.90234095 -0.24461496 68 16
-1.6096966 0.67141575 -0.29799867 66 15
