# .PCD v0.7 - Point Cloud Data file format
VERSION 0.7
FIELDS x y z intensity ring
SIZE 4 4 4 4 2
TYPE F F F F U
COUNT 1 1 1 1 1
WIDTH 1181
HEIGHT 1
VIEWPOINT 0 0 0 1 0 0 0
POINTS 1181
DATA ascii
0.73548406 -0.062769994 -0.097708367 10 16
0.70200932 -0.061639532 0.15500458 95 30
0.73388392 0.029941931 0.1349747 19 29
0.70897436 -0.062042311 0.10585849 90 28
0.71408516 -0.06239225 0.065178305 49 26
0.73135126 -0.064089246 0.032608397 15 24
0.71964812 -0.063154899 0 49 22
0.72884178 -0.064118192 -0.032491937 51 20
0.74166924 -0.065540433 -0.06370876 45 18
0.73280597 -0.064982444 -0.097364321 12 16
0.701801 -0.063967139 0.15500458 95 30
0.73397923 0.027508121 0.1349747 36 29
0.70630562 -0.064161859 0.10547215 90 28
0.71881849 -0.065350294 0.065654062 44 26
0.72864836 -0.066280417 0.032491937 13 24
0.72192365 -0.06577538 0 68 22
0.72613895 -0.066300184 -0.032375481 50 20
0.73399937 -0.067423359 -0.063038148 44 18
0.73996991 -0.068244293 -0.098396458 13 16
0.69672537 -0.065941982 0.15387727 96 30
0.74878883 0.025495866 0.13781628 44 29
0.69870251 -0.065907717 0.10431311 90 28
0.7161091 -0.067617491 0.065416187 38 26
0.71847063 -0.067853913 0.032026105 13 24
0.71671337 -0.067808792 0 78 22
0.72590315 -0.068834476 -0.032375481 49 20
0.73871565 -0.070472784 -0.063485228 40 18
0.72987026 -0.069853418 -0.097020283 15 16
0.7013253 -0.068987444 0.15500458 96 30
0.73661059 0.022337886 0.13544831 49 29
0.69845623 -0.068468146 0.10431311 82 28
0.74430448 0.021971354 0.08664111 10 27
0.71338046 -0.069991082 0.065178305 29 26
0.72815537 -0.071492784 0.032491937 13 24
0.72143453 -0.070939638 0 82 22
0.7330994 -0.072251678 -0.032724857 44 20
0.7334981 -0.072673984 -0.063038148 40 18
0.74192595 -0.073789991 -0.098740496 18 16
0.69381338 -0.070671327 0.15331362 96 30
0.73423046 0.019692393 0.1349747 51 29
0.70066953 -0.071163125 0.10469946 73 28
0.73693508 0.019154852 0.085732289 9 27
0.72056991 -0.073132873 0.065891936 26 26
0.72045034 -0.073253572 0.032142565 14 24
0.72118253 -0.073457479 0 88 22
0.72787547 -0.074288167 -0.032491937 28 20
0.73325306 -0.07510595 -0.063038148 38 18
0.74167717 -0.076249905 -0.098740496 21 16
0.69115376 -0.072709084 0.15274997 96 30
0.72938401 0.017125551 0.13402753 59 29
0.70779663 -0.074282639 0.10585849 74 28
0.73947531 0.016775509 0.086035229 17 27
0.71041328 -0.074577771 0.06494043 26 26
0.72765189 -0.076447479 0.032491937 17 24
0.7259059 -0.076386869 0 87 22
0.74003881 -0.078047842 -0.03307423 17 20
0.73793709 -0.07820458 -0.063485228 40 18
0.74386799 -0.079107523 -0.099084541 28 16
0.69331628 -0.075392291 0.15331362 97 30
0.72943938 0.014579419 0.13402753 62 29
0.70262361 -0.076204784 0.10508581 68 28
0.72712463 0.01391482 0.084520526 31 27
0.71756846 -0.077885456 0.065654062 33 26
0.72241688 -0.078432858 0.032259021 17 24
0.72563481 -0.078920282 0 87 22
0.73230255 -0.079924576 -0.032724857 10 20
0.73271084 -0.080223158 -0.063038148 47 18
0.74850851 -0.082259104 -0.099772625 31 16
0.6930353 -0.077932917 0.15331362 96 30
0.73194212 0.011954201 0.13450111 62 29
0.70233959 -0.078779519 0.10508581 49 28
0.7246896 0.011202907 0.084217586 36 27
0.70491689 -0.079089083 0.064464673 40 26
0.75307399 0.011481145 0.049973939 10 25
0.72212458 -0.081080116 0.032259021 18 24
0.72037375 -0.081005521 0 88 22
0.72953844 -0.082193278 -0.032608397 9 20
0.73241192 -0.082908131 -0.063038148 60 18
0.74574244 -0.084715217 -0.099428587 31 16
0.69517756 -0.080639973 0.15387727 96 30
0.72707057 0.0093194889 0.13355392 63 29
0.69960761 -0.080939054 0.10469946 35 28
0.72968686 0.0087494245 0.084823467 40 27
0.70463657 -0.08154922 0.064464673 42 26
0.74562848 0.00874006 0.049453378 12 25
0.72431695 -0.083895132 0.032375481 18 24
0.7176041 -0.083224028 0 83 22
0.72180796 -0.083852276 -0.032259021 10 20
0.73211807 -0.085464224 -0.063038148 70 18
0.74298364 -0.087022491 -0.099084541 32 16
0.6997267 -0.083659761 0.15500458 95 30
0.72709864 0.0067814821 0.13355392 64 29
0.69686913 -0.0830805 0.10431311 21 28
0.72723156 0.0061728377 0.084520526 41 27
0.70683241 -0.084187426 0.064702556 45 26
0.74066675 0.0060798218 0.049106337 37 25
0.71162587 -0.08490558 0.031793188 23 24
0.71234643 -0.085119948 0 83 22
0.72646815 -0.08698003 -0.032491937 10 20
0.72935927 -0.08758723 -0.062814608 77 18
0.7476061 -0.090092815 -0.099772625 44 16
0.6946125 -0.085369989 0.15387727 95 30
0.72711718 0.0043702987 0.13355392 68 29
0.69413918 -0.085082658 0.10392677 13 28
0.72972947 0.0037824402 0.084823467 39 27
0.71147269 -0.087275445 0.065178305 49 26
0.74567068 0.0036645646 0.049453378 41 25
0.71381807 -0.087576635 0.031909645 21 24
0.74469936 0.0034027281 0.016479664 11 23
0.7145406 -0.087794162 0 84 22
0.72122043 -0.088763483 -0.032259021 12 20
0.7241087 -0.089506745 -0.062367529 83 18
0.73991764 -0.091765687 -0.098740496 58 16
0.69431031 -0.087794125 0.15387727 94 30
0.71976399 0.0017884604 0.13213314 69 29
0.69138837 -0.087188296 0.10354042 15 28
0.72725672 0.0012226251 0.084520526 35 27
0.71363187 -0.090077668 0.065416187 69 26
0.73819709 0.0010264085 0.048932817 44 25
0.72093803 -0.091028824 0.032259021 19 24
0.74220747 0.00066277641 0.016421637 13 23
0.71670914 -0.090608969 0 79 22
0.72584325 -0.092049569 -0.032491937 13 20
0.72873008 -0.092676945 -0.062814608 79 18
0.73713744 -0.094027288 -0.098396458 64 16
0.69156963 -0.090016179 0.15331362 91 30
0.72467512 -0.00083847938 0.13308033 65 29
0.69840932 -0.090699218 0.10469946 15 28
0.73718268 -0.0014290526 0.085732289 28 27
0.69849539 -0.090722963 0.063988924 86 26
0.74318385 -0.0016740026 0.049279857 49 25
0.71564865 -0.093011752 0.032026105 18 24
0.74220526 -0.001928015 0.016421637 36 23
0.71141601 -0.092574812 0 73 22
0.72056681 -0.093922108 -0.032259021 15 20
0.72344959 -0.094686031 -0.062367529 83 18
0.73678786 -0.096728407 -0.098396458 73 16
0.69607741 -0.093090765 0.15444092 90 30
0.71975833 -0.0033620645 0.13213314 67 29
0.69564128 -0.092802212 0.10431311 18 28
0.7297284 -0.003986699 0.084823467 13 27
0.70312232 -0.093711682 0.064464673 90 26
0.73569155 -0.0042499062 0.048759297 51 25
0.72521675 -0.096861489 0.032491937 17 24
0.74969196 -0.0045397216 0.016595718 38 23
0.7160424 -0.095735259 0 68 22
0.7446925 -0.0046557365 -0.016479664 8 21
0.73260546 -0.098131388 -0.032841314 21 20
0.72806531 -0.097762138 -0.062814608 78 18
0.74136919 -0.099846698 -0.099084541 78 16
0.70058882 -0.096075639 0.15556823 90 30
0.72710729 -0.005782268 0.13355392 64 29
0.68799126 -0.094081104 0.10315407 21 28
0.72722965 -0.0063931174 0.084520526 8 27
0.70279098 -0.096165463 0.064464673 90 26
0.74315518 -0.0067326166 0.049279857 56 25
0.71994525 -0.098573335 0.032259021 39 24
0.72468001 -0.0068730908 0.016015448 46 23
0.71819675 -0.098456293 0 63 22
0.74967027 -0.0072874492 -0.016595718 9 21
0.72485691 -0.099518888 -0.032491937 30 20
0.7277196 -0.10030296 -0.062814608 79 18
0.73120868 -0.1010486 -0.097708367 80 16
0.69301683 -0.097479656 0.15387727 90 30
0.72708273 -0.0083203111 0.13355392 63 29
0.69499344 -0.097535111 0.10431311 23 28
0.72720295 -0.0089315837 0.084520526 8 27
0.69752413 -0.097910754 0.063988924 90 26
0.73564553 -0.0092574628 0.048759297 59 25
0.71712482 -0.10073093 0.032142565 47 24
0.73214918 -0.0094746277 0.016189529 46 23
0.71537411 -0.10060696 0 62 22
0.75463873 -0.0099539701 -0.016711771 29 21
0.73192054 -0.10311577 -0.032841314 23 20
0.72490066 -0.10248657 -0.062591068 74 18
0.73820341 -0.10466506 -0.098740496 82 16
0.68785322 -0.099187374 0.15274997 90 30
0.72459465 -0.010829977 0.13308033 59 29
0.6897614 -0.099241406 0.10354042 31 28
0.72716731 -0.011469942 0.084520526 6 27
0.70210248 -0.1010695 0.064464673 90 26
0.74309003 -0.011920612 0.049279857 58 25
0.70688617 -0.10177948 0.031676728 50 24
0.73710775 -0.012224328 0.016305583 49 23
0.71996516 -0.10383215 0 56 22
0.74710208 -0.012487328 -0.016537691 36 21
0.72412616 -0.10470326 -0.032491937 33 20
0.77551824 -0.012875329 -0.051277071 21 19
0.72207534 -0.10465171 -0.062367529 73 18
0.73538417 -0.1068778 -0.098396458 81 16
0.69470978 -0.10280045 0.15444092 90 30
0.72455013 -0.013485677 0.13308033 54 29
0.6942777 -0.10250583 0.10431311 27 28
0.72463912 -0.01409522 0.084217586 8 27
0.70418805 -0.10401341 0.064702556 90 26
0.7380541 -0.014562265 0.048932817 60 25
0.71391642 -0.10548738 0.032026105 47 24
0.73706067 -0.01479724 0.016305583 51 23
0.71216398 -0.10535004 0 46 22
0.75704706 -0.015396496 -0.016769798 37 21
0.72375631 -0.10723029 -0.032491937 40 20
0.75801015 -0.015419062 -0.050068516 15 19
0.72661054 -0.10804481 -0.062814608 69 18
0.72764337 -0.10845513 -0.097364321 83 16
0.68953276 -0.10447958 0.15331362 90 30
0.72940725 -0.016106427 0.13402753 51 29
0.68903357 -0.10417465 0.10354042 32 28
0.71714228 -0.016479081 0.083308764 9 27
0.70137978 -0.10596859 0.064464673 90 26
0.74298579 -0.017237702 0.049279857 63 25
0.70613968 -0.10683519 0.031676728 42 24
0.72950804 -0.01721818 0.016131502 53 23
0.71920377 -0.10898142 0 36 22
0.75449306 -0.017855838 -0.016711771 38 21
0.71103817 -0.10784578 -0.031909645 40 20
0.76044524 -0.018116279 -0.050241169 37 19
0.7287088 -0.11083553 -0.063038148 64 18
0.7395137 -0.11277016 -0.099084541 85 16
0.69158822 -0.10714618 0.15387727 87 30
0.72198737 -0.018363204 0.13260673 53 29
0.68624461 -0.10607388 0.10315407 41 28
0.71956462 -0.018913852 0.083611704 11 27
0.69854736 -0.10802818 0.064226799 90 26
0.74791104 -0.019817211 0.049626898 63 25
0.71318185 -0.11034437 0.032026105 35 24
0.73194557 -0.019696103 0.016189529 51 23
0.71143037 -0.11019512 0 28 22
0.74443173 -0.02025038 -0.016479664 42 21
0.71314323 -0.11059332 -0.032026105 42 20
0.74292773 -0.020220503 -0.049032617 45 19
0.73323578 -0.11415929 -0.063485228 58 18
0.73177916 -0.11418364 -0.098052412 80 16
0.67918813 -0.10761464 0.151059 77 30
0.72928071 -0.021070931 0.13402753 49 29
0.68343174 -0.10807505 0.10276773 47 28
0.72693628 -0.021621665 0.084520526 10 27
0.69570917 -0.1100693 0.063988924 90 26
0.73537195 -0.022094838 0.048759297 62 25
0.71772301 -0.11362911 0.032259021 27 24
0.73686922 -0.02238616 0.016305583 50 23
0.71597731 -0.11347548 0 19 22
0.74935323 -0.02298576 -0.016595718 33 21
0.71521807 -0.11348081 -0.032142565 49 20
0.74285263 -0.022813682 -0.049032617 46 19
0.73529071 -0.117117 -0.06370876 51 18
0.74490774 -0.022876101 -0.081312254 9 17
0.72648799 -0.11594211 -0.097364321 79 16
0.68601739 -0.11117696 0.15274997 49 30
0.72429532 -0.02347425 0.13308033 47 29
0.68061334 -0.11005788 0.10238139 53 28
0.71941501 -0.02393686 0.083611704 14 27
0.70023161 -0.11330748 0.064464673 90 26
0.74027604 -0.024812216 0.049106337 60 25
0.70993012 -0.11491401 0.031909645 21 24
0.73678654 -0.024958177 0.016305583 50 23
0.71557689 -0.11597401 0 17 22
0.74177402 -0.02536976 -0.016421637 29 21
0.71235377 -0.11556925 -0.032026105 64 20
0.74526131 -0.025483616 -0.04920527 50 19
0.72259539 -0.11764526 -0.062591068 51 18
0.76716679 -0.026166633 -0.083871037 21 17
0.73340684 -0.11969574 -0.098396458 82 16
0.6808219 -0.11275939 0.15162265 33 30
0.72420895 -0.026002368 0.13308033 46 29
0.67535383 -0.11161172 0.10160869 59 28
0.72428745 -0.026613357 0.084217586 23 27
0.6973778 -0.1153373 0.064226799 88 26
0.73769236 -0.027312115 0.048932817 64 25
0.70706213 -0.11697625 0.031793188 19 24
0.73169434 -0.027487505 0.016189529 49 23
0.71763277 -0.1188872 0 17 22
0.74667668 -0.028130714 -0.016537691 23 21
0.70453846 -0.11692998 -0.031676728 79 20
0.74267524 -0.027999172 -0.049032617 55 19
0.72218031 -0.12016687 -0.062591068 49 18
0.75465417 -0.028549183 -0.082449488 35 17
0.7256608 -0.12101109 -0.097364321 78 16
0.67560381 -0.11442482 0.15049534 26 30
0.71674937 -0.028390553 0.13165954 41 29
0.68467641 -0.11576451 0.10315407 60 28
0.71426558 -0.028900629 0.083005823 22 27
0.69940293 -0.11831528 0.064464673 83 26
0.73758733 -0.030015711 0.048932817 64 25
0.71155059 -0.12041538 0.032026105 22 24
0.73908663 -0.030324027 0.01636361 47 23
0.71472859 -0.12109156 0 17 22
0.74656856 -0.030867234 -0.016537691 13 21
0.704126 -0.11938856 -0.031676728 86 20
0.7475521 -0.030910768 -0.049377918 62 19
0.72664189 -0.12366319 -0.063038148 40 18
0.76447785 -0.031561166 -0.083586723 36 17
0.72521245 -0.12366997 -0.097364321 78 16
0.67759889 -0.11720537 0.151059 18 30
0.72400433 -0.031183988 0.13308033 37 29
0.68670082 -0.11858183 0.10354042 76 28
0.72407842 -0.031795524 0.084217586 26 27
0.69655561 -0.12020307 0.064226799 79 26
0.7424618 -0.032793842 0.049279857 58 25
0.70374745 -0.12160005 0.031676728 24 24
0.72649026 -0.032389149 0.016073475 46 23
0.71676368 -0.12401938 0 17 22
0.74646211 -0.033342771 -0.016537691 9 21
0.70616436 -0.12227935 -0.031793188 90 20
0.74743968 -0.033520021 -0.049377918 63 19
0.72622782 -0.12607215 -0.063038148 25 18
0.75195485 -0.03371378 -0.082165174 41 17
0.72967494 -0.12693755 -0.098052412 84 16
0.68439823 -0.12074442 0.15274997 17 30
0.72634941 -0.033690061 0.13355392 24 29
0.68144149 -0.11998611 0.10276773 90 28
0.71405226 -0.033761773 0.083005823 33 27
0.69858134 -0.12307318 0.064464673 68 26
0.73238277 -0.034815393 0.048585776 56 25
0.69842428 -0.1230512 0.031443812 28 24
0.73386943 -0.035131693 0.016247556 38 23
0.71142721 -0.12551187 0 22 22
0.74134749 -0.03572407 -0.016421637 8 21
0.70329708 -0.1241786 -0.031676728 90 20
0.74981588 -0.036110271 -0.049550567 62 19
0.72333282 -0.12816459 -0.062814608 13 18
0.7543202 -0.036318541 -0.082449488 41 17
0.72679067 -0.12904362 -0.097708367 86 16
0.68157691 -0.12269342 0.15218632 23 30
0.72132319 -0.035997447 0.13260673 13 29
0.67858887 -0.12191945 0.10238139 91 28
0.71145129 -0.036136746 0.082702883 36 27
0.70549154 -0.12685484 0.065178305 68 26
0.73225677 -0.037371673 0.048585776 51 25
0.70536 -0.12683697 0.031793188 36 24
0.73124582 -0.037573252 0.016189529 35 23
0.71344382 -0.12844488 0 18 22
0.73872191 -0.038190849 -0.01636361 8 21
0.70040298 -0.12618242 -0.031560272 90 20
0.7521764 -0.038847923 -0.049723219 65 19
0.72043216 -0.13023838 -0.062591068 9 18
0.7566697 -0.039071422 -0.082733795 35 17
0.72146535 -0.13068239 -0.097020283 85 16
0.67633444 -0.1242946 0.151059 26 30
0.71628314 -0.03839517 0.13165954 9 29
0.68056542 -0.1248593 0.10276773 94 28
0.7162708 -0.038996931 0.083308764 42 27
0.69523638 -0.12761199 0.064226799 64 26
0.73211491 -0.040055279 0.048585776 50 25
0.69998074 -0.12850435 0.031560272 44 24
0.73359919 -0.040382206 0.016247556 31 23
0.70068121 -0.12876168 0 22 22
0.73608106 -0.040768214 -0.016305583 8 21
0.70729977 -0.13012682 -0.031909645 90 20
0.73957568 -0.040956236 -0.048859969 64 19
0.71505541 -0.13195938 -0.062143989 8 18
0.75404102 -0.041715365 -0.082449488 29 17
0.72098154 -0.13332583 -0.097020283 78 16
0.67350394 -0.12619831 0.15049534 29 30
0.71124232 -0.0406323 0.13071236 12 29
0.68012542 -0.12723415 0.10276773 98 28
0.7186082 -0.041632012 0.083611704 47 27
0.69723153 -0.13050354 0.064464673 49 26
0.73446089 -0.0427472 0.048759297 49 25
0.69952792 -0.13094695 0.031560272 46 24
0.73095828 -0.042804927 0.016189529 27 23
0.69777167 -0.13073871 0 26 22
0.74342066 -0.043753304 -0.016479664 8 21
0.7043882 -0.13212702 -0.031793188 86 20
0.73942816 -0.043537587 -0.048859969 65 19
0.7219274 -0.13585815 -0.062814608 9 18
0.75637078 -0.044484992 -0.082733795 21 17
0.72294372 -0.13630784 -0.097364321 77 16
0.68023205 -0.12994274 0.15218632 37 30
0.71599764 -0.043394793 0.13165954 12 29
0.67967713 -0.12960747 0.10276773 99 28
0.71598107 -0.043996453 0.083308764 50 27
0.69435167 -0.13234134 0.064226799 42 26
0.72932774 -0.045020085 0.048412256 45 25
0.70151812 -0.13386361 0.031676728 49 24
0.72830945 -0.045209706 0.016131502 24 23
0.70712763 -0.13507996 0 22 22
0.73329145 -0.045630656 -0.016247556 9 21
0.69656843 -0.13315547 -0.031443812 87 20
0.74176145 -0.046265453 -0.049032617 64 19
0.71658474 -0.13729948 -0.062367529 9 18
0.75125194 -0.046832066 -0.082165174 12 17
0.71762687 -0.13775609 -0.096676238 77 16
0.68218672 -0.13267042 0.15274997 32 30
0.70849907 -0.045324452 0.13023876 14 29
0.67924362 -0.13186064 0.10276773 98 28
0.71335435 -0.046218563 0.083005823 58 27
0.69632703 -0.13524637 0.064464673 33 26
0.73664212 -0.047899049 0.048932817 38 25
0.69617039 -0.13522165 0.031443812 49 24
0.72315806 -0.047441315 0.016015448 23 23
0.70422328 -0.13693941 0 24 22
0.74310565 -0.048812557 -0.016479664 9 21
0.7009989 -0.13655627 -0.031676728 83 20
0.74160391 -0.048724964 -0.049032617 64 19
0.71610111 -0.13979998 -0.062367529 10 18
0.75356281 -0.049609233 -0.082449488 8 17
0.71471298 -0.13977757 -0.096332192 81 16
0.67692065 -0.13420703 0.15162265 40 30
0.72057658 -0.048706554 0.13260673 17 29
0.67633432 -0.13386194 0.10238139 99 28
0.71070373 -0.048671816 0.082702883 69 27
0.68850744 -0.13632447 0.063751042 22 26
0.73148429 -0.050273295 0.048585776 33 25
0.69322193 -0.13727959 0.031327356 64 24
0.72797602 -0.050293125 0.016131502 26 23
0.69391358 -0.13754474 0 22 22
0.74042785 -0.051371075 -0.016421637 10 21
0.70296597 -0.13949598 -0.031793188 81 20
0.74390894 -0.051607177 -0.04920527 62 19
0.71070266 -0.14143682 -0.061920449 13 18
0.75090665 -0.05207561 -0.082165174 8 17
0.71662277 -0.14288776 -0.096676238 77 16
0.68121994 -0.13754861 0.15274997 45 30
0.71550399 -0.050890185 0.13165954 22 29
0.67586297 -0.13622198 0.10238139 99 28
0.71795684 -0.051661294 0.083611704 77 27
0.69046533 -0.13922654 0.063988924 18 26
0.73628056 -0.053169075 0.048932817 29 25
0.69763136 -0.14070113 0.031560272 90 24
0.72280926 -0.052488718 0.016015448 32 23
0.70322531 -0.14197518 0 17 22
0.73525745 -0.053608391 -0.016305583 11 21
0.70492107 -0.14245108 -0.031909645 74 20
0.74123627 -0.054030482 -0.049032617 63 19
0.71508235 -0.14492066 -0.062367529 14 18
0.74576473 -0.054351654 -0.081596561 4 17
0.71611959 -0.14538835 -0.096676238 79 16
0.66881478 -0.13743527 0.14993168 51 30
0.7153219 -0.053387452 0.13165954 21 29
0.67780125 -0.13908461 0.10276773 97 28
0.71529698 -0.053988822 0.083308764 80 27
0.68756354 -0.1410078 0.063751042 17 26
0.74106538 -0.056098949 0.049279857 17 25
0.69224662 -0.1421158 0.031327356 90 24
0.71514344 -0.054467555 0.015841367 38 23
0.70272541 -0.14442903 0 16 22
0.73756826 -0.056228038 -0.01636361 12 21
0.70686406 -0.14542153 -0.032026105 67 20
0.74104315 -0.056617551 -0.049032617 62 19
0.71459788 -0.14729117 -0.062367529 21 18
0.74804759 -0.057135578 -0.081880867 4 17
0.72290415 -0.14928649 -0.097708367 76 16
0.67312026 -0.14066434 0.151059 67 30
0.7126931 -0.055576909 0.13118595 24 29
0.67008764 -0.13979471 0.10160869 94 28
0.71263951 -0.05617404 0.083005823 78 27
0.69193631 -0.14443928 0.064226799 17 26
0.73590153 -0.058179505 0.048932817 12 25
0.69177157 -0.14441058 0.031327356 90 24
0.71745104 -0.057028331 0.015899394 45 23
0.71202481 -0.14883426 0 31 22
0.73238343 -0.058421407 -0.016247556 12 21
0.70393509 -0.14724599 -0.031909645 60 20
0.73836452 -0.058884587 -0.048859969 62 19
0.71651477 -0.15030323 -0.062591068 21 18
0.74290091 -0.059237361 -0.081312254 8 17
0.71753514 -0.15077595 -0.097020283 77 16
0.66786373 -0.14198454 0.14993168 73 30
0.71983653 -0.058636993 0.13260673 33 29
0.67442441 -0.14317429 0.10238139 91 28
0.70501733 -0.058075868 0.082097001 79 27
0.68899512 -0.14632908 0.063988924 21 26
0.73818016 -0.060944907 0.049106337 8 25
0.69126326 -0.14682445 0.031327356 90 24
0.71474576 -0.059458829 0.015841367 49 23
0.69928235 -0.14868149 0 46 22
0.73715776 -0.061375823 -0.01636361 13 21
0.71071333 -0.15140826 -0.032259021 56 20
0.73815453 -0.061461601 -0.048859969 54 19
0.72328639 -0.15438455 -0.063261688 28 18
0.74763054 -0.062356498 -0.081880867 9 17
0.71458453 -0.15275472 -0.096676238 77 16
0.67447537 -0.14600049 0.15162265 79 30
0.70493734 -0.060075797 0.12976517 38 29
0.67148256 -0.14511567 0.10199504 90 28
0.70974612 -0.061067894 0.082702883 79 27
0.69574648 -0.15045404 0.064702556 28 26
0.73298091 -0.063237883 0.048759297 8 25
0.69072044 -0.14935707 0.031327356 90 24
0.72200602 -0.062575594 0.016015448 58 23
0.7011745 -0.1517799 0 49 22
0.72696537 -0.063244157 -0.016131502 24 21
0.7028634 -0.15227942 -0.031909645 59 20
0.73792428 -0.064166658 -0.048859969 53 19
0.71785247 -0.15596257 -0.062814608 34 18
0.74245805 -0.06455189 -0.081312254 11 17
0.71885586 -0.15644045 -0.097364321 80 16
0.66920757 -0.1472913 0.15049534 81 30
0.70227754 -0.062327728 0.12929156 40 29
0.67097199 -0.1474587 0.10199504 90 28
0.71447349 -0.063970663 0.083308764 73 27
0.68795681 -0.15113555 0.063988924 31 26
0.74269462 -0.066655137 0.049453378 8 25
0.68775749 -0.15122329 0.031210894 90 24
0.72178316 -0.065095484 0.016015448 67 23
0.69820058 -0.15368161 0 46 22
0.72675169 -0.065654516 -0.016131502 40 21
0.70963895 -0.15636624 -0.032259021 47 20
0.73769581 -0.066742107 -0.048859969 51 19
0.71733141 -0.1583422 -0.062814608 38 18
0.75460023 -0.068221219 -0.082733795 9 17
0.71350074 -0.1577397 -0.096676238 79 16
0.66634029 -0.14897047 0.14993168 90 30
0.70451212 -0.064872727 0.12976517 42 29
0.67770588 -0.15132079 0.10315407 90 28
0.70437056 -0.065455474 0.082097001 72 27
0.69227922 -0.15463623 0.064464673 33 26
0.7375015 -0.068671629 0.049106337 8 25
0.68725222 -0.15350313 0.031210894 90 24
0.72405255 -0.067712992 0.016073475 74 23
0.69768709 -0.15599607 0 45 22
0.72651803 -0.068190947 -0.016131502 42 21
0.69937527 -0.15650727 -0.031793188 40 20
0.73250264 -0.068738542 -0.048514668 47 19
0.71191847 -0.15974019 -0.062367529 41 18
0.74447513 -0.069827922 -0.081596561 12 17
0.71777433 -0.16132988 -0.097364321 77 16
0.67530954 -0.15348548 0.15218632 90 30
0.70672578 -0.067556575 0.13023876 43 29
0.6747666 -0.15313113 0.10276773 90 28
0.70907962 -0.068373099 0.082702883 66 27
0.68688488 -0.15593468 0.063988924 39 26
0.72732455 -0.070318893 0.048412256 9 25
0.68914586 -0.15646167 0.031327356 90 24
0.72379953 -0.07036633 0.016073475 80 23
0.69226605 -0.15730745 0 39 22
0.72378725 -0.070492648 -0.016073475 45 21
0.70853001 -0.1613166 -0.032259021 32 20
0.73474133 -0.07152845 -0.048687316 47 19
0.71135652 -0.16222428 -0.062367529 45 18
0.746687 -0.072788969 -0.081880867 21 17
0.71238214 -0.16271698 -0.096676238 83 16
0.67474246 -0.15595958 0.15218632 96 30
0.70647347 -0.070146412 0.13023876 50 29
0.68141562 -0.1572928 0.10392677 90 28
0.70882428 -0.070971549 0.082702883 62 27
0.68388563 -0.15788373 0.063751042 45 26
0.73202658 -0.073465735 0.048759297 11 25
0.68856782 -0.15898646 0.031327356 90 24
0.72603709 -0.073134586 0.016131502 81 23
0.69898701 -0.16155502 0 32 22
0.72601151 -0.073388018 -0.016131502 50 21
0.70553136 -0.16321859 -0.032142565 26 20
0.73943865 -0.074705951 -0.049032617 37 19
0.7156049 -0.16597016 -0.062814608 60 18
0.74395639 -0.07515344 -0.081596561 13 17
0.72142214 -0.1675971 -0.098052412 84 16
0.66708589 -0.15662055 0.15049534 98 30
0.70133883 -0.072126985 0.12929156 56 29
0.6760565 -0.15852727 0.10315407 90 28
0.70857221 -0.073445372 0.082702883 58 27
0.67609471 -0.15842432 0.06303741 50 26
0.72928417 -0.075771101 0.048585776 12 25
0.68557906 -0.16081113 0.031210894 90 24
0.72577739 -0.075668477 0.016131502 81 23
0.6935547 -0.16283607 0 24 22
0.72079074 -0.07529261 -0.016015448 53 21
0.70981592 -0.16683787 -0.032375481 22 20
0.73421061 -0.076784275 -0.048687316 32 19
0.71020663 -0.16718648 -0.062367529 75 18
0.74616069 -0.078000017 -0.081880867 22 17
0.7088204 -0.1671108 -0.096332192 79 16
0.67366523 -0.16054876 0.15218632 99 30
0.70353764 -0.074702926 0.12976517 68 29
0.67312604 -0.16018875 0.10276773 75 28
0.70832479 -0.075794682 0.082702883 53 27
0.67553759 -0.16078335 0.06303741 51 26
0.72406769 -0.077673763 0.048238736 14 25
0.68261445 -0.16249776 0.031094434 90 24
0.72303659 -0.077815749 0.016073475 80 23
0.70030123 -0.1668961 0 18 22
0.72549516 -0.07832808 -0.016131502 51 21
0.70925874 -0.16919078 -0.032375481 22 20
0.72651052 -0.078440391 -0.048169367 28 19
0.7071988 -0.16907822 -0.062143989 83 18
0.74342763 -0.080215611 -0.081596561 30 17
0.71785825 -0.17191979 -0.097708367 76 16
0.6660043 -0.16115759 0.15049534 101 30
0.69594955 -0.076380849 0.12834437 81 29
0.66296697 -0.16018577 0.10122235 54 28
0.70558834 -0.078002594 0.082399942 51 27
0.68705785 -0.16610225 0.064226799 55 26
0.71883273 -0.079668127 0.047891695 25 25
0.68446851 -0.16547395 0.031210894 90 24
0.72274649 -0.080465287 0.016073475 76 23
0.69243026 -0.16755314 0 20 22
0.72024757 -0.080322802 -0.016015448 49 21
0.70135832 -0.17000215 -0.032026105 21 20
0.73615056 -0.082048118 -0.048859969 16 19
0.7066043 -0.17154577 -0.062143989 90 18
0.74559796 -0.08320725 -0.081880867 42 17
0.71004081 -0.17264754 -0.096676238 77 16
0.66540921 -0.16359754 0.15049534 100 30
0.69566494 -0.078931116 0.12834437 90 29
0.67196256 -0.16500139 0.10276773 45 28
0.71516377 -0.081680886 0.083611704 46 27
0.6888594 -0.16922055 0.064464673 55 26
0.71605712 -0.082026832 0.047718175 29 25
0.68143415 -0.16737826 0.031094434 88 24
0.72742909 -0.083541371 0.016189529 68 23
0.69908905 -0.17190304 0 22 22
0.72988373 -0.084073022 -0.016247556 41 21
0.69591439 -0.17124102 -0.031793188 22 20
0.73088777 -0.084191412 -0.048514668 11 19
0.70597076 -0.17413445 -0.062143989 90 18
0.74036616 -0.085257366 -0.081312254 46 17
0.70700115 -0.17464766 -0.096332192 79 16
0.66011167 -0.16472431 0.14936803 100 30
0.6978243 -0.081635565 0.12881798 90 29
0.67138249 -0.16734596 0.10276773 37 28
0.70501214 -0.08304964 0.082399942 42 27
0.68105567 -0.16967627 0.063751042 66 26
0.71081102 -0.083957732 0.047371134 33 25
0.6929518 -0.17281468 0.031676728 77 24
0.71968418 -0.085223466 0.016015448 66 23
0.69848472 -0.17434226 0 26 22
0.72215223 -0.085635051 -0.016073475 38 21
0.70741725 -0.17673217 -0.032375481 22 20
0.73058939 -0.086742178 -0.048514668 9 19
0.71263045 -0.17830954 -0.062814608 90 18
0.74006402 -0.087841205 -0.081312254 51 17
0.71121836 -0.17820942 -0.097020283 75 16
0.66899872 -0.16933364 0.15162265 99 30
0.70242608 -0.084518567 0.12976517 90 29
0.66843116 -0.16895843 0.10238139 33 28
0.71212661 -0.086256959 0.083308764 38 27
0.6804592 -0.17205258 0.063751042 87 26
0.71795905 -0.087191209 0.047891695 35 25
0.69479406 -0.17573144 0.031793188 74 24
0.71443361 -0.087022029 0.015899394 62 23
0.695481 -0.17603669 0 29 22
0.72433078 -0.08844994 -0.016131502 31 21
0.69715154 -0.17659457 -0.031909645 24 20
0.72534454 -0.088576414 -0.048169367 9 19
0.71200377 -0.180796 -0.062814608 90 18
0.73236936 -0.089416474 -0.080459327 56 17
0.71538794 -0.18192591 -0.097708367 70 16
0.66840351 -0.17166784 0.15162265 98 30
0.70212674 -0.086969979 0.12976517 90 29
0.67500895 -0.17315471 0.10354042 33 28
0.69950342 -0.087249428 0.081794061 33 27
0.67744583 -0.17380071 0.063513167 90 26
0.71765029 -0.089696832 0.047891695 45 25
0.68692547 -0.17627096 0.031443812 69 24
0.71162897 -0.089337118 0.015841367 55 23
0.69486231 -0.1784633 0 37 22
0.72401762 -0.090977788 -0.016131502 28 21
0.70374954 -0.18103702 -0.032259021 24 20
0.73245764 -0.092015743 -0.048687316 9 19
0.71136838 -0.18328024 -0.062814608 90 18
0.73203671 -0.092100136 -0.080459327 69 17
0.7267276 -0.18755123 -0.099428587 65 16
0.66541499 -0.17349431 0.151059 97 30
0.70180327 -0.089542821 0.12976517 90 29
0.67436975 -0.17562759 0.10354042 29 28
0.69917887 -0.089812651 0.081794061 21 27
0.67921066 -0.1769174 0.063751042 90 26
0.71731675 -0.092326537 0.047891695 49 25
0.6983481 -0.18197289 0.032026105 63 24
0.71379262 -0.092132144 0.015899394 51 23
0.68695205 -0.17909431 0 42 22
0.72615904 -0.093943208 -0.016189529 22 21
0.69828451 -0.18221664 -0.032026105 23 20
0.73211551 -0.094699711 -0.048687316 9 19
0.70106363 -0.18333705 -0.061920449 88 18
0.73171073 -0.094654866 -0.080459327 69 17
0.7260353 -0.19021356 -0.099428587 65 16
0.66715801 -0.17644641 0.15162265 96 30
0.70148647 -0.091992021 0.12976517 86 29
0.67375261 -0.17798051 0.10354042 33 28
0.71116793 -0.093833603 0.083308764 12 27
0.68580127 -0.18121704 0.064464673 91 26
0.70956951 -0.093874015 0.047371134 58 25
0.69047129 -0.18247294 0.031676728 46 24
0.70850915 -0.093982831 0.01578334 49 23
0.68149281 -0.18019788 0 44 22
0.72334808 -0.096156366 -0.016131502 18 21
0.70005637 -0.18529935 -0.032142565 22 20
0.72930712 -0.096934341 -0.048514668 10 19
0.69801462 -0.18513739 -0.061696909 86 18
0.7412287 -0.098484591 -0.081596561 73 17
0.72058433 -0.19146079 -0.098740496 65 16
0.666538 -0.17877413 0.15162265 95 30
0.70116109 -0.094440103 0.12976517 86 29
0.67074347 -0.17968448 0.10315407 38 28
0.70099509 -0.095016383 0.082097001 12 27
0.68036085 -0.1823065 0.063988924 95 26
0.71665472 -0.097332068 0.047891695 62 25
0.68983018 -0.18488203 0.031676728 38 24
0.71560955 -0.097441889 0.015957421 40 23
0.69051039 -0.18519585 0 45 22
0.72300804 -0.098680742 -0.016131502 21 21
0.70422512 -0.18905139 -0.032375481 22 20
0.73143649 -0.099808499 -0.048687316 10 19
0.69976664 -0.18822688 -0.061920449 82 18
0.73349416 -0.10008845 -0.080743633 74 17
0.67060632 -0.18239331 0.15274997 90 30
0.69596159 -0.096231788 0.12881798 82 29
0.66534907 -0.18071455 0.10238139 38 28
0.71295458 -0.099129505 0.083611704 13 27
0.68455178 -0.1858809 0.064464673 93 26
0.7212531 -0.10050484 0.048238736 74 25
0.68195713 -0.18530189 0.031327356 28 24
0.71031225 -0.099264294 0.015841367 35 23
0.68985969 -0.18760505 0 47 22
0.71524763 -0.10006408 -0.015957421 26 21
0.69633812 -0.18951894 -0.032026105 21 20
0.73355472 -0.1026987 -0.048859969 12 19
0.69673824 -0.18988429 -0.061696909 77 18
0.7282185 -0.10197577 -0.08017502 70 17
0.67234379 -0.1852707 0.15331362 90 30
0.69807035 -0.098874845 0.12929156 78 29
0.66474617 -0.18291995 0.10238139 41 28
0.71262193 -0.10149321 0.083611704 13 27
0.67670679 -0.1862653 0.063751042 93 26
0.72091585 -0.10289605 0.048238736 82 25
0.69096148 -0.19024357 0.031793188 21 24
0.70750386 -0.10127357 0.01578334 29 23
0.68200928 -0.18787731 0 72 22
0.714894 -0.10256014 -0.015957421 29 21
0.70292205 -0.19384047 -0.032375481 19 20
0.72827029 -0.10443906 -0.048514668 12 19
0.69367319 -0.19164477 -0.06147337 74 18
0.73033619 -0.10473444 -0.080459327 67 17
0.66231805 -0.1849654 0.151059 90 30
0.69529045 -0.10096678 0.12881798 75 29
0.66410363 -0.18523924 0.10238139 42 28
0.70243633 -0.10257976 0.082399942 17 27
0.67844748 -0.1893027 0.063988924 92 26
0.72055227 -0.10541188 0.048238736 85 25
0.68548661 -0.19129691 0.031560272 17 24
0.71702397 -0.10528501 0.016015448 18 23
0.68375516 -0.19093668 0 84 22
0.71700555 -0.10541016 -0.016015448 39 21
0.69019222 -0.19301572 -0.031793188 17 20
0.72296387 -0.10627171 -0.048169367 12 19
0.69779128 -0.19542259 -0.061920449 70 18
0.72748888 -0.10705715 -0.08017502 67 17
0.66397697 -0.18806304 0.15162265 90 30
0.69248652 -0.10316139 0.12834437 72 29
0.67054379 -0.189712 0.10354042 44 28
0.70451105 -0.10551272 0.082702883 17 27
0.6825341 -0.19315831 0.064464673 90 26
0.72016108 -0.10805213 0.048238736 83 25
0.69198316 -0.19587056 0.031909645 14 24
0.71170664 -0.10706048 0.015899394 13 23
0.68545401 -0.19413015 0 87 22
0.71166921 -0.1073089 -0.015899394 46 21
0.69911635 -0.19817713 -0.032259021 31 20
0.72503692 -0.10928427 -0.048342019 13 19
0.70424986 -0.20004156 -0.062591068 60 18
0.72711068 -0.10959592 -0.08017502 59 17
0.69363642 -0.10520913 0.17788708 90 31
0.66097748 -0.18970007 0.151059 90 30
0.69455016 -0.10593954 0.12881798 67 29
0.66276103 -0.18998668 0.10238139 47 28
0.70413846 -0.10797128 0.082702883 19 27
0.67232895 -0.19264835 0.063513167 90 26
0.72224581 -0.11093565 0.048412256 82 25
0.68649846 -0.19689308 0.031676728 18 24
0.71132857 -0.10954415 0.015899394 8 23
0.68717301 -0.19721872 0 90 22
0.71378082 -0.11004074 -0.015957421 50 21
0.69362414 -0.19922286 -0.032026105 45 20
0.72465098 -0.11181445 -0.048342019 14 19
0.69880086 -0.20098481 -0.062143989 60 18
0.72917968 -0.11250389 -0.080459327 58 17
0.71169788 -0.20499952 -0.098052412 46 16
0.69089544 -0.1071471 0.17724258 90 31
0.66034478 -0.19189091 0.151059 90 30
0.69662178 -0.10861179 0.12929156 68 29
0.66212738 -0.19218342 0.10238139 49 28
0.69396472 -0.10880252 0.08149112 23 27
0.6764279 -0.19639686 0.063988924 90 26
0.71940887 -0.11295157 0.048238736 79 25
0.69063395 -0.20057617 0.031909645 19 24
0.70108044 -0.11038158 0.015667286 8 23
0.68651527 -0.19949636 0 90 22
0.72327274 -0.1140559 -0.016189529 55 21
0.69295967 -0.2015219 -0.032026105 45 20
0.71934652 -0.11345635 -0.047996718 28 19
0.70287186 -0.20483057 -0.062591068 58 18
0.72389311 -0.11416393 -0.079890713 59 17
0.69051719 -0.10955812 0.17724258 90 31
0.65500247 -0.19280392 0.14993168 68 30
0.70108926 -0.11179895 0.13023876 55 29
0.65198302 -0.19167592 0.10083601 50 28
0.698484 -0.11199296 0.082097001 24 27
0.66858232 -0.19662763 0.063275285 90 26
0.72393775 -0.11623634 0.048585776 78 25
0.6851424 -0.20156132 0.031676728 23 24
0.69822198 -0.1124393 0.015609259 8 23
0.68581474 -0.20189156 0 90 22
0.71793276 -0.11580052 -0.016073475 65 21
0.69464535 -0.20465258 -0.032142565 42 20
0.72880018 -0.11752208 -0.048687316 40 19
0.69499481 -0.20514622 -0.061920449 45 18
0.73330384 -0.11823914 -0.081027947 50 17
0.69013059 -0.11196782 0.17724258 90 31
0.65898907 -0.19649626 0.151059 47 30
0.69099838 -0.11269934 0.12834437 50 29
0.66076964 -0.19680122 0.10238139 47 28
0.69563848 -0.11403751 0.081794061 26 27
0.67265755 -0.20039633 0.063751042 90 26
0.72106516 -0.11836692 0.048412256 76 25
0.69160789 -0.20611332 0.032026105 26 24
0.70520747 -0.11619127 0.01578334 8 23
0.6851058 -0.20428425 0 90 22
0.72739369 -0.11989908 -0.016305583 70 21
0.68432778 -0.20431003 -0.031676728 38 20
0.72099912 -0.11887299 -0.048169367 44 19
0.70619166 -0.21117353 -0.063038148 31 18
0.73776942 -0.12171856 -0.081596561 49 17
0.68494701 -0.11372247 0.17595354 90 31
0.66059369 -0.19962239 0.15162265 40 30
0.6930033 -0.11562665 0.12881798 46 29
0.66240615 -0.19994307 0.10276773 47 28
0.69276708 -0.11618452 0.08149112 27 27
0.6742987 -0.20358717 0.063988924 90 26
0.72062653 -0.12100896 0.048412256 76 25
0.69084781 -0.2086468 0.032026105 31 24
0.70479757 -0.11865219 0.01578334 9 23
0.6843524 -0.20679393 0 90 22
0.71708572 -0.12093493 -0.016073475 77 21
0.68122226 -0.2059674 -0.031560272 26 20
0.71563715 -0.12070182 -0.04782407 45 19
0.69827056 -0.21157271 -0.062367529 22 18
0.72998834 -0.12307867 -0.080743633 44 17
0.68692881 -0.11650803 0.17659806 90 31
0.66687298 -0.20408781 0.15331362 35 30
0.69017422 -0.11764111 0.12834437 43 29
0.65934438 -0.20152451 0.10238139 72 28
0.69480467 -0.11901245 0.081794061 29 27
0.67124212 -0.20508744 0.063751042 90 26
0.71282125 -0.12228367 0.047891695 67 25
0.68057185 -0.2081065 0.031560272 35 24
0.6969853 -0.11986642 0.015609259 11 23
0.68362641 -0.2091815 0 90 22
0.72900337 -0.12538981 -0.01636361 74 21
0.68527037 -0.209821 -0.031793188 22 20
0.71767074 -0.12361419 -0.047996718 49 19
0.69518679 -0.21314996 -0.062143989 14 18
0.73445255 -0.12645277 -0.081312254 38 17
0.6865387 -0.11878534 0.17659806 90 31
0.66386831 -0.20557015 0.15274997 33 30
0.69945997 -0.12157679 0.13023876 35 29
0.66338712 -0.20518462 0.10315407 90 28
0.69685221 -0.1217344 0.082097001 29 27
0.67289734 -0.20817223 0.063988924 90 26
0.70995378 -0.1242253 0.047718175 65 25
0.68464482 -0.2118533 0.031793188 38 24
0.70890009 -0.12429334 0.015899394 12 23
0.6733855 -0.20846026 0 90 22
0.72117209 -0.12666138 -0.016189529 73 21
0.6869539 -0.21283863 -0.031909645 19 20
0.71234113 -0.12514696 -0.047651418 50 19
0.68968695 -0.21408445 -0.061696909 13 18
0.73158145 -0.12846613 -0.081027947 32 17
0.68611985 -0.12118108 0.17659806 90 31
0.66082489 -0.20715019 0.15218632 31 30
0.69419444 -0.12317692 0.12929156 28 29
0.65795743 -0.20600782 0.10238139 90 28
0.68664473 -0.12245779 0.080885231 37 27
0.6674214 -0.20901731 0.063513167 90 26
0.71197242 -0.12713282 0.047891695 59 25
0.68390113 -0.21424188 0.031793188 44 24
0.70353848 -0.1259034 0.01578334 14 23
0.67265379 -0.21080953 0 87 22
0.72072554 -0.12917796 -0.016189529 74 21
0.68620682 -0.21523528 -0.031909645 17 20
0.71189994 -0.12763272 -0.047651418 50 19
0.69130862 -0.21724433 -0.061920449 12 18
0.73602116 -0.13187909 -0.081596561 22 17
0.68329245 -0.12327474 0.17595354 90 31
0.66006124 -0.20957083 0.15218632 32 30
0.69857216 -0.12657887 0.13023876 28 29
0.65249401 -0.20690951 0.10160869 90 28
0.68619132 -0.12497363 0.080885231 40 27
0.67139047 -0.21298203 0.063988924 81 26
0.70413661 -0.12842424 0.047371134 56 25
0.68311131 -0.21674708 0.031793188 46 24
0.70307225 -0.12848113 0.01578334 19 23
0.67901802 -0.215565 0 82 22
0.72270721 -0.13226043 -0.016247556 73 21
0.68779105 -0.21851231 -0.032026105 15 20
0.70897257 -0.12980032 -0.047478769 47 19
0.69287807 -0.22053905 -0.062143989 12 18
0.73308808 -0.13413687 -0.081312254 13 17
0.68285793 -0.12565912 0.17595354 90 31
0.65700918 -0.21112093 0.15162265 32 30
0.6957106 -0.12857892 0.12976517 30 29
0.65881574 -0.2114732 0.10276773 90 28
0.6833095 -0.12692358 0.080582291 41 27
0.67300999 -0.21609254 0.064226799 59 26
0.70613754 -0.131329 0.047544654 53 25
0.67759991 -0.2175885 0.031560272 49 24
0.69770235 -0.13003562 0.015667286 25 23
0.67350584 -0.21638966 0 79 22
0.71978271 -0.13433202 -0.016189529 71 21
0.67752391 -0.21782501 -0.031560272 17 20
0.71587479 -0.13362239 -0.047996718 45 19
0.69447178 -0.22372697 -0.062367529 12 18
0.73750168 -0.13759004 -0.081880867 9 17
0.68716651 -0.12891573 0.17724258 90 31
0.65164065 -0.21189156 0.15049534 35 30
0.69767141 -0.13145269 0.13023876 32 29
0.65572685 -0.21300097 0.10238139 90 28
0.67798257 -0.12840183 0.07997641 42 27
0.67228973 -0.21832311 0.064226799 49 26
0.71303046 -0.1351617 0.048065215 42 25
0.67920882 -0.22073157 0.031676728 47 24
0.69724417 -0.13247027 0.015667286 29 23
0.67749655 -0.22030014 0 70 22
0.71196252 -0.13534276 -0.016015448 65 21
0.6886211 -0.22408861 -0.032142565 19 20
0.72275895 -0.13749422 -0.048514668 37 19
0.70082152 -0.22836432 -0.063038148 13 18
0.73213381 -0.13925149 -0.081312254 8 17
0.68436098 -0.13074899 0.17659806 91 31
0.65093446 -0.21405131 0.15049534 38 30
0.69240689 -0.13285738 0.12929156 37 29
0.65032876 -0.21361744 0.10160869 90 28
0.69218314 -0.13341643 0.081794061 42 27
0.66916168 -0.21988422 0.063988924 44 26
0.7076776 -0.13659678 0.047718175 38 25
0.67610312 -0.2221957 0.031560272 55 24
0.68941134 -0.13350345 0.015493204 33 23
0.67913473 -0.2233339 0 64 22
0.70903045 -0.1373601 -0.015957421 65 21
0.68546516 -0.22570273 -0.032026105 19 20
0.71739882 -0.13895813 -0.048169367 31 19
0.69057041 -0.2276621 -0.062143989 14 18
0.73408324 -0.14227083 -0.081596561 8 17
0.68387717 -0.13325642 0.17659806 92 31
0.65707082 -0.2187663 0.15218632 40 30
0.70155811 -0.13724595 0.13118595 43 29
0.6495415 -0.21599959 0.10160869 90 28
0.68681616 -0.13501227 0.081188172 41 27
0.66363341 -0.22074941 0.063513167 42 26
0.6998263 -0.13776971 0.047197614 35 25
0.67528415 -0.22467224 0.031560272 83 24
0.69384861 -0.13685951 0.015609259 37 23
0.67357248 -0.22422758 0 67 22
0.71342945 -0.14091 -0.016073475 59 21
0.69177365 -0.23048367 -0.032375481 26 20
0.71933311 -0.14206161 -0.048342019 25 19
0.69209087 -0.23098707 -0.062367529 14 18
0.7213906 -0.14246701 -0.08017502 8 17
0.68103695 -0.13518107 0.17595354 94 31
0.65399742 -0.22027364 0.15162265 38 30
0.6890294 -0.13733736 0.12881798 44 29
0.65112197 -0.21906075 0.10199504 90 28
0.68877578 -0.13788752 0.08149112 36 27
0.66285878 -0.22306459 0.063513167 40 26
0.69934118 -0.14021173 0.047197614 31 25
0.66503841 -0.22381218 0.031094434 90 24
0.69091463 -0.1387969 0.015551231 47 23
0.68225276 -0.22979841 0 62 22
0.70802939 -0.14243026 -0.015957421 56 21
0.68387276 -0.23048262 -0.032026105 31 20
0.72127944 -0.14505526 -0.048514668 19 19
0.69128031 -0.23340152 -0.062367529 17 18
0.72332549 -0.14546585 -0.080459327 9 17
0.6781916 -0.13708751 0.17530902 94 31
0.64861864 -0.22096924 0.15049534 38 30
0.70058286 -0.14214036 0.13118595 47 29
0.65268904 -0.22213557 0.10238139 90 28
0.68829024 -0.14029096 0.08149112 29 27
0.67152947 -0.22849746 0.064464673 37 26
0.7061832 -0.1441232 0.047718175 24 25
0.66189158 -0.22532 0.030977976 90 24
0.69777703 -0.1426847 0.015725313 50 23
0.67671853 -0.2305515 0 47 22
0.71000344 -0.14527011 -0.016015448 51 21
0.67834157 -0.23124233 -0.031793188 32 20
0.71832383 -0.14708 -0.048342019 17 19
0.68814856 -0.2348811 -0.062143989 19 18
0.72524828 -0.14847994 -0.080743633 9 17
0.68010098 -0.13981357 0.17595354 93 31
0.65708357 -0.22632134 0.15274997 38 30
0.69289029 -0.14299965 0.12976517 49 29
0.64961582 -0.22348769 0.10199504 90 28
0.68782121 -0.14257264 0.08149112 26 27
0.66602641 -0.22920573 0.063988924 37 26
0.7032578 -0.14596568 0.047544654 23 25
0.66114074 -0.22751367 0.030977976 90 24
0.70219743 -0.14599867 0.015841367 60 23
0.68067276 -0.23443702 0 29 22
0.70459497 -0.14674506 -0.015899394 49 21
0.68228805 -0.23513223 -0.032026105 35 20
0.71538877 -0.14896102 -0.048169367 18 19
0.68967563 -0.23810147 -0.062367529 24 18
0.72231865 -0.15038598 -0.080459327 10 17
0.67960888 -0.14218672 0.17595354 94 31
0.64939708 -0.22618771 0.151059 37 30
0.69719499 -0.14640963 0.13071236 51 29
0.65116191 -0.22657311 0.10238139 73 28
0.69217926 -0.14598002 0.082097001 22 27
0.66991788 -0.23318003 0.064464673 36 26
0.70274395 -0.14841963 0.047544654 17 25
0.66269851 -0.23064838 0.031094434 90 24
0.69431704 -0.1470432 0.015667286 70 23
0.67985034 -0.23681156 0 15 22
0.7040785 -0.14920366 -0.015899394 37 21
0.67199969 -0.23431337 -0.031560272 40 20
0.72218919 -0.1529835 -0.048687316 18 19
0.68649197 -0.23967953 -0.062143989 28 18
0.72419399 -0.15353945 -0.080743633 12 17
0.67671889 -0.14418188 0.17530902 94 31
0.65085816 -0.22938341 0.15162265 35 30
0.69184923 -0.14795417 0.12976517 58 29
0.64799994 -0.22813046 0.10199504 60 28
0.69163954 -0.148516 0.082097001 26 27
0.6690588 -0.23563382 0.064464673 37 26
0.69975525 -0.15047833 0.047371134 18 25
0.66184866 -0.23307574 0.031094434 90 24
0.69135445 -0.14894798 0.015609259 83 23
0.68368828 -0.2409782 0 10 22
0.70108199 -0.15126444 -0.015841367 32 21
0.67353022 -0.23749536 -0.031676728 50 20
0.71430451 -0.15407638 -0.048169367 24 19
0.69264472 -0.24470353 -0.062814608 26 18
0.72122401 -0.15555088 -0.080459327 12 17
0.67857397 -0.14704621 0.17595354 93 31
0.65463686 -0.23330402 0.15274997 35 30
0.69372904 -0.15088157 0.13023876 62 29
0.64487547 -0.22955519 0.10160869 50 28
0.6814118 -0.14884524 0.080885231 29 27
0.67061561 -0.23869298 0.064702556 37 26
0.71385491 -0.15606694 0.048412256 19 25
0.65868109 -0.23453949 0.030977976 90 24
0.69327354 -0.15188682 0.015667286 83 23
0.68049067 -0.2425168 0 9 22
0.70546281 -0.15464227 -0.015957421 24 21
0.67269713 -0.23984498 -0.031676728 70 20
0.71132445 -0.15604264 -0.047996718 36 19
0.68948698 -0.24615481 -0.062591068 27 18
0.72553235 -0.15911554 -0.081027947 13 17
0.68044353 -0.1498065 0.17659806 92 31
0.64470398 -0.23214301 0.15049534 45 30
0.68602866 -0.15161745 0.12881798 69 29
0.64178926 -0.23084885 0.10122235 49 28
0.67848992 -0.15057498 0.080582291 31 27
0.66276127 -0.23848258 0.063988924 40 26
0.70846057 -0.15736818 0.048065215 22 25
0.66024685 -0.23757538 0.031094434 90 24
0.69520754 -0.15471953 0.015725313 83 23
0.67028457 -0.24135514 0 9 22
0.70980132 -0.15817468 -0.016073475 12 21
0.66720438 -0.24036697 -0.031443812 86 20
0.70836693 -0.15786633 -0.04782407 45 19
0.67926544 -0.2451503 -0.061696909 41 18
0.71772242 -0.15992436 -0.08017502 15 17
0.67991638 -0.15218078 0.17659806 93 31
0.63931775 -0.23271081 0.14936803 82 30
0.68789208 -0.15454084 0.12929156 63 29
0.64561647 -0.234791 0.10199504 50 28
0.67796016 -0.15294243 0.080582291 37 27
0.66426086 -0.2416527 0.064226799 45 26
0.7030378 -0.15875807 0.047718175 24 25
0.6641019 -0.24160081 0.031327356 90 24
0.68731725 -0.15563601 0.015551231 87 23
0.669438 -0.2436934 0 11 22
0.70192659 -0.15901959 -0.015899394 9 21
0.66866267 -0.24367312 -0.031560272 88 20
0.70781153 -0.16033803 -0.04782407 49 19
0.68307865 -0.24924111 -0.062143989 55 18
0.72197968 -0.16363581 -0.080743633 24 17
0.6722827 -0.15308854 0.1746645 93 31
0.64302623 -0.23675044 0.15049534 90 30
0.68253124 -0.15598424 0.12834437 51 29
0.65169764 -0.23973617 0.10315407 50 28
0.67497438 -0.15487984 0.08027935 39 27
0.65170634 -0.2397524 0.06303741 50 26
0.70245123 -0.16133377 0.047718175 28 25
0.66321194 -0.24403323 0.031327356 90 24
0.69408262 -0.15969034 0.015725313 84 23
0.67557037 -0.24875844 0 12 22
0.71108872 -0.1638027 -0.016131502 8 21
0.67248935 -0.24774666 -0.031793188 90 20
0.71208364 -0.16403462 -0.048169367 55 19
0.67749381 -0.25000474 -0.061696909 71 18
0.72382635 -0.16670443 -0.081027947 38 17
0.67645478 -0.15650624 0.17595354 90 31
0.63535625 -0.23642272 0.14880438 90 30
0.67719638 -0.15727223 0.12739719 45 29
0.64160752 -0.23853666 0.10160869 50 28
0.67201096 -0.15668017 0.07997641 40 27
0.6531952 -0.2429006 0.063275285 50 26
0.6921612 -0.16155089 0.047024094 29 25
0.65534222 -0.24371326 0.030977976 90 24
0.70082796 -0.16379374 0.015899394 78 23
0.67001736 -0.24935673 0 13 22
0.69833529 -0.16347697 -0.015841367 6 21
0.67162049 -0.2500926 -0.031793188 88 20
0.71150666 -0.16651924 -0.048169367 62 19
0.67661703 -0.25236809 -0.061696909 70 18
0.71839941 -0.16811427 -0.080459327 41 17
0.6782577 -0.15941074 0.17659806 90 31
0.63908088 -0.24036889 0.14993168 90 30
0.68142557 -0.16074538 0.12834437 38 29
0.65231746 -0.24515632 0.10354042 85 28
0.67871034 -0.16071485 0.080885231 41 27
0.66169393 -0.24859545 0.064226799 58 26
0.70373642 -0.16680078 0.047891695 36 25
0.65682238 -0.24688534 0.031094434 90 24
0.6929509 -0.16453201 0.015725313 73 23
0.66446841 -0.24991928 0 15 22
0.70509005 -0.16750018 -0.016015448 8 21
0.67074341 -0.25243545 -0.031793188 87 20
0.70849276 -0.16843319 -0.047996718 69 19
0.67577636 -0.25461045 -0.061696909 73 18
0.72022653 -0.17118725 -0.080743633 46 17
0.67302227 -0.16055506 0.17530902 90 31
0.64510238 -0.24510421 0.15162265 90 30
0.68088877 -0.16300417 0.12834437 26 29
0.64227533 -0.24378233 0.10199504 90 28
0.67334378 -0.16182202 0.08027935 46 27
0.64920294 -0.24645048 0.06303741 69 26
0.69347233 -0.16683352 0.047197614 40 25
0.65600008 -0.24906209 0.031094434 87 24
0.69240153 -0.16682902 0.015725313 68 23
0.67297304 -0.25570178 0 17 22
0.70206946 -0.16938245 -0.015957421 8 21
0.66990256 -0.25465831 -0.031793188 86 20
0.70793033 -0.17078172 -0.047996718 78 19
0.68185639 -0.25964722 -0.062367529 73 18
0.71482199 -0.172426 -0.08017502 49 17
0.67010802 -0.1623432 0.1746645 90 31
0.64878476 -0.24911535 0.15274997 90 30
0.68986487 -0.16766544 0.13023876 18 29
0.64142048 -0.24602279 0.10199504 90 28
0.68242651 -0.16649041 0.08149112 51 27
0.6553008 -0.25141135 0.063751042 76 26
0.69046104 -0.1686697 0.047024094 42 25
0.66211295 -0.25405604 0.031443812 81 24
0.69424462 -0.16983049 0.01578334 64 23
0.66974527 -0.25714606 0 23 22
0.7063331 -0.17300496 -0.016073475 9 21
0.66435266 -0.25518984 -0.031560272 86 20
0.70732987 -0.17325181 -0.047996718 72 19
0.67862475 -0.26112452 -0.062143989 78 18
0.70938689 -0.17375459 -0.079606406 63 17
0.66953731 -0.16468132 0.1746645 90 31
0.64110756 -0.24871352 0.151059 78 30
0.67973417 -0.16775367 0.12834437 15 29
0.63825768 -0.24736026 0.10160869 92 28
0.67701942 -0.16769518 0.080885231 64 27
0.64978415 -0.25188357 0.063275285 53 26
0.69229078 -0.17167076 0.047197614 44 25
0.65889651 -0.25545573 0.031327356 79 24
0.69361746 -0.17237389 0.01578334 62 23
0.66418761 -0.25765958 0 17 22
0.70815241 -0.17606437 -0.016131502 9 21
0.66108781 -0.25671187 -0.031443812 85 20
0.70914316 -0.17631343 -0.048169367 72 19
0.67539108 -0.26258242 -0.061920449 76 18
0.71115762 -0.17694506 -0.079890713 63 17
0.67127478 -0.16771118 0.17530902 90 31
0.63792711 -0.25016505 0.15049534 51 30
0.68626422 -0.17200921 0.12976517 14 29
0.63964355 -0.25060639 0.10199504 93 28
0.6739915 -0.16957846 0.080582291 78 27
0.65811348 -0.25792477 0.064226799 42 26
0.69165689 -0.17420699 0.047197614 40 25
0.66027808 -0.25878745 0.031443812 78 24
0.68573511 -0.17298517 0.015609259 62 23
0.67486185 -0.26469177 0 23 22
0.70992756 -0.17926247 -0.016189529 10 21
0.66483146 -0.26085654 -0.031676728 81 20
0.70365185 -0.17770636 -0.04782407 72 19
0.68136811 -0.2678096 -0.062591068 72 18
0.71053559 -0.17942639 -0.079890713 68 17
0.67302877 -0.17063852 0.17595354 90 31
0.64609587 -0.25600839 0.15274997 41 30
0.68327856 -0.17380694 0.12929156 15 29
0.63647127 -0.25192118 0.10160869 94 28
0.67820871 -0.17314088 0.081188172 85 27
0.65027606 -0.25745022 0.063513167 29 26
0.69829977 -0.17844801 0.047718175 37 25
0.65705168 -0.26016411 0.031327356 78 24
