# .PCD v0.7 - Point Cloud Data file format
VERSION 0.7
FIELDS x y z intensity ring
SIZE 4 4 4 4 2
TYPE F F F F U
COUNT 1 1 1 1 1
WIDTH 1362
HEIGHT 1
VIEWPOINT 0 0 0 1 0 0 0
POINTS 1362
DATA ascii
nan nan nan 0 2
nan nan nan 0 1
nan nan nan 0 0
2.4567788 -0.63429636 0.66772109 60 31
2.3874686 -0.9718895 0.58845371 69 30
1.285772 -0.33436912 0.24958482 100 29
2.3798273 -0.96782237 0.39638984 67 28
1.2775626 -0.33341542 0.15692341 12 27
1.2385033 -0.50228262 0.12440969 77 26
1.2981466 -0.33922404 0.090924807 12 25
1.2333426 -0.50043714 0.060441993 11 24
1.2934892 -0.33849192 0.030232059 26 23
1.2438189 -0.50496119 0 11 22
1.2934302 -0.33871767 -0.030232059 9 21
1.2539772 -0.50935978 -0.061490119 102 20
1.2979403 -0.3401382 -0.09046863 9 19
1.2617586 -0.51304227 -0.11914656 128 18
1.3095667 -0.34316865 -0.15096785 43 17
1.3762625 -0.56037086 -0.20160951 12 16
1.3108408 -0.34303024 -0.23015459 35 15
1.8517878 -0.75816607 -0.56264895 9 13
1.401283 -0.36601779 -0.32371265 50 14
2.0429246 -0.83914131 -0.75184244 16 12
1.4316052 -0.37050405 -0.58395386 11 11
2.3248408 -0.96372014 -1.3179158 13 9
1.4448615 -0.3726097 -0.68448746 11 10
2.0567362 -0.85643536 -1.3255309 13 8
1.5611744 -0.39529711 -1.0663407 4 7
1.6240656 -0.6815958 -1.3146935 17 6
1.5483724 -0.385625 -1.3213235 22 5
1.311388 -0.55642354 -1.328464 13 4
1.2528896 -0.30674958 -1.3318241 1 3
nan nan nan 0 2
nan nan nan 0 1
nan nan nan 0 0
2.4499869 -0.64122128 0.66643208 59 31
2.3842323 -0.97980124 0.58845371 71 30
1.2846562 -0.33863106 0.24958482 100 29
2.3834569 -0.97852892 0.39754885 70 28
1.2692492 -0.33575973 0.15601459 12 27
1.2436465 -0.50944412 0.12512331 77 26
1.2994267 -0.34416109 0.091098331 12 25
1.2386044 -0.5073756 0.060791366 11 24
1.2971936 -0.34405211 0.030348113 13 23
1.2398257 -0.50813115 0 43 22
1.2898232 -0.34259334 -0.03017403 11 21
1.2522813 -0.51351529 -0.061490119 100 20
1.2919819 -0.3431688 -0.090123333 11 19
1.2576582 -0.51649374 -0.11892302 128 18
1.3108232 -0.34814262 -0.15125217 44 17
1.3788755 -0.5670619 -0.2022976 12 16
1.3120779 -0.34800231 -0.23058398 35 15
1.8559242 -0.76706445 -0.56471252 9 13
1.4023538 -0.37152699 -0.32427078 50 14
2.0444939 -0.84772569 -0.75347692 17 12
1.4303032 -0.37549901 -0.58395386 11 11
2.3214624 -0.97182947 -1.3179158 13 9
1.4370471 -0.37569359 -0.68129885 11 10
2.0576773 -0.86527258 -1.3281173 13 8
1.53578 -0.39433536 -1.0495259 11 7
1.6235068 -0.68803954 -1.3162081 16 6
1.5470169 -0.39102745 -1.3213235 22 5
1.3077779 -0.56028306 -1.3267365 13 4
1.2501464 -0.31071159 -1.3300047 1 3
nan nan nan 0 2
nan nan nan 0 1
nan nan nan 0 0
2.4453986 -0.64915198 0.66578752 59 31
2.3830466 -0.98905343 0.58901739 71 30
1.2834662 -0.3431133 0.24958482 100 29
2.3777461 -0.98589474 0.3971625 70 28
1.2800596 -0.34338075 0.15752929 11 27
1.2372645 -0.51187181 0.12464756 81 26
1.2933979 -0.34740978 0.09075129 24 25
1.2368257 -0.51169604 0.060791366 11 24
1.2983384 -0.3494494 0.030406138 12 23
1.2403529 -0.51341581 0 60 22
1.300692 -0.35032162 -0.030464167 11 21
1.2526963 -0.51906145 -0.061606579 98 20
1.2980044 -0.34960932 -0.09064129 11 19
1.2535492 -0.51992297 -0.11869949 122 18
1.3095384 -0.3529447 -0.15125217 46 17
1.383744 -0.57473123 -0.20332974 11 16
1.3131731 -0.35344478 -0.23101339 32 15
1.8420162 -0.76921809 -0.56127334 9 13
1.4057573 -0.37767631 -0.32538706 50 14
2.0522637 -0.85978925 -0.75756294 20 12
1.4221957 -0.3789604 -0.58114183 11 11
2.3180561 -0.97992694 -1.3179158 13 9
1.4400369 -0.38211107 -0.68342459 11 10
2.0564601 -0.87364727 -1.3294104 13 8
1.5403376 -0.40151787 -1.0537297 12 7
1.6191467 -0.69319987 -1.3146935 17 6
1.5400262 -0.39528203 -1.3164777 23 5
1.3057156 -0.56507254 -1.3267365 13 4
1.2489992 -0.31529152 -1.3300047 1 3
nan nan nan 0 2
nan nan nan 0 1
nan nan nan 0 0
2.4383371 -0.6568585 0.66449845 60 31
2.3771601 -0.99683726 0.58845371 71 30
1.2822001 -0.34781513 0.24958482 99 29
2.3809483 -0.99747205 0.39832154 70 28
1.2787924 -0.34807009 0.15752929 13 27
1.2330858 -0.51543963 0.12440969 82 26
1.2921159 -0.352148 0.09075129 23 25
1.2418495 -0.51912659 0.061140746 34 24
1.2995231 -0.35463297 0.030464167 12 23
1.2384628 -0.51795846 0 60 22
1.2897508 -0.35246873 -0.030232059 11 21
1.2508769 -0.523431 -0.061606579 98 20
1.2943072 -0.35371128 -0.09046863 11 19
1.2585199 -0.5274123 -0.1193701 118 18
1.3082985 -0.35751364 -0.15125217 47 17
1.4021654 -0.58845305 -0.20642614 11 16
1.3143084 -0.3586705 -0.23144276 30 15
1.8348925 -0.77377039 -0.55989766 9 13
1.4020114 -0.3821893 -0.32482892 50 14
2.0601251 -0.87156171 -0.76164907 23 12
1.4231027 -0.38452309 -0.58207917 11 11
2.3124189 -0.9875474 -1.3167433 13 9
1.4321358 -0.38538301 -0.68023598 11 10
2.0553634 -0.88166595 -1.3307036 13 8
1.532919 -0.40531498 -1.0495259 12 7
1.6185418 -0.69963938 -1.3162081 17 6
1.5404844 -0.40113276 -1.3180929 23 5
1.3086991 -0.57180685 -1.3319191 13 4
1.2495528 -0.32007083 -1.3318241 1 3
nan nan nan 0 2
nan nan nan 0 1
nan nan nan 0 0
2.4197137 -0.66092694 0.65998685 54 31
2.3803921 -1.007984 0.59014463 71 30
1.2809782 -0.35228872 0.24958482 99 29
2.3729043 -1.0038484 0.39754885 70 28
1.2727828 -0.35122049 0.15692341 48 27
1.23357 -0.52071232 0.12464756 81 26
1.2932838 -0.3573159 0.090924807 12 25
1.2423289 -0.52443326 0.061257202 67 24
1.2934572 -0.35784292 0.030348113 12 23
1.2366472 -0.52227837 0 62 22
1.2957419 -0.35895726 -0.030406138 11 21
1.2467432 -0.52681839 -0.061490119 97 20
1.2882552 -0.35690418 -0.090123333 11 19
1.2543797 -0.53082806 -0.11914656 114 18
1.3070425 -0.36207831 -0.15125217 48 17
nan nan nan 0 16
1.3177981 -0.36456084 -0.23230155 27 15
1.8277597 -0.77828234 -0.55852199 9 13
1.4053687 -0.38837108 -0.32594517 48 14
2.0722728 -0.88526022 -0.76736957 27 12
1.4150428 -0.38766298 -0.5792672 11 11
2.2967975 -0.99035615 -1.3097081 13 9
1.4285979 -0.389788 -0.67917311 11 10
2.0483484 -0.8871302 -1.3281173 13 8
1.5374969 -0.41226155 -1.0537297 12 7
1.6142678 -0.70448661 -1.3146935 17 6
1.5353835 -0.40553984 -1.3148623 23 5
1.3000869 -0.5734418 -1.3250089 13 4
1.2517489 -0.32528517 -1.3354629 1 3
nan nan nan 0 2
nan nan nan 0 1
nan nan nan 0 0
nan nan nan 0 31
2.3768589 -1.016287 0.59014463 71 30
1.2773747 -0.35610324 0.24911122 99 29
2.3761973 -1.0150419 0.3987079 70 28
1.2811134 -0.35831723 0.15813518 59 27
1.2387004 -0.52773774 0.12536119 90 26
1.2872231 -0.36049181 0.090577766 12 25
1.2381951 -0.52778363 0.061140746 62 24
1.2873847 -0.36101487 0.030232059 11 23
1.2348167 -0.52659184 0 59 22
1.292137 -0.36258128 -0.030348113 11 21
1.2471921 -0.53215098 -0.061606579 96 20
1.2870015 -0.36139888 -0.090123333 11 19
1.2503241 -0.53400308 -0.11892302 107 18
1.3057705 -0.36663854 -0.15125217 50 17
nan nan nan 0 16
1.3212627 -0.37047988 -0.23316035 17 15
1.8228251 -0.78370583 -0.55783415 11 13
1.4040731 -0.3930293 -0.32594517 48 14
2.0800123 -0.89717811 -0.77145571 28 12
1.4159837 -0.39296919 -0.58020455 11 11
2.2914772 -0.99708426 -1.3085356 13 9
1.4250464 -0.39417297 -0.67811024 12 10
2.0453954 -0.89391786 -1.3281173 13 8
1.5360485 -0.41762593 -1.0537297 12 7
1.6119229 -0.70983589 -1.3146935 17 6
1.53403 -0.41062909 -1.3148623 24 5
1.2998278 -0.57848781 -1.3267365 12 4
1.2506633 -0.32943431 -1.3354629 1 3
nan nan nan 0 2
nan nan nan 0 1
nan nan nan 0 0
nan nan nan 0 31
2.3757112 -1.0251303 0.59070832 71 30
1.2738233 -0.35967466 0.24863763 97 29
2.3750856 -1.023896 0.39909425 71 28
1.2775294 -0.36189166 0.15783224 56 27
nan nan nan 0 26
1.2908218 -0.36611068 0.090924807 12 25
1.2410228 -0.5338679 0.061373662 65 24
1.2813694 -0.36392519 0.030116005 11 23
1.237653 -0.53266793 0 62 22
1.2860529 -0.36573097 -0.030232059 11 21
1.2431284 -0.53529239 -0.061490119 90 20
1.2953967 -0.36837602 -0.090813935 15 19
1.2415981 -0.53539521 -0.11825241 105 18
1.3045477 -0.37096664 -0.15125217 50 17
2.3842945 -1.0313393 -0.35608506 71 16
1.3152862 -0.37352231 -0.23230155 26 15
1.8290313 -0.79358292 -0.5605855 11 13
1.4050382 -0.39858913 -0.32650331 46 14
2.0986798 -0.91352206 -0.77962792 35 12
1.4212999 -0.39978039 -0.58301651 11 11
2.2799001 -1.0015169 -1.3038455 12 9
1.4324515 -0.40132287 -0.68236172 12 10
2.0422626 -0.90105218 -1.3281173 13 8
1.5366521 -0.42326361 -1.0551308 12 7
1.6076192 -0.71464777 -1.3131789 16 6
1.5362722 -0.41697425 -1.3180929 20 5
1.2928594 -0.58079058 -1.3215538 12 4
1.2495056 -0.33379793 -1.3354629 1 3
nan nan nan 0 2
nan nan nan 0 1
nan nan nan 0 0
nan nan nan 0 31
2.3721187 -1.0334169 0.59070832 71 30
1.2701988 -0.36344808 0.24816403 96 29
2.3714972 -1.0321803 0.39909425 71 28
1.2690986 -0.36430803 0.15692341 44 27
nan nan nan 0 26
1.2847395 -0.36924526 0.090577766 12 25
1.2322848 -0.53520083 0.061024286 75 24
1.2872361 -0.37068087 0.030290084 11 23
1.2334949 -0.53598481 0 59 22
1.2871712 -0.37090552 -0.030290084 11 21
1.234293 -0.5368458 -0.061140746 90 20
1.2917051 -0.37220934 -0.09064129 44 19
1.2328774 -0.53673291 -0.11758178 44 18
1.305567 -0.37642932 -0.15153648 50 17
2.3874855 -1.0426346 -0.35711721 77 16
1.3091725 -0.37698618 -0.23144276 30 15
1.8261105 -0.80028129 -0.5605855 11 13
1.4059814 -0.40416041 -0.32706141 48 14
2.1104507 -0.92787945 -0.78534847 35 12
1.4153655 -0.40372342 -0.58114183 11 11
2.2723548 -1.0076752 -1.3015004 9 9
1.4266154 -0.40534115 -0.68023598 11 10
2.036993 -0.90765846 -1.3268241 13 8
1.5211253 -0.42501745 -1.0453222 12 7
1.6049891 -0.72053516 -1.3131789 16 6
1.5328931 -0.42209899 -1.3164777 22 5
1.2890778 -0.58477551 -1.3198264 12 4
1.246618 -0.33793077 -1.3336436 1 3
nan nan nan 0 2
nan nan nan 0 1
nan nan nan 0 0
nan nan nan 0 31
2.3705432 -1.0430871 0.591272 70 30
1.2688581 -0.36810112 0.24816403 96 29
2.3699584 -1.0418614 0.39948061 71 28
1.2725229 -0.37033507 0.15752929 24 27
2.3739746 -1.0436444 0.24453758 73 26
1.2881688 -0.37533814 0.090924807 12 25
1.2348855 -0.54172778 0.061257202 78 24
1.2859342 -0.3751719 0.030290084 12 23
1.2383848 -0.5435276 0 56 22
1.2834028 -0.3749243 -0.030232059 12 21
1.2369813 -0.54316652 -0.061373662 90 20
1.2951227 -0.37833115 -0.090986587 52 19
1.2354574 -0.54326004 -0.11802886 15 18
1.3066305 -0.38167644 -0.15182078 52 17
2.3859127 -1.0523795 -0.35746124 77 16
1.310214 -0.38223922 -0.23187217 28 15
1.8276998 -0.80860066 -0.56196117 12 13
1.4068315 -0.4099887 -0.32761955 48 14
2.1223085 -0.94196481 -0.79106897 36 12
1.4250857 -0.41185951 -0.58582848 11 11
2.2605894 -1.0123794 -1.2968104 9 9
1.4317187 -0.41218516 -0.68342459 11 10
2.0357628 -0.91564316 -1.3281173 13 8
1.5216256 -0.4308852 -1.0467234 12 7
1.6006536 -0.72530967 -1.3116642 16 6
1.5295715 -0.42693758 -1.3148623 22 5
1.285387 -0.58851624 -1.3180988 12 4
1.2404679 -0.340929 -1.3281852 1 3
nan nan nan 0 2
nan nan nan 0 1
nan nan nan 0 0
nan nan nan 0 31
2.369113 -1.0523461 0.59183568 71 30
1.2628525 -0.37115258 0.24721684 90 29
2.366307 -1.0501277 0.39948061 71 28
1.2640777 -0.37268278 0.15662047 12 27
2.3750491 -1.0535332 0.24501336 74 26
1.2916373 -0.38123572 0.091271847 12 25
1.2375505 -0.54806483 0.061490119 73 24
1.289413 -0.38106635 0.030406138 12 23
1.2341959 -0.54683059 0 56 22
1.2893465 -0.38129136 -0.030406138 44 21
1.2350777 -0.54748106 -0.061373662 90 20
1.2890086 -0.38144299 -0.09064129 51 19
1.2222773 -0.54228622 -0.11691117 12 18
1.3076732 -0.38693553 -0.15210509 54 17
2.3824098 -1.0602857 -0.35746124 77 16
1.3041457 -0.38542297 -0.23101339 31 15
1.8226725 -0.81399292 -0.56127334 12 13
1.410141 -0.41602293 -0.3287358 50 14
2.1319389 -0.95517617 -0.79597235 34 12
1.4259374 -0.41723001 -0.58676577 11 11
2.2572196 -1.0198703 -1.2968104 9 9
1.4259243 -0.4159207 -0.68129885 11 10
2.0307677 -0.92150265 -1.3268241 13 8
1.5101569 -0.43335626 -1.0397172 11 7
1.5982395 -0.73061359 -1.3116642 17 6
1.5244733 -0.43097618 -1.3116317 22 5
1.2883457 -0.59505814 -1.3232814 12 4
1.2475946 -0.34732008 -1.3372824 1 3
nan nan nan 0 2
nan nan nan 0 1
nan nan nan 0 0
nan nan nan 0 31
2.3656104 -1.0601966 0.59183568 71 30
1.2686772 -0.37742493 0.24863763 90 29
2.3673186 -1.0599914 0.40025327 70 28
1.2580764 -0.37546217 0.15601459 11 27
2.3758979 -1.0638551 0.24548909 74 26
1.2831933 -0.38338816 0.09075129 12 25
1.2243345 -0.54705328 0.06090783 83 24
1.2881422 -0.38534006 0.030406138 12 23
1.2323757 -0.55092031 0 62 22
1.2808211 -0.38365141 -0.030232059 56 21
1.2378114 -0.55362034 -0.061606579 87 20
1.290127 -0.38642669 -0.090813935 51 19
1.2362726 -0.55369991 -0.11847594 51 18
1.3040022 -0.39056149 -0.15182078 52 17
2.3809521 -1.069612 -0.35780528 77 16
1.3075819 -0.3911486 -0.23187217 30 15
1.8199632 -0.82003272 -0.56127334 12 13
1.4133524 -0.42233017 -0.32985204 50 14
2.0491369 -0.92615557 -0.76573521 11 12
1.4311421 -0.42416912 -0.58957779 11 11
2.2476218 -1.024989 -1.2932928 11 9
1.4267085 -0.4212839 -0.68236172 11 10
2.0275385 -0.92858577 -1.3268241 13 8
1.502744 -0.43663931 -1.0355135 12 7
1.5956795 -0.73618805 -1.3116642 16 6
1.5082775 -0.43211821 -1.2987093 20 5
1.2797149 -0.59648538 -1.3163713 12 4
1.2397698 -0.34982634 -1.3300047 1 3
nan nan nan 0 2
nan nan nan 0 1
nan nan nan 0 0
nan nan nan 0 31
2.3641133 -1.0694535 0.5923993 71 30
1.2697036 -0.38255483 0.24911122 78 29
2.3636038 -1.0682485 0.40025327 73 28
1.2638885 -0.38199189 0.15692341 11 27
2.3744366 -1.073169 0.24572697 73 26
1.2818472 -0.38786498 0.09075129 12 25
1.2337912 -0.55647588 0.061490119 70 24
1.2771486 -0.38717595 0.03017403 36 23
1.2281682 -0.55418682 0 62 22
1.2818673 -0.38884106 -0.030290084 59 21
1.2334996 -0.55712175 -0.061490119 90 20
1.2863823 -0.3902081 -0.09064129 54 19
1.2116599 -0.54771781 -0.11624055 62 18
1.302562 -0.39533824 -0.15182078 52 17
2.3772037 -1.0779165 -0.35780528 78 16
1.3084978 -0.39664871 -0.23230155 28 15
1.8169456 -0.82669765 -0.56127334 12 13
1.4118696 -0.42726111 -0.32985204 50 14
2.0521736 -0.93660933 -0.76818681 11 12
1.4295778 -0.42941168 -0.58957779 11 11
2.2360108 -1.0291281 -1.2886027 12 9
1.4208169 -0.42522031 -0.68023598 11 10
2.0260625 -0.93691105 -1.3281173 13 8
1.5011336 -0.44214419 -1.0355135 12 7
1.5929705 -0.74203157 -1.3116642 16 6
1.5085169 -0.43817222 -1.3003246 19 5
1.2840546 -0.60426199 -1.3232814 12 4
1.2384793 -0.35436794 -1.3300047 1 3
nan nan nan 0 2
nan nan nan 0 1
nan nan nan 0 0
nan nan nan 0 31
2.3646069 -1.0801389 0.5935266 71 30
1.263595 -0.38578126 0.24816403 52 29
2.3641653 -1.0789591 0.40102598 73 28
1.2577316 -0.38517725 0.15631753 11 27
2.3727508 -1.0828997 0.24596485 75 26
1.2875743 -0.39474055 0.091271847 12 25
1.2317435 -0.56099415 0.061490119 71 24
1.27818 -0.39236069 0.030232059 52 23
1.2261287 -0.55868459 0 59 22
1.278043 -0.39280683 -0.030232059 58 21
1.2315475 -0.56142414 -0.061490119 78 20
1.2873288 -0.39564866 -0.090813935 52 19
1.2164347 -0.55526823 -0.11691117 13 18
1.3035495 -0.400608 -0.15210509 58 17
2.3777382 -1.0886878 -0.35849339 77 16
1.3023938 -0.39977694 -0.23144276 35 15
1.8140488 -0.83303493 -0.56127334 13 13
1.4172872 -0.43456432 -0.33152643 52 14
2.0360222 -0.93782312 -0.76328355 7 12
1.4325072 -0.43574056 -0.59145242 12 11
2.2222166 -1.0326543 -1.2827401 12 9
1.4279907 -0.43278739 -0.68448746 11 10
2.0208421 -0.94307065 -1.3268241 15 8
1.4896557 -0.44443959 -1.0285074 12 7
1.5903707 -0.74758756 -1.3116642 16 6
1.4959892 -0.4402239 -1.2906326 31 5
1.2754139 -0.60562748 -1.3163713 12 4
1.2339391 -0.35774195 -1.3263658 1 3
nan nan nan 0 2
nan nan nan 0 1
nan nan nan 0 0
2.4254758 -0.74509025 0.66772109 52 31
2.360822 -1.0883863 0.5935266 73 30
1.2622406 -0.39018968 0.24816403 48 29
2.3648694 -1.0892755 0.40179864 73 28
1.2611227 -0.39102623 0.15692341 11 27
2.3712156 -1.0922186 0.24620272 75 26
1.2766557 -0.39629266 0.090577766 28 25
1.2320452 -0.56633711 0.061606579 52 24
1.2768027 -0.39681998 0.030232059 52 23
1.2287104 -0.56505764 0 56 22
1.2838274 -0.39948034 -0.030406138 50 21
1.2341143 -0.56781459 -0.061723035 90 20
1.2859399 -0.40013984 -0.090813935 52 19
1.2077097 -0.55637413 -0.11624055 13 18
1.2973974 -0.40368849 -0.15153648 58 17
2.3761704 -1.0980215 -0.35883743 77 16
1.2915776 -0.40141416 -0.2297252 38 15
1.8133094 -0.84037524 -0.56196117 13 13
1.4111048 -0.43807182 -0.33041018 52 14
1.9941897 -0.92695808 -0.74857354 9 12
1.4354095 -0.44209504 -0.59332711 12 11
2.2305875 -1.0460414 -1.2897753 9 9
1.4286357 -0.43842942 -0.68555033 11 10
2.0117338 -0.94737792 -1.3229444 20 8
1.4861124 -0.44904146 -1.0271062 13 7
1.5895473 -0.75398946 -1.3131789 16 6
1.4761474 -0.44002715 -1.2744796 28 5
1.2765485 -0.61164373 -1.3198264 12 4
1.2392676 -0.36396384 -1.3336436 1 3
nan nan nan 0 2
nan nan nan 0 1
nan nan nan 0 0
2.4367039 -0.75784266 0.67158824 60 31
2.359216 -1.0976499 0.59409028 71 30
1.2632149 -0.39532211 0.24863763 48 29
2.3588138 -1.0964807 0.40141228 71 28
1.25975 -0.39542598 0.15692341 12 27
2.3653245 -1.0990252 0.24596485 74 26
1.2776453 -0.40148991 0.09075129 54 25
1.2323244 -0.57168889 0.061723035 51 24
1.2801807 -0.40276593 0.030348113 52 23
1.2289963 -0.57039928 0 48 22
1.277725 -0.4022432 -0.030290084 20 21
1.2275981 -0.57000816 -0.061490119 90 20
1.2821552 -0.40388122 -0.09064129 51 19
1.2126269 -0.56353533 -0.11691117 12 18
1.2983506 -0.40895674 -0.15182078 52 17
2.3725162 -1.1058953 -0.35883743 77 16
1.2948698 -0.40738985 -0.23058398 38 15
1.810365 -0.84669977 -0.56196117 13 13
1.4096442 -0.44274876 -0.33041018 50 14
1.9866656 -0.93190223 -0.74693906 9 12
1.4361495 -0.44753829 -0.59426439 11 11
nan nan nan 0 9
1.4379071 -0.44675171 -0.69086468 11 10
2.0105126 -0.95496392 -1.3242376 16 8
1.4805741 -0.45302176 -1.0243037 13 7
1.5870382 -0.75925648 -1.3131789 17 6
1.4710246 -0.44382453 -1.2712489 31 5
1.2761387 -0.61666286 -1.3215538 12 4
1.2380537 -0.36807141 -1.3336436 1 3
nan nan nan 0 2
nan nan nan 0 1
nan nan nan 0 0
2.4318721 -0.76519614 0.67094368 65 31
2.3577671 -1.106504 0.5946539 71 30
1.2595553 -0.39877239 0.24816403 48 29
2.3574004 -1.1053473 0.40179864 73 28
1.2607985 -0.40034792 0.15722635 43 27
2.3614738 -1.107275 0.24596485 74 26
1.2667943 -0.40271977 0.090057209 55 25
nan nan nan 0 24
1.2740721 -0.40550166 0.030232059 52 23
1.2248356 -0.57340801 0 48 22
1.2834613 -0.40896428 -0.030464167 12 21
1.2279609 -0.57513887 -0.061606579 82 20
1.2855642 -0.40963653 -0.090986587 52 19
1.2286736 -0.57625246 -0.11869949 11 18
1.2969874 -0.41325995 -0.15182078 56 17
2.373121 -1.1162819 -0.3595255 79 16
nan nan nan 0 15
1.8097197 -0.85372633 -0.56264895 13 13
1.4127374 -0.44913548 -0.33152643 48 14
1.998507 -0.94557399 -0.75265968 13 12
1.4301556 -0.45116177 -0.59238976 11 11
nan nan nan 0 9
1.4277782 -0.44881839 -0.6866132 9 10
1.9955966 -0.95641518 -1.3164784 12 8
1.4830215 -0.45914662 -1.0271062 13 7
1.5843782 -0.76479167 -1.3131789 17 6
1.4712923 -0.44951072 -1.2728642 46 5
1.2739784 -0.62111366 -1.3215538 12 4
1.2367616 -0.37239078 -1.3336436 1 3
nan nan nan 0 2
nan nan nan 0 1
nan nan nan 0 0
2.4314888 -0.77441108 0.67158824 63 31
2.3560903 -1.1157717 0.59521753 71 30
1.2558168 -0.40242195 0.24769044 52 29
2.3579915 -1.1156862 0.40257135 73 28
1.2664852 -0.40701124 0.15813518 58 27
2.359843 -1.1165776 0.24620272 74 26
1.2725073 -0.40941772 0.090577766 54 25
nan nan nan 0 24
1.2725773 -0.41016865 0.030232059 40 23
1.2228266 -0.57767999 0 47 22
1.2748858 -0.41115355 -0.030290084 11 21
1.2281005 -0.58070683 -0.061723035 74 20
1.2841265 -0.41412148 -0.090986587 51 19
nan nan nan 0 18
1.3001943 -0.4195278 -0.15238939 54 17
2.3736823 -1.126686 -0.36021358 77 16
nan nan nan 0 15
1.8044097 -0.85931778 -0.56196117 13 13
1.4134821 -0.45480666 -0.33208454 46 14
1.990766 -0.9508515 -0.7510252 13 12
1.4373281 -0.45920676 -0.59613901 11 11
nan nan nan 0 9
1.4304384 -0.45541388 -0.68873894 9 10
1.9786031 -0.95718586 -1.307426 9 8
1.4833052 -0.46519509 -1.0285074 12 7
1.5815644 -0.77059352 -1.3131789 17 6
1.4605156 -0.45209652 -1.2647877 58 5
1.2684535 -0.62417692 -1.3180988 12 4
1.2288239 -0.3749356 -1.3263658 1 3
nan nan nan 0 2
nan nan nan 0 1
nan nan nan 0 0
2.4309335 -0.78405696 0.67223269 62 31
2.3497887 -1.1233474 0.5946539 71 30
1.2566696 -0.40777531 0.24816403 58 29
2.3516583 -1.1232545 0.40218499 73 28
1.2626238 -0.41088682 0.15783224 59 27
2.362469 -1.128443 0.24691637 74 26
1.26388 -0.41177437 0.090057209 54 25
2.3615355 -1.128003 0.12041815 75 24
1.2758927 -0.41614962 0.030348113 13 23
1.2252107 -0.58431762 0 47 22
1.2828792 -0.41890949 -0.030522192 11 21
1.226066 -0.58499014 -0.061723035 65 20
1.2826 -0.41882527 -0.090986587 59 19
nan nan nan 0 18
1.2963595 -0.42329708 -0.15210509 60 17
2.371769 -1.1364505 -0.36055765 77 16
1.4217316 -0.46345496 -0.25463 35 15
1.8035642 -0.8666544 -0.56264895 15 13
1.4280336 -0.4652414 -0.33599144 42 14
2.0001988 -0.96396244 -0.75592858 8 12
1.4290971 -0.46209338 -0.59332711 11 11
nan nan nan 0 9
1.42884 -0.46040425 -0.68873894 9 10
1.9445027 -0.94903713 -1.2867348 9 8
1.4796979 -0.46974704 -1.0271062 12 7
1.5806484 -0.77698946 -1.3146935 17 6
1.4534632 -0.45549062 -1.2599418 36 5
1.2695012 -0.6302141 -1.3215538 12 4
1.229147 -0.37972483 -1.3281852 1 3
nan nan nan 0 2
nan nan nan 0 1
nan nan nan 0 0
2.4304788 -0.79328495 0.67287719 63 31
2.3502386 -1.1336628 0.59578121 71 30
1.2599058 -0.41368216 0.24911122 90 29
2.3499475 -1.1325309 0.40257135 73 28
1.2611817 -0.4152917 0.15783224 56 27
2.3607564 -1.137765 0.24715422 74 26
1.269545 -0.418513 0.090577766 50 25
2.359832 -1.1373254 0.12053461 75 24
1.2744324 -0.4206008 0.030348113 11 23
1.2209126 -0.58750319 0 47 22
1.2742856 -0.4210456 -0.030348113 11 21
1.2240165 -0.5892663 -0.061723035 63 20
1.2858692 -0.42485613 -0.091331884 79 19
nan nan nan 0 18
1.2901543 -0.42626971 -0.15153648 65 17
2.3700161 -1.1458023 -0.36090168 78 16
1.4481872 -0.47762614 -0.2597827 44 15
1.8026897 -0.87399578 -0.56333685 15 13
1.4217695 -0.46870509 -0.33487517 35 14
nan nan nan 0 12
1.4495149 -0.47424865 -0.60270035 8 11
nan nan nan 0 9
1.4336817 -0.46748221 -0.69192755 8 10
1.9392598 -0.95487159 -1.2854416 8 8
1.491855 -0.47931796 -1.0369147 11 7
1.5708042 -0.77895731 -1.308635 16 6
1.4573239 -0.46228176 -1.2647877 44 5
1.2656794 -0.63382941 -1.3198264 12 4
1.2245389 -0.38299733 -1.3245465 1 3
nan nan nan 0 2
nan nan nan 0 1
nan nan nan 0 0
2.4301295 -0.80209523 0.67352176 63 31
2.3486557 -1.1425177 0.59634489 71 30
1.258527 -0.41785789 0.24911122 90 29
2.35062 -1.1424805 0.40334404 71 28
1.2597977 -0.41947168 0.15783224 56 27
2.3614452 -1.1477669 0.24762999 75 26
1.2657828 -0.42193639 0.09040425 31 25
2.3582928 -1.1462382 0.12065107 77 24
1.2635418 -0.42167729 0.030116005 11 23
1.2189575 -0.59154868 0 50 22
1.2799981 -0.42763197 -0.030522192 12 21
1.2198111 -0.59222782 -0.061606579 62 20
1.2844533 -0.42911789 -0.091331884 90 19
2.3572104 -1.1482494 -0.23225756 73 18
1.291091 -0.43132845 -0.15182078 60 17
2.3662035 -1.1536552 -0.36090168 78 16
1.4465953 -0.48242587 -0.2597827 52 15
1.8019395 -0.88102704 -0.56402469 15 13
1.4271467 -0.4757176 -0.33654955 55 14
nan nan nan 0 12
1.4523373 -0.48050129 -0.60457498 8 11
nan nan nan 0 9
1.4471753 -0.47716808 -0.69936764 8 10
1.9054388 -0.94603872 -1.2647504 4 8
1.5138997 -0.49189875 -1.0537297 9 7
1.5717679 -0.78594631 -1.3116642 16 6
1.4503291 -0.46537346 -1.2599418 46 5
1.2635705 -0.63802308 -1.3198264 12 4
1.2265338 -0.38808247 -1.3281852 1 3
nan nan nan 0 2
nan nan nan 0 1
nan nan nan 0 0
2.4296067 -0.81133592 0.67416626 62 31
2.3490245 -1.152859 0.59747213 70 30
1.2547324 -0.42147118 0.24863763 90 29
2.3510511 -1.1528574 0.40411672 71 28
1.2583258 -0.42386657 0.15783224 56 27
2.355191 -1.1549053 0.2473921 75 26
1.2737609 -0.42952251 0.091098331 12 25
2.3587601 -1.156666 0.12088399 75 24
1.2596183 -0.42551002 0.030057976 11 23
1.2236159 -0.59910899 0 52 22
1.2713901 -0.42970958 -0.030348113 39 21
1.226595 -0.60110492 -0.062072415 60 20
1.2829475 -0.43359885 -0.091331884 98 19
2.3576555 -1.1586709 -0.23270464 81 18
1.2895013 -0.43605766 -0.15182078 65 17
2.3621621 -1.1619077 -0.36090168 79 16
1.4424827 -0.48694077 -0.25935331 52 15
1.7965442 -0.88655955 -0.56333685 16 13
1.4300984 -0.48224613 -0.3376658 60 14
1.886289 -0.93339771 -0.7158848 32 12
1.4637598 -0.49021509 -0.61019892 11 11
nan nan nan 0 9
1.4475642 -0.4831818 -0.70043045 8 10
1.8790175 -0.94148803 -1.2492321 3 8
1.5101186 -0.49680054 -1.0523283 11 7
1.5688766 -0.79170185 -1.3116642 17 6
1.4431663 -0.46892762 -1.2550958 42 5
1.2596149 -0.64182645 -1.3180988 12 4
1.2349073 -0.39569104 -1.3391018 1 3
nan nan nan 0 2
nan nan nan 0 1
nan nan nan 0 0
2.4243276 -0.81946421 0.67352176 63 31
2.3447833 -1.1614608 0.59747213 71 30
1.2508537 -0.42528141 0.24816403 90 29
2.3445971 -1.1603693 0.40373036 71 28
1.2591141 -0.4292722 0.15813518 56 27
2.3531713 -1.1646355 0.24762999 75 26
1.2674546 -0.43258575 0.09075129 11 25
2.3545048 -1.1653035 0.12088399 74 24
1.2675916 -0.43311951 0.030290084 11 23
1.2191722 -0.60247844 0 47 22
1.2674402 -0.43356195 -0.030290084 56 21
1.2244893 -0.60538292 -0.062072415 59 20
1.2813499 -0.43829817 -0.091331884 99 19
2.3556228 -1.1684127 -0.23292819 81 18
1.2879714 -0.44055617 -0.15182078 63 17
2.3623216 -1.1727636 -0.36158979 78 16
1.4431063 -0.49276504 -0.2597827 50 15
1.7998899 -0.89604598 -0.56540036 15 13
1.4421667 -0.49218434 -0.34101453 52 14
nan nan nan 0 12
nan nan nan 0 11
1.8969518 -0.95470971 -1.1092068 4 9
1.4565943 -0.49183303 -0.70574486 7 10
1.8833531 -0.95191067 -1.2544048 3 8
1.5260653 -0.50792271 -1.0649395 11 7
1.5661037 -0.79717338 -1.3116642 16 6
1.4469619 -0.47573975 -1.2599418 74 5
1.2557614 -0.64539039 -1.3163713 12 4
nan nan nan 0 3
nan nan nan 0 2
nan nan nan 0 1
nan nan nan 0 0
2.4214525 -0.82792175 0.67352176 63 31
2.3450704 -1.1718198 0.59859949 71 30
1.2540071 -0.4312329 0.24911122 89 29
2.34495 -1.1707567 0.40450305 71 28
1.2576079 -0.43366471 0.15813518 54 27
2.3535428 -1.1750696 0.24810573 74 26
1.2753726 -0.44024527 0.091445372 11 25
2.3526559 -1.1746325 0.12100044 75 24
1.2660719 -0.4375416 0.030290084 27 23
1.2170619 -0.60673052 0 42 22
1.2682825 -0.43879637 -0.030348113 59 21
1.2223688 -0.60965347 -0.062072415 52 20
1.2798121 -0.44276822 -0.091331884 100 19
2.3537555 -1.1777442 -0.23315172 81 18
1.2864257 -0.44504935 -0.15182078 65 17
2.3582132 -1.1810026 -0.36158979 77 16
1.4460359 -0.49939984 -0.26064149 50 15
1.7946045 -0.9012422 -0.56471252 16 13
1.438135 -0.49642411 -0.34045643 48 14
2.3521564 -1.1850815 -0.89894205 77 12
nan nan nan 0 11
2.2064683 -1.1205983 -1.295638 12 9
nan nan nan 0 10
1.9714583 -1.0052307 -1.3164784 12 8
nan nan nan 0 7
1.5633115 -0.80263525 -1.3116642 17 6
1.4452924 -0.48078772 -1.2599418 59 5
1.2551036 -0.65060449 -1.3180988 12 4
nan nan nan 0 3
nan nan nan 0 2
nan nan nan 0 1
nan nan nan 0 0
2.4253986 -0.83873057 0.67545527 65 31
2.3453138 -1.1821947 0.59972674 71 30
1.2501743 -0.43480557 0.24863763 89 29
2.3430543 -1.1800478 0.4048894 71 28
1.2537419 -0.43723908 0.15783224 48 27
2.3451896 -1.1806259 0.24762999 74 26
1.2620476 -0.44060588 0.090577766 11 25
2.3552301 -1.1862134 0.12134983 75 24
1.2692586 -0.4435989 0.030406138 52 23
nan nan nan 0 22
1.2644597 -0.44217902 -0.030290084 59 21
1.2202332 -0.61391658 -0.062072415 48 20
1.2782587 -0.44723293 -0.091331884 101 19
2.3520594 -1.1866665 -0.23337525 79 18
1.2801725 -0.44790509 -0.15125217 60 17
2.3587029 -1.1910522 -0.36227787 79 16
1.439631 -0.5028277 -0.2597827 50 15
1.7957332 -0.90967816 -0.56608814 15 13
1.4387832 -0.50198936 -0.34101453 47 14
2.3501108 -1.1943572 -0.89975929 77 12
nan nan nan 0 11
2.2223835 -1.1379914 -1.307363 12 9
nan nan nan 0 10
1.9509982 -1.0029399 -1.3048397 12 8
1.8793815 -0.63943732 -1.3199645 13 7
1.5606412 -0.80781496 -1.3116642 17 6
1.4454997 -0.48618263 -1.2615571 55 5
1.2513392 -0.65392303 -1.3163713 12 4
nan nan nan 0 3
nan nan nan 0 2
nan nan nan 0 1
nan nan nan 0 0
2.4203229 -0.84597421 0.67481077 63 31
2.3413804 -1.1899655 0.59972674 70 30
1.2626296 -0.44380718 0.25147921 90 29
2.339128 -1.1878111 0.4048894 73 28
1.249943 -0.44057366 0.15752929 32 27
2.3477085 -1.192191 0.24834362 74 26
1.2582263 -0.44396308 0.09040425 19 25
2.3490577 -1.1928843 0.12123336 77 24
1.2606285 -0.44554117 0.030232059 52 23
nan nan nan 0 22
1.2629086 -0.44659013 -0.030290084 59 21
1.2203078 -0.61930597 -0.062188867 47 20
1.2791214 -0.4522965 -0.091504529 101 19
2.350121 -1.1960008 -0.2335988 79 18
1.2809445 -0.45319521 -0.15153648 62 17
2.3589423 -1.2015297 -0.36296597 78 16
1.4355434 -0.50703353 -0.25935331 51 15
1.7968253 -0.91813302 -0.56746387 15 13
1.4301239 -0.50458753 -0.33934018 48 14
2.3480287 -1.2036328 -0.90057647 77 12
2.4196911 -0.84630519 -1.0226222 63 11
2.2262409 -1.1498023 -1.3120532 13 9
2.4089477 -0.83977568 -1.18191 50 10
1.9776794 -1.0258801 -1.3255309 13 8
1.8830138 -0.64800656 -1.3241682 13 7
1.5541465 -0.81168294 -1.308635 16 6
1.4419007 -0.49086592 -1.2599418 59 5
1.2537248 -0.66104269 -1.3215538 12 4
nan nan nan 0 3
nan nan nan 0 2
nan nan nan 0 1
nan nan nan 0 0
2.421762 -0.85644567 0.67609984 65 31
2.3370032 -1.1985391 0.59972674 71 30
nan nan nan 0 29
2.3391535 -1.1986331 0.40566212 73 28
1.2529978 -0.44681031 0.15813518 13 27
2.3521783 -1.2053349 0.24929512 75 26
1.2659918 -0.45190826 0.091098331 50 25
2.3468914 -1.2026269 0.12134983 75 24
1.2614207 -0.45077562 0.030290084 52 23
2.338078 -1.1986169 0 74 22
1.2589084 -0.45037833 -0.030232059 60 21
1.2203598 -0.62470341 -0.062305331 46 20
1.2774551 -0.45698166 -0.091504529 102 19
2.3457217 -1.2046063 -0.2335988 79 18
1.2770144 -0.45683137 -0.15125217 66 17
2.3523211 -1.2090338 -0.3626219 79 16
1.4384062 -0.51369047 -0.26021209 50 15
1.7936094 -0.9243995 -0.56746387 16 13
1.4305613 -0.51064122 -0.33989829 47 14
2.345911 -1.2129087 -0.90139371 77 12
2.4232795 -0.85705817 -1.0254341 63 11
2.2259259 -1.1599988 -1.3143983 13 9
2.4273503 -0.85568064 -1.1925386 69 10
1.9702969 -1.0307895 -1.3229444 13 8
1.8748717 -0.65254217 -1.3199645 13 7
1.5513037 -0.81710297 -1.308635 16 6
1.4401785 -0.49589613 -1.2599418 58 5
1.2498158 -0.66456348 -1.3198264 11 4
nan nan nan 0 3
nan nan nan 0 2
nan nan nan 0 1
nan nan nan 0 0
2.4164824 -0.86408287 0.67545527 65 31
2.3392925 -1.2100523 0.60141778 74 30
2.3966749 -0.85935491 0.48448816 63 29
2.3393416 -1.2090627 0.40643477 73 28
1.2420863 -0.44783199 0.15692341 39 27
2.3435371 -1.2112494 0.24881938 74 26
1.2550172 -0.45295531 0.09040425 54 25
2.3493316 -1.2142572 0.1216992 75 24
1.2598395 -0.45517603 0.030290084 52 23
2.340539 -1.2102214 0 79 22
1.2596805 -0.45561582 -0.030290084 60 21
1.2203887 -0.63010865 -0.062421788 51 20
1.2735053 -0.46059406 -0.091331884 104 19
2.3437128 -1.2139342 -0.23382235 79 18
1.2824237 -0.46380785 -0.15210509 59 17
2.3502839 -1.218379 -0.36296597 79 16
1.4366044 -0.51870829 -0.26021209 48 15
1.7946343 -0.93287659 -0.56883949 17 13
1.4264766 -0.5148083 -0.33934018 42 14
2.3458509 -1.2232785 -0.90302819 77 12
2.4246395 -0.86706823 -1.0273088 75 11
2.2257702 -1.16982 -1.3167433 13 9
2.426481 -0.86490607 -1.1936016 65 10
1.9723605 -1.0406624 -1.3268241 13 8
1.8725823 -0.65908277 -1.3199645 13 7
1.548442 -0.82251304 -1.308635 16 6
1.4420449 -0.50216842 -1.2631724 52 5
1.2490792 -0.66977918 -1.3215538 11 4
nan nan nan 0 3
nan nan nan 0 2
nan nan nan 0 1
nan nan nan 0 0
2.415724 -0.87333179 0.67609984 63 31
2.3350546 -1.2182105 0.60141778 71 30
2.4167464 -0.87605894 0.48922414 69 29
2.3329177 -1.2160777 0.40604848 73 28
1.249848 -0.45554695 0.15813518 54 27
2.3417132 -1.2201657 0.24905723 75 26
1.2581173 -0.45903441 0.09075129 55 25
2.3450787 -1.2224506 0.1216992 75 24
1.2582428 -0.45957094 0.030290084 52 23
2.3407316 -1.2206998 0 78 22
1.2605119 -0.46064416 -0.030348113 60 21
1.2137557 -0.63205081 -0.062188867 59 20
1.2695458 -0.46418443 -0.091159232 107 19
2.3418801 -1.2228538 -0.23404586 79 18
1.2784625 -0.46743283 -0.15182078 62 17
2.3506181 -1.2284636 -0.36365405 79 16
1.4394147 -0.52540129 -0.26107088 44 15
1.8041319 -0.94584554 -0.57296652 20 13
1.4407973 -0.52535331 -0.34324706 31 14
2.3415666 -1.2314596 -0.90302819 77 12
2.4239311 -0.87588924 -1.028246 74 11
2.2160285 -1.1740876 -1.3132257 13 9
2.4234471 -0.87337077 -1.1936016 65 10
1.9632351 -1.0441769 -1.3229444 13 8
1.8741732 -0.66699809 -1.3227669 13 7
1.5474581 -0.82858479 -1.3101497 19 6
1.4385706 -0.50631762 -1.2615571 52 5
1.2500277 -0.67564207 -1.3250089 11 4
nan nan nan 0 3
nan nan nan 0 2
nan nan nan 0 1
nan nan nan 0 0
2.4196236 -0.88381743 0.67803335 66 31
2.3331566 -1.2270825 0.60198134 74 30
2.4138279 -0.88406825 0.48922414 69 29
2.3332431 -1.2261088 0.40682113 73 28
1.2460001 -0.45883584 0.15783224 58 27
2.3418441 -1.2306516 0.249533 74 26
1.2519048 -0.46148735 0.09040425 54 25
2.341012 -1.2302203 0.1216992 75 24
1.2543657 -0.46287996 0.030232059 52 23
2.3388827 -1.2296202 0 78 22
1.2588962 -0.46504134 -0.030348113 63 21
1.2160716 -0.63840085 -0.062421788 56 20
1.2726817 -0.47011173 -0.091504529 109 19
2.3353953 -1.2298591 -0.23382235 79 18
1.2769055 -0.47166976 -0.15182078 85 17
2.3485053 -1.2378179 -0.36399809 81 16
1.4584737 -0.53780735 -0.26493543 31 15
1.8200994 -0.96195179 -0.57915705 26 13
nan nan nan 0 14
2.3416426 -1.2414346 -0.90466261 77 12
2.4186811 -0.88355201 -1.0273088 75 11
2.2119167 -1.181816 -1.3132257 13 9
2.4205377 -0.88140237 -1.1936016 69 10
1.9652312 -1.0540636 -1.3268241 13 8
1.868053 -0.67181367 -1.3199645 13 7
1.5445564 -0.83398139 -1.3101497 16 6
1.4385934 -0.51197231 -1.2631724 48 5
1.2476616 -0.68000138 -1.3250089 11 4
nan nan nan 0 3
nan nan nan 0 2
nan nan nan 0 1
nan nan nan 0 0
2.4119904 -0.89058918 0.67674434 65 31
2.3331606 -1.2375056 0.6031087 74 30
2.4130301 -0.89333874 0.48969772 70 29
2.3311305 -1.2354044 0.40720749 73 28
1.2467182 -0.46404377 0.15813518 58 27
2.337534 -1.2388186 0.249533 74 26
1.2526249 -0.46672097 0.090577766 54 25
2.3411145 -1.2407269 0.1219321 75 24
1.2573471 -0.46921343 0.030348113 51 23
2.3345761 -1.237777 0 78 22
1.254922 -0.4685629 -0.030290084 60 21
1.2203385 -0.64637101 -0.062771164 51 20
1.2733709 -0.47541943 -0.091677189 111 19
2.3376825 -1.2415129 -0.23449296 81 18
1.2751682 -0.47634667 -0.15182078 90 17
2.3463557 -1.2471721 -0.36434212 79 16
1.4634196 -0.54571986 -0.26622358 22 15
1.8356379 -0.97881514 -0.58534759 30 13
nan nan nan 0 14
2.3391593 -1.2511249 -0.90547985 77 12
2.4176013 -0.89321202 -1.028246 75 11
2.2116635 -1.191628 -1.3155707 13 9
2.4172909 -0.89026827 -1.1936016 69 10
1.9557128 -1.0581987 -1.3229444 13 8
1.8655779 -0.67865586 -1.3199645 13 7
1.5414894 -0.8396368 -1.3101497 16 6
1.4367073 -0.51724166 -1.2631724 46 5
1.2451608 -0.68456972 -1.3250089 11 4
nan nan nan 0 3
nan nan nan 0 2
nan nan nan 0 1
nan nan nan 0 0
2.40871 -0.89942354 0.67674434 65 31
2.3329022 -1.2483506 0.60423601 74 30
2.4120393 -0.9030354 0.49017131 69 29
2.3287642 -1.2451065 0.40759385 73 28
1.2519814 -0.47121972 0.159044 67 27
2.3373654 -1.2497283 0.25000876 74 26
1.2509059 -0.47130892 0.090577766 54 25
2.3409538 -1.2516578 0.12216503 75 24
1.2533613 -0.47272179 0.030290084 51 23
2.3388376 -1.2510494 0 78 22
1.2555363 -0.47403783 -0.030348113 59 21
nan nan nan 0 20
1.2716199 -0.48008341 -0.091677189 112 19
2.33531 -1.2512503 -0.2347165 79 18
1.2734977 -0.48079494 -0.15182078 86 17
2.3417687 -1.2557636 -0.36434212 81 16
1.4960953 -0.56379867 -0.27266449 20 15
1.8512506 -0.99548203 -0.59153807 32 13
nan nan nan 0 14
2.3389349 -1.2615292 -0.90711421 77 12
2.4166408 -0.90245408 -1.0291834 75 11
2.2034032 -1.1976136 -1.3132257 13 9
2.4162898 -0.89948797 -1.1946645 70 10
1.9538841 -1.0660459 -1.3242376 13 8
1.8651416 -0.68587559 -1.3213656 13 7
1.5437747 -0.84789252 -1.3146935 17 6
1.4348929 -0.52225351 -1.2631724 44 5
1.2443426 -0.68979108 -1.3267365 11 4
nan nan nan 0 3
nan nan nan 0 2
nan nan nan 0 1
nan nan nan 0 0
2.4078166 -0.90867686 0.67738891 67 31
2.330673 -1.2576448 0.60479963 73 30
2.4111693 -0.91231596 0.4906449 69 29
2.3287499 -1.2555758 0.4083665 73 28
1.2410446 -0.47207513 0.15783224 81 27
2.3375876 -1.2598375 0.2504845 74 26
1.249253 -0.47567251 0.090577766 52 25
2.3387678 -1.2610089 0.12228149 75 24
1.2540408 -0.47797987 0.030348113 51 23
2.3300581 -1.2568284 0 78 22
1.2562941 -0.479085 -0.030406138 58 21
nan nan nan 0 20
1.2652729 -0.48274961 -0.091331884 120 19
2.333338 -1.2601727 -0.23494005 79 18
1.2671672 -0.48347494 -0.15125217 78 17
2.3397686 -1.2647014 -0.36468616 79 16
1.4872093 -0.56639868 -0.27137631 20 15
1.875216 -1.0168616 -0.6004799 36 13
nan nan nan 0 14
2.3345168 -1.2696859 -0.90711421 77 12
2.4158041 -0.91127884 -1.0301208 75 11
2.1994195 -1.2049139 -1.3132257 13 9
2.4152541 -0.90871155 -1.1957273 71 10
1.9503382 -1.0725193 -1.3242376 13 8
1.8607947 -0.69166338 -1.3199645 13 7
1.5357385 -0.85010988 -1.3101497 16 6
1.4313612 -0.52635378 -1.2615571 42 5
1.2467762 -0.69656688 -1.3319191 11 4
nan nan nan 0 3
nan nan nan 0 2
nan nan nan 0 1
nan nan nan 0 0
2.4115636 -0.91923082 0.67932242 65 31
2.3286283 -1.2665322 0.60536331 71 30
2.4058366 -0.91943258 0.49017131 71 29
2.3224041 -1.2621101 0.40798014 73 28
1.2441086 -0.47795936 0.15843812 74 27
2.3353615 -1.2691796 0.25072238 73 26
1.2499983 -0.48070353 0.09075129 54 25
2.3345733 -1.2687576 0.12228149 75 24
1.2547829 -0.48302943 0.030406138 42 23
2.3302679 -1.2669401 0 78 22
1.2522804 -0.48257294 -0.030348113 58 21
2.3165879 -1.260012 -0.12134983 74 20
1.2706515 -0.48962039 -0.091849834 129 19
2.3311107 -1.2695025 -0.23516357 79 18
1.2678763 -0.48856327 -0.15153648 83 17
2.3418601 -1.2764218 -0.36571831 79 16
1.487623 -0.57220799 -0.2718057 17 15
1.8886961 -1.0323139 -0.6059826 40 13
2.0732296 -0.79601955 -0.50063843 11 14
2.3323646 -1.278558 -0.90793145 77 12
2.4126084 -0.91970605 -1.0301208 78 11
2.1932685 -1.2115144 -1.3120532 13 9
2.4143431 -0.91751754 -1.1967901 71 10
1.9428426 -1.0772415 -1.3216512 13 8
1.8604299 -0.69855529 -1.3213656 13 7
1.5327616 -0.85546541 -1.3101497 17 6
1.4330947 -0.53266966 -1.2647877 39 5
1.2490556 -0.70358425 -1.3371016 11 4
nan nan nan 0 3
nan nan nan 0 2
nan nan nan 0 1
nan nan nan 0 0
2.4038303 -0.92591101 0.67803335 66 31
2.324193 -1.274653 0.60536331 71 30
2.4049034 -0.928707 0.4906449 70 29
2.3244796 -1.2737755 0.40913922 73 28
1.2447476 -0.48319295 0.15874106 77 27
2.3309169 -1.2773238 0.25072238 74 26
1.250639 -0.48596293 0.090924807 52 25
2.3323193 -1.278101 0.12239795 77 24
1.2460117 -0.48491859 0.030232059 36 23
2.3302138 -1.2774739 0 77 22
1.2552496 -0.48874649 -0.030464167 56 21
2.3316495 -1.2793219 -0.12239795 78 20
1.2689345 -0.4940528 -0.091849834 133 19
2.3288465 -1.2788323 -0.23538712 81 18
1.2660772 -0.49320701 -0.15153648 73 17
2.3352208 -1.2833941 -0.36537427 81 16
1.4901093 -0.57943451 -0.27266449 13 15
1.9269716 -1.0624831 -0.61973935 43 13
1.9954321 -0.77424902 -0.48222023 8 14
2.3317962 -1.2893882 -0.90956593 77 12
2.4157116 -0.93103641 -1.0329328 75 11
2.1890264 -1.2191631 -1.3120532 13 9
2.4067383 -0.92474157 -1.1946645 71 10
1.9426137 -1.086448 -1.3242376 13 8
1.857857 -0.70536935 -1.3213656 13 7
1.5278841 -0.86009932 -1.308635 16 6
1.4311327 -0.53791869 -1.2647877 32 5
1.2433293 -0.7063663 -1.3336465 11 4
nan nan nan 0 3
nan nan nan 0 2
nan nan nan 0 1
nan nan nan 0 0
2.398169 -0.93384111 0.67738891 67 31
2.3237662 -1.2855246 0.60649061 74 30
2.4037709 -0.93840569 0.49111852 69 29
2.3197954 -1.2822865 0.40913922 73 28
1.2406566 -0.48684973 0.15843812 67 27
2.3327506 -1.2894758 0.25143602 74 26
1.2488495 -0.49054345 0.090924807 51 25
2.3319883 -1.2890605 0.12263086 77 24
1.2512943 -0.49199602 0.030406138 51 23
2.3255157 -1.286006 0 79 22
1.2557771 -0.49425501 -0.030522192 58 21
2.3271697 -1.2874531 -0.12239795 78 20
1.2671152 -0.49870038 -0.091849834 136 19
2.3284981 -1.289776 -0.23583421 81 18
1.2689735 -0.49943438 -0.15210509 77 17
2.3326659 -1.2931468 -0.36571831 81 16
1.4903713 -0.58552951 -0.27309388 12 15
1.9295496 -1.0727131 -0.62180281 43 13
2.0130079 -0.7895422 -0.48724335 8 14
2.327281 -1.2975198 -0.90956593 75 12
2.4081259 -0.93778545 -1.0310582 74 11
2.1826189 -1.2260946 -1.3108807 13 9
2.4077158 -0.93477052 -1.1967901 71 10
1.9406719 -1.0942754 -1.3255309 13 8
1.8534496 -0.71111137 -1.3199645 13 7
1.5283293 -0.86739594 -1.3116642 17 6
1.4435265 -0.54830414 -1.2777102 24 5
1.2424225 -0.71160316 -1.3353741 11 4
nan nan nan 0 3
nan nan nan 0 2
nan nan nan 0 1
nan nan nan 0 0
2.3993919 -0.94397086 0.67867792 66 31
2.3192647 -1.2936283 0.60649061 74 30
2.4027653 -0.94768918 0.49159211 70 29
2.319618 -1.2927848 0.4099119 73 28
1.2412581 -0.49208772 0.15874106 65 27
2.3306348 -1.2984173 0.25167391 74 26
1.2494493 -0.49581546 0.091098331 43 25
2.3274744 -1.2971928 0.12263086 75 24
1.2449204 -0.49452397 0.030290084 52 23
2.3231955 -1.2953349 0 77 22
1.2541312 -0.4984166 -0.030522192 62 21
2.3248415 -1.2967868 -0.1225144 78 20
1.2653668 -0.50312036 -0.091849834 132 19
2.3242083 -1.2974904 -0.23583421 79 18
1.2649127 -0.50294733 -0.15182078 90 17
2.3326864 -1.3032943 -0.36640638 79 16
1.4928995 -0.59253842 -0.27395266 13 15
1.9362706 -1.0853286 -0.62524199 13 13
1.9945118 -0.78995031 -0.48333651 8 14
2.3145034 -1.3009977 -0.90629709 75 12
2.4093182 -0.94745797 -1.0329328 75 11
2.163178 -1.2246088 -1.3015004 13 9
2.404438 -0.94316936 -1.1967901 71 10
1.9277375 -1.0954094 -1.3190649 13 8
1.8528874 -0.71832234 -1.3213656 13 7
1.5237194 -0.87146926 -1.3101497 17 6
1.4648765 -0.56192893 -1.2987093 20 5
1.2338022 -0.71209413 -1.328464 11 4
nan nan nan 0 3
nan nan nan 0 2
nan nan nan 0 1
nan nan nan 0 0
2.3984942 -0.9528119 0.67932242 62 31
2.3149624 -1.3013121 0.60649061 71 30
2.4018908 -0.95655781 0.49206567 70 29
2.3217759 -1.3041041 0.41107091 71 28
1.237314 -0.49528328 0.15843812 70 27
2.3260884 -1.3065449 0.25167391 74 26
1.250115 -0.50087941 0.091271847 48 25
2.3275127 -1.3073535 0.12286378 75 24
1.2455951 -0.4995757 0.030348113 52 23
2.3210654 -1.3042583 0 77 22
1.2500627 -0.50186437 -0.030464167 90 21
2.3270562 -1.3081659 -0.12286378 78 20
1.2613753 -0.50638878 -0.091677189 121 19
2.3218338 -1.3068185 -0.23605773 79 18
1.2632378 -0.50713915 -0.15182078 90 17
2.3281229 -1.3114289 -0.36640638 79 16
1.4886386 -0.59657311 -0.27352327 26 15
1.9619417 -1.1083233 -0.63487166 12 13
1.9872149 -0.7951023 -0.48222023 8 14
2.3163404 -1.3121647 -0.90874869 12 12
2.4038417 -0.9550088 -1.0319955 78 11
2.1569736 -1.2310562 -1.300328 11 9
2.4012973 -0.95113754 -1.1967901 71 10
1.9313233 -1.1063939 -1.3242376 13 8
1.8504951 -0.72446281 -1.3213656 13 7
1.5189463 -0.87578672 -1.308635 16 6
1.4700276 -0.56978393 -1.3051705 20 5
1.2297487 -0.7154848 -1.3267365 9 4
nan nan nan 0 3
nan nan nan 0 2
nan nan nan 0 1
nan nan nan 0 0
2.3996389 -0.96297324 0.68061143 66 31
2.3146417 -1.3117902 0.60761791 71 30
2.4008152 -0.96585017 0.49253929 70 29
2.3172097 -1.3122004 0.41107091 73 28
1.2424846 -0.50237727 0.15934694 67 27
2.3258424 -1.3171128 0.25214964 74 26
1.2460455 -0.50430864 0.091098331 51 25
2.3251066 -1.3167024 0.12298024 77 24
1.2437557 -0.50413769 0.030348113 52 23
2.3186727 -1.3135866 0 77 22
1.2506211 -0.50715989 -0.030522192 95 21
2.3222458 -1.3166863 -0.12286378 78 20
1.2619128 -0.51172173 -0.091849834 113 19
2.3237519 -1.3186074 -0.23672837 78 18
1.2590674 -0.51083612 -0.15153648 90 17
2.3278353 -1.3219968 -0.36709449 79 16
nan nan nan 0 15
1.9516048 -1.111931 -0.63280821 12 13
1.9753859 -0.79839212 -0.47998774 8 14
nan nan nan 0 12
2.4024765 -0.96467429 -1.0329328 78 11
2.1354485 -1.2286509 -1.2897753 8 9
2.3998966 -0.96077126 -1.1978531 73 10
1.9254036 -1.1123929 -1.3229444 13 8
1.8439752 -0.72972214 -1.3185632 13 7
1.5174441 -0.88235039 -1.3101497 17 6
1.4839301 -0.58140332 -1.3197083 15 5
1.2286749 -0.72090471 -1.328464 9 4
nan nan nan 0 3
nan nan nan 0 2
nan nan nan 0 1
nan nan nan 0 0
2.3960934 -0.97176194 0.68061143 67 31
2.3140454 -1.3226861 0.60874528 74 30
2.3972592 -0.97464311 0.49253929 69 29
2.3145285 -1.3219116 0.41145727 73 28
nan nan nan 0 27
2.3188393 -1.3243926 0.25191179 74 26
1.2488089 -0.51075208 0.091445372 50 25
2.3267679 -1.3289365 0.12332962 75 24
1.2466178 -0.51036161 0.030464167 52 23
2.3181818 -1.3245603 0 77 22
1.2510682 -0.51268381 -0.030580221 96 21
2.3198023 -1.3260252 -0.12298024 78 20
1.2623384 -0.51728505 -0.092022486 108 19
2.3232236 -1.3295927 -0.23717543 78 18
1.2618766 -0.51710331 -0.15210509 92 17
2.3229742 -1.3305199 -0.36709449 79 16
nan nan nan 0 15
1.9435457 -1.1163381 -0.63143247 9 13
1.963418 -0.80195171 -0.47775522 8 14
nan nan nan 0 12
2.4012432 -0.97392362 -1.0338701 75 11
2.1328399 -1.2375795 -1.2909478 8 9
2.3965285 -0.96914256 -1.1978531 70 10
1.9215089 -1.119107 -1.3229444 13 8
1.8414167 -0.73615438 -1.3185632 13 7
1.5126405 -0.88663363 -1.308635 16 6
1.4836669 -0.58727854 -1.3213235 13 5
1.2230436 -0.72334331 -1.3250089 9 4
nan nan nan 0 3
nan nan nan 0 2
nan nan nan 0 1
nan nan nan 0 0
2.3926866 -0.98011994 0.68061143 67 31
2.3115237 -1.3319733 0.60930884 74 30
2.3961141 -0.98393548 0.49301291 71 29
2.3099 -1.3299826 0.41145727 73 28
2.3637266 -0.97305644 0.30778801 67 27
2.3206692 -1.3362093 0.25262541 74 26
1.2447116 -0.5141601 0.091271847 54 25
2.3221149 -1.3370503 0.12332962 74 24
1.2448287 -0.51471001 0.030464167 52 23
2.3178747 -1.3351432 0 75 22
1.2515821 -0.51799929 -0.030638246 97 21
2.3194852 -1.3366122 -0.12321316 78 20
1.260525 -0.52168828 -0.092022486 105 19
2.320724 -1.3389403 -0.23739898 78 18
1.2669539 -0.524342 -0.15295802 51 17
2.3183157 -1.3386205 -0.36709449 79 16
2.384161 -0.98341149 -0.44356287 52 15
1.9604249 -1.1351804 -0.63831085 9 13
1.9493377 -0.80416715 -0.47496465 8 14
nan nan nan 0 12
2.3999748 -0.98317611 -1.0348074 75 11
2.136126 -1.2494836 -1.295638 8 9
2.3952267 -0.97835565 -1.198916 71 10
1.9157469 -1.1247222 -1.3216512 13 8
1.8388358 -0.74257767 -1.3185632 13 7
1.5078256 -0.89089417 -1.3071204 16 6
1.4816079 -0.59245396 -1.3213235 13 5
1.2174103 -0.72575158 -1.3215538 9 4
nan nan nan 0 3
nan nan nan 0 2
nan nan nan 0 1
nan nan nan 0 0
2.3892508 -0.98846596 0.68061143 66 31
2.3089652 -1.341259 0.60987252 74 30
2.3926647 -0.99229348 0.49301291 69 29
2.3073785 -1.3392793 0.41184363 73 28
2.3809469 -0.98985571 0.31051448 73 27
2.3183773 -1.3451486 0.25286329 74 26
1.2429092 -0.51850188 0.091271847 66 25
2.3195922 -1.3464032 0.12344607 75 24
1.2361002 -0.51617551 0.030290084 52 23
2.317522 -1.3457404 0 77 22
1.2544733 -0.52406543 -0.0307543 102 21
2.3169639 -1.3459567 -0.12332962 78 20
1.2586963 -0.52608514 -0.092022486 102 19
2.3227258 -1.3503884 -0.23806959 78 18
nan nan nan 0 17
2.3160031 -1.3475479 -0.3674385 79 16
2.3898113 -0.99550736 -0.44528043 70 15
nan nan nan 0 13
1.9309049 -0.804088 -0.47105774 9 14
2.3097878 -1.3519503 -0.913652 70 12
2.398844 -0.9920128 -1.0357448 75 11
2.1338718 -1.2576832 -1.2968104 11 9
2.3917968 -0.98671055 -1.198916 71 10
1.9120067 -1.1310688 -1.3216512 13 8
1.8343142 -0.74821252 -1.317162 13 7
1.5031554 -0.89486939 -1.3056058 17 6
1.4796351 -0.59736389 -1.3213235 13 5
1.2165443 -0.73071808 -1.3232814 9 4
nan nan nan 0 3
nan nan nan 0 2
nan nan nan 0 1
nan nan nan 0 0
2.3904197 -0.99824095 0.6819005 67 31
2.3066058 -1.3501407 0.6104362 74 30
2.3984222 -1.0040052 0.49490726 70 29
2.3050556 -1.3481723 0.41222998 73 28
2.3822296 -0.99966174 0.31112036 73 27
2.3158145 -1.354491 0.25310114 74 26
1.2388828 -0.52165699 0.091098331 90 25
2.3172691 -1.3553506 0.12356253 75 24
1.2389914 -0.5222047 0.030406138 51 23
2.3130467 -1.3534181 0 75 22
1.2457227 -0.52553916 -0.030580221 97 21
2.3146417 -1.3548959 -0.12344607 78 20
1.2592444 -0.53122151 -0.092195131 98 19
2.3201451 -1.3597488 -0.23829313 78 18
nan nan nan 0 17
2.3112853 -1.355624 -0.3674385 79 16
2.3933105 -1.006284 -0.44656861 79 15
nan nan nan 0 13
1.9258388 -0.80988121 -0.4704996 9 14
2.311394 -1.3632083 -0.91610372 70 12
2.3953667 -1.0003804 -1.0357448 75 11
2.1465433 -1.2752905 -1.307363 12 9
2.3906019 -0.9955045 -1.1999788 73 10
1.9098835 -1.138834 -1.3229444 13 8
1.831823 -0.75429124 -1.317162 13 7
1.5000226 -0.9001109 -1.3056058 16 6
1.4722366 -0.60037345 -1.3164777 13 5
1.2186185 -0.73777664 -1.328464 8 4
nan nan nan 0 3
nan nan nan 0 2
nan nan nan 0 1
nan nan nan 0 0
2.3891468 -1.0075153 0.68254501 69 31
2.3039753 -1.3594235 0.61099988 71 30
2.3903787 -1.010464 0.49396005 69 29
2.3003359 -1.3562102 0.41222998 73 28
2.37644 -1.0070053 0.31081742 73 27
2.3153582 -1.3650979 0.2535769 74 26
1.2370542 -0.52597833 0.091098331 89 25
2.3146744 -1.364701 0.12367899 75 24
1.237161 -0.52652645 0.030406138 52 23
2.3126125 -1.3640276 0 77 22
1.2415795 -0.52890897 -0.030522192 90 21
2.3141978 -1.365509 -0.12367899 75 20
1.2573824 -0.53561383 -0.092195131 96 19
2.3153849 -1.3678393 -0.23829313 78 18
nan nan nan 0 17
