# .PCD v0.7 - Point Cloud Data file format
VERSION 0.7
FIELDS x y z intensity ring
SIZE 4 4 4 4 2
TYPE F F F F U
COUNT 1 1 1 1 1
WIDTH 1224
HEIGHT 1
VIEWPOINT 0 0 0 1 0 0 0
POINTS 1224
DATA ascii
-1.6061205 0.67513621 -1.0319743 70 8
-0.81148875 0.20986679 -0.54367965 41 7
-0.65530539 0.27619973 -0.51497209 81 6
-0.63456559 0.16229197 -0.52497578 90 5
-0.27705941 0.11644255 -0.25394562 45 4
-0.24619357 0.063791215 -0.23288728 90 3
-0.2285413 0.096556991 -0.2518667 40 2
-0.29230541 0.073807314 -0.35000831 8 1
-0.28625199 0.12278882 -0.38922352 4 0
-1.6583439 0.44136602 0.44858482 59 31
-1.5958643 0.66186887 0.39173883 72 30
-1.6535201 0.44160944 0.3234657 70 29
-1.5975983 0.66195661 0.26503256 76 28
-1.6540742 0.44327754 0.20478809 73 27
-1.6048371 0.66498011 0.16270788 83 26
-1.6620159 0.44600898 0.11729994 74 25
-1.6010615 0.66341656 0.079191819 77 24
-1.6557014 0.4449372 0.038994133 77 23
-1.6026495 0.66440487 0 83 22
-1.6579604 0.44616118 -0.039052162 78 21
-1.6008298 0.66397536 -0.079191819 77 20
-1.6521066 0.44460112 -0.11602084 76 19
-1.6027968 0.66577196 -0.15267749 81 18
-1.6670449 0.44860455 -0.19361414 72 17
-1.6098819 0.66937834 -0.23739004 76 16
-1.658182 0.44563156 -0.29327536 63 15
-1.6070303 0.67077678 -0.48836285 61 13
-1.6505506 0.4433026 -0.38343209 63 14
-1.5926623 0.66668499 -0.58512956 59 12
-1.641768 0.43705592 -0.67299974 12 11
-1.5942223 0.67345303 -0.90049762 67 9
nan nan nan 0 10
-1.6057223 0.68157721 -1.0332675 70 8
-0.8107512 0.21269815 -0.54367965 40 7
-0.65799177 0.28005639 -0.51800138 81 6
-0.62844813 0.1630931 -0.5201298 90 5
-0.27996549 0.11885072 -0.25740069 44 4
-0.2476328 0.065065861 -0.23470671 90 3
-0.22375102 0.09544076 -0.24614246 40 2
-0.29498911 0.075547382 -0.3539857 10 1
-0.28185141 0.12202294 -0.38311005 4 0
-1.659126 0.44777799 0.44922933 59 31
-1.5935441 0.66743547 0.39173883 73 30
-1.6567092 0.44865507 0.32441291 66 29
-1.5930008 0.66657293 0.26464623 76 28
-1.6525168 0.4490487 0.20478809 73 27
-1.6049179 0.67126143 0.16294576 80 26
-1.6628565 0.45245919 0.11747347 74 25
-1.6010385 0.66996825 0.079308279 78 24
-1.6517259 0.4500604 0.038936108 78 23
-1.6003206 0.66999519 0 83 22
-1.6540594 0.45100263 -0.038994133 81 21
-1.5915959 0.66665608 -0.078842446 80 20
-1.6481378 0.44971228 -0.1158482 76 19
-1.6028754 0.67204905 -0.15290102 80 18
-1.6606748 0.45312011 -0.19304553 72 17
-1.6076534 0.67471319 -0.23739004 74 16
-1.6566164 0.45141697 -0.29327536 62 15
-1.6024653 0.67544585 -0.48767498 61 13
-1.6514239 0.44941002 -0.3839902 62 14
-1.5968505 0.67500871 -0.58758122 61 12
-1.6380712 0.4418976 -0.67206246 25 11
-1.5980699 0.6813423 -0.90401524 66 9
nan nan nan 0 10
-1.6073842 0.68858874 -1.0358539 70 8
-0.80800122 0.21500115 -0.54227841 39 7
-0.65341014 0.28065383 -0.51497209 85 6
-0.63159877 0.16613045 -0.52336043 90 5
-0.27129626 0.11614663 -0.24876307 41 4
-0.24741566 0.065886684 -0.23470671 88 3
-0.22638553 0.097494178 -0.24995862 36 2
-0.29473695 0.076525182 -0.3539857 10 1
-0.28276664 0.12354942 -0.38514787 4 0
-1.657632 0.45327741 0.44922933 58 31
-1.5913222 0.67271614 0.39173883 72 30
-1.6528441 0.45350039 0.32393929 70 29
-1.5930555 0.67281574 0.26503256 77 28
-1.6462315 0.45321563 0.20418221 73 27
-1.6002736 0.67588836 0.16270788 80 26
-1.6589415 0.45731154 0.11729994 74 25
-1.5988079 0.67527378 0.079308279 78 24
-1.6526345 0.45619681 0.038994133 77 23
-1.5980899 0.67529839 0 83 22
-1.6524751 0.45677364 -0.038994133 81 21
-1.5985721 0.67583179 -0.079308279 78 20
-1.649042 0.45583627 -0.11602084 78 19
-1.6005197 0.67764002 -0.15290102 81 18
-1.6615577 0.45928293 -0.19332983 72 17
-1.6052883 0.6803208 -0.23739004 73 16
-1.6551105 0.45690805 -0.29327536 61 15
-1.6046376 0.68264365 -0.48905066 59 13
-1.6521953 0.45581651 -0.38454834 62 14
-1.5924313 0.67937034 -0.58676398 63 12
-1.6387551 0.44822085 -0.67299974 40 11
-1.5936549 0.68604052 -0.90284264 70 9
nan nan nan 0 10
-1.6030083 0.69334328 -1.0345607 69 8
-0.80328232 0.21661468 -0.53947592 40 7
-0.6597141 0.28612438 -0.5210306 80 6
-0.62732345 0.16736701 -0.5201298 90 5
-0.2741935 0.1185572 -0.25221813 41 4
-0.24386314 0.065895982 -0.23106785 90 3
-0.22309621 0.096961558 -0.24614246 39 2
-0.29887524 0.078663826 -0.35995173 8 1
-0.27969491 0.12334149 -0.38107225 4 0
-1.6583683 0.45970276 0.44987386 58 31
-1.5934418 0.68018502 0.39286613 67 30
-1.6512508 0.45926711 0.32393929 72 29
-1.5929681 0.67934436 0.26541892 74 28
-1.6494219 0.46028647 0.20478809 73 27
-1.6001925 0.68244952 0.16294576 78 26
-1.6597382 0.46376735 0.11747347 74 25
-1.5964411 0.68085051 0.079308279 77 24
-1.6509514 0.46225095 0.038994133 77 23
-1.595723 0.68087262 0 83 22
-1.6508707 0.46253911 -0.038994133 81 21
-1.593789 0.68070257 -0.079191819 77 20
-1.6474409 0.46158975 -0.11602084 76 19
-1.602721 0.68518615 -0.1533481 78 18
-1.6574708 0.4647027 -0.19304553 72 17
-1.6051791 0.68689728 -0.23773409 74 16
-1.6486795 0.46164995 -0.29241657 58 15
-1.599918 0.68756849 -0.48836285 59 13
-1.6482462 0.46092811 -0.3839902 63 14
-1.5899305 0.6852023 -0.58676398 58 12
-1.6460382 0.45668915 -0.67674905 51 11
-1.5932744 0.69248223 -0.90401524 70 9
-1.5646936 0.43253329 -0.74613386 52 10
-1.5984969 0.6983546 -1.0332675 70 8
-0.7964865 0.2179383 -0.53527224 39 7
-0.66047996 0.28934497 -0.52254522 78 6
-0.62854981 0.17015547 -0.52174515 90 5
-0.26550978 0.11587043 -0.24358052 40 4
-0.24361996 0.066789344 -0.23106785 90 3
-0.22128488 0.097073458 -0.24423438 36 2
-0.28977871 0.077505864 -0.34801963 8 1
-0.27792379 0.12376385 -0.37903443 4 0
-1.6520199 0.46447715 0.44858482 58 31
-1.5909382 0.68602073 0.39286613 69 30
-1.6495565 0.46531615 0.32393929 70 29
-1.5904675 0.68517828 0.26541892 76 28
-1.6525015 0.46767348 0.20539397 74 27
-1.595396 0.68732232 0.16270788 80 26
-1.6580272 0.46984747 0.11747347 74 25
-1.5985194 0.68867922 0.079541199 77 24
-1.6493276 0.46801099 0.038994133 77 23
-1.5955114 0.68770909 0 80 22
-1.6515695 0.46926638 -0.039052162 80 21
-1.5914031 0.68626177 -0.079191819 78 20
-1.6409379 0.4662683 -0.11567555 76 19
-1.5979145 0.69006574 -0.15312457 80 18
-1.6558387 0.47048551 -0.19304553 73 17
-1.6049224 0.69376135 -0.23807815 74 16
-1.6541687 0.46940887 -0.29370472 59 15
-1.5997118 0.69410861 -0.48905066 59 13
-1.6465456 0.46696612 -0.3839902 62 14
-1.5896945 0.6916936 -0.58758122 56 12
-1.642202 0.46180812 -0.67581177 52 11
-1.5967871 0.70098811 -0.90753275 69 9
nan nan nan 0 10
-1.5980058 0.70479631 -1.0345607 69 8
-0.79971474 0.22181056 -0.53807467 40 7
-0.65583366 0.29002696 -0.51951599 80 6
-0.62058282 0.1703615 -0.51528388 90 5
-0.26675057 0.11754046 -0.24530804 40 4
-0.24504277 0.068078168 -0.23288728 90 3
-0.2209276 0.097883858 -0.24423438 36 2
-0.29097277 0.078897513 -0.35000831 8 1
-0.27880517 0.12533978 -0.38107225 4 0
-1.6527125 0.4708994 0.44922933 58 31
-1.5840701 0.68961972 0.39173883 70 30
-1.6526445 0.47241387 0.3248865 69 29
-1.5880661 0.69072586 0.26541892 77 28
-1.6484724 0.47275829 0.20509103 72 27
-1.6022323 0.69658965 0.16365939 80 26
-1.6563771 0.47563222 0.11747347 74 25
-1.5915282 0.69225693 0.079308279 77 24
-1.6500872 0.47445267 0.039052162 77 23
-1.5976833 0.69527531 0 78 22
-1.6500043 0.47474065 -0.039052162 80 21
-1.5935748 0.69381213 -0.079424739 77 20
-1.6440955 0.47336665 -0.11602084 76 19
-1.6001799 0.69735616 -0.15357165 78 18
-1.6589618 0.47763014 -0.19361414 73 17
-1.6048815 0.70007259 -0.23842219 74 16
-1.6501522 0.47450298 -0.29327536 59 15
-1.5972792 0.69968843 -0.48905066 61 13
-1.6496747 0.47376221 -0.38510644 62 14
-1.5872701 0.69723845 -0.58758122 62 12
-1.6473514 0.4691456 -0.67862368 55 11
-1.5924363 0.70538247 -0.90636027 73 9
-1.635679 0.46434256 -0.78227139 61 10
-1.5976133 0.7109642 -1.0358539 69 8
-0.80093062 0.22515438 -0.53947592 36 7
-0.65305483 0.2913833 -0.51800138 80 6
-0.62921768 0.17493273 -0.52336043 90 5
-0.25484854 0.11317861 -0.23321539 39 4
-0.24481568 0.068890385 -0.23288728 89 3
-0.22206862 0.099292457 -0.24614246 34 2
-0.29510489 0.081018344 -0.35597438 8 1
-0.27707493 0.12565273 -0.37903443 4 0
-1.6534636 0.4770436 0.44987386 58 31
-1.5840032 0.6958515 0.39230248 63 30
-1.6510689 0.47789165 0.3248865 66 29
-1.5880272 0.69698381 0.26580524 76 28
-1.6445115 0.47753364 0.20478809 74 27
-1.6020687 0.70318127 0.16389728 77 26
-1.6547908 0.48112231 0.11747347 74 25
-1.5915092 0.69853735 0.079424739 77 24
-1.6461039 0.47922668 0.038994133 78 23
-1.5953687 0.70056957 0 81 22
-1.6459365 0.47980127 -0.038994133 81 21
-1.5912652 0.69909286 -0.079424739 77 20
-1.6449122 0.47951064 -0.1161935 77 19
-1.6000139 0.70394319 -0.15379518 78 18
-1.6549832 0.4824371 -0.19332983 73 17
-1.602428 0.70567036 -0.23842219 72 16
-1.6485697 0.47997242 -0.29327536 59 15
-1.5971471 0.7059558 -0.48973849 61 13
-1.6480107 0.47951779 -0.38510644 65 14
-1.5892669 0.7044186 -0.5892157 59 12
-1.643476 0.47425383 -0.67768639 56 11
-1.5899644 0.71093678 -0.90636027 69 9
-1.6428331 0.47225145 -0.78652287 59 10
-1.5931714 0.71565717 -1.0345607 65 8
-0.80416584 0.22892961 -0.54227841 36 7
-0.65746546 0.29613078 -0.52254522 74 6
-0.62676436 0.1766188 -0.52174515 90 5
-0.25773546 0.11557777 -0.23667043 39 4
-0.2429193 0.069294423 -0.23106785 90 3
-0.21586289 0.097340472 -0.23851015 32 2
-0.29482028 0.082047962 -0.35597438 8 1
-0.27663463 0.12661915 -0.37903443 4 0
-1.6471493 0.48146376 0.44858482 56 31
-1.586015 0.70335698 0.39342979 69 30
-1.6493907 0.48365206 0.3248865 69 29
-1.5878416 0.70352626 0.2661916 76 28
-1.6428347 0.48327115 0.20478809 73 27
-1.6018782 0.70978034 0.16413514 78 26
-1.6531012 0.48689571 0.11747347 73 25
-1.5913432 0.70510304 0.079541199 77 24
-1.6419383 0.48455283 0.038936108 77 23
-1.5929136 0.70613414 0 81 22
-1.6490477 0.4869526 -0.039110187 80 21
-1.5909737 0.70593619 -0.079541199 78 20
-1.6432285 0.48524955 -0.1161935 77 19
-1.5929981 0.70749682 -0.1533481 78 18
-1.6579698 0.48990059 -0.19389845 72 17
-1.599955 0.7112596 -0.23842219 74 16
-1.6491625 0.48670527 -0.29370472 59 15
-1.5945489 0.71180493 -0.48973849 59 13
-1.6416498 0.48389632 -0.3839902 63 14
-1.5866742 0.71023887 -0.5892157 61 12
-1.6439523 0.48092169 -0.67862368 55 11
-1.587473 0.7164824 -0.90636027 67 9
-1.6389177 0.47763979 -0.78546 54 10
-1.5944321 0.72326469 -1.037147 67 8
-0.79734814 0.23017284 -0.53807467 36 7
-0.65276062 0.29687881 -0.51951599 73 6
-0.62794977 0.1794308 -0.52336043 90 5
-0.25403211 0.11499935 -0.23321539 41 4
-0.24762192 0.071552821 -0.23652615 90 3
-0.21990795 0.10015361 -0.24423438 32 2
-0.29159293 0.082336113 -0.35199699 8 1
-0.27878597 0.12887275 -0.38311005 4 0
-1.6453736 0.48749763 0.44858482 59 31
-1.5878695 0.71116215 0.39455709 69 30
-1.6452529 0.4889982 0.32441291 66 29
-1.5897589 0.71136469 0.26696429 76 28
-1.6434314 0.48999482 0.20509103 73 27
-1.5947254 0.71360797 0.16365939 78 26
-1.6513054 0.49295133 0.11747347 74 25
-1.5910262 0.71195376 0.079657651 77 24
-1.6450282 0.49170598 0.039052162 77 23
-1.5948758 0.71401656 0 80 22
-1.6448566 0.49228022 -0.039052162 80 21
-1.5884999 0.71148545 -0.079541199 76 20
-1.6414388 0.49126905 -0.1161935 78 19
-1.5949355 0.71537453 -0.15379518 77 18
-1.6562496 0.49568501 -0.19389845 73 17
-1.5973372 0.71711898 -0.23842219 74 16
-1.6474535 0.49245891 -0.29370472 59 15
-1.5942446 0.71835685 -0.49042633 59 13
-1.6445372 0.49129832 -0.38510644 61 14
-1.5863372 0.71674871 -0.59003288 62 12
-1.6400402 0.48600206 -0.67768639 56 11
-1.5868442 0.72321439 -0.90753275 72 9
-1.6480966 0.48654464 -0.79077435 65 10
-1.595786 0.73061264 -1.0397335 66 8
-0.79256165 0.23180571 -0.53527224 36 7
-0.65172029 0.29915556 -0.51951599 73 6
-0.61997885 0.17953201 -0.51689917 90 5
-0.24872012 0.11358479 -0.22803281 39 4
-0.24406837 0.071492866 -0.23288728 89 3
-0.21662034 0.099574745 -0.24041823 33 2
-0.29130375 0.08335346 -0.35199699 8 1
-0.27833441 0.12984511 -0.38311005 4 0
-1.643662 0.49323809 0.44858482 59 31
-1.5831593 0.71569425 0.39399344 69 30
-1.648239 0.49614653 0.32536009 66 29
-1.5872661 0.71690965 0.26696429 76 28
-1.6393343 0.49501452 0.20478809 73 27
-1.5944915 0.72019756 0.16389728 78 26
-1.6543514 0.50014913 0.11782051 73 25
-1.5930805 0.7195648 0.079890572 77 24
-1.6433018 0.49744526 0.039052162 77 23
-1.5900968 0.71854699 0 81 22
-1.6455209 0.49874035 -0.039110187 80 21
-1.590555 0.71908927 -0.079774112 76 20
-1.6397141 0.49699569 -0.1161935 76 19
-1.5924287 0.72093749 -0.15379518 80 18
-1.6521313 0.50074631 -0.19361414 72 17
-1.5970786 0.72371531 -0.23876624 73 16
-1.6457245 0.49820662 -0.29370472 62 15
-1.5917275 0.72391742 -0.49042633 59 13
-1.6404788 0.49633354 -0.38454834 62 14
-1.5816772 0.72129858 -0.5892157 61 12
-1.6449962 0.4937126 -0.68049836 55 11
-1.5883193 0.7306 -0.90987778 69 9
-1.6463882 0.49229458 -0.79077435 63 10
-1.593226 0.73617858 -1.0397335 66 8
-0.78777349 0.23340799 -0.53246975 36 7
-0.65067208 0.30142868 -0.51951599 70 6
-0.61751509 0.18116622 -0.51528388 90 5
-0.24668849 0.11367974 -0.22630529 40 4
-0.24381731 0.072344393 -0.23288728 90 3
-0.22209986 0.10311905 -0.24805054 29 2
-0.29538956 0.085588194 -0.35796306 8 1
-0.27787948 0.13081589 -0.38311005 4 0
-1.6442423 0.49967149 0.44922933 59 31
-1.5850806 0.72324401 0.39512074 69 30
-1.6441481 0.50118452 0.3248865 66 29
-1.5825078 0.72141844 0.26657793 74 28
-1.6375964 0.50073385 0.20478809 73 27
-1.5919678 0.72575903 0.16389728 78 26
-1.6525954 0.50592083 0.11782051 74 25
-1.5905591 0.72512132 0.079890572 76 24
-1.6415555 0.50317836 0.039052162 77 23
-1.5966719 0.72825432 0 80 22
-1.64377 0.50448126 -0.039110187 80 21
-1.5903059 0.72567654 -0.079890572 76 20
-1.6451252 0.50490141 -0.11671145 74 19
-1.5989563 0.73064268 -0.15468936 77 18
-1.6503733 0.50651032 -0.19361414 72 17
-1.6012942 0.73238397 -0.23979835 72 16
-1.6463312 0.50466669 -0.29413414 67 15
-1.5891907 0.72946918 -0.49042633 59 13
-1.6410673 0.50276726 -0.38510644 62 14
-1.5834398 0.72879654 -0.59085011 61 12
-1.6432627 0.4994517 -0.68049836 55 11
-1.5837579 0.73520738 -0.90870529 72 9
-1.6468263 0.49869105 -0.79183722 62 10
-1.5964599 0.74445623 -1.0436131 67 8
-0.79687917 0.23909827 -0.53947592 34 7
-0.64601839 0.30200061 -0.5164867 72 6
-0.62054193 0.18439108 -0.51851451 90 5
-0.24955204 0.11609668 -0.22976033 40 4
-0.24356329 0.073195025 -0.23288728 89 3
-0.21882923 0.10248914 -0.24423438 29 2
-0.29946327 0.087852448 -0.36392909 10 1
-0.2813274 0.1336869 -0.38922352 4 0
-1.6471959 0.50653446 0.45051837 58 31
-1.5804625 0.72747511 0.39455709 69 30
-1.6424769 0.506634 0.3248865 66 29
-1.5823494 0.72769719 0.26696429 74 28
-1.6382987 0.50689167 0.20509103 72 27
-1.591812 0.73207688 0.16413514 77 26
-1.646142 0.50992912 0.11747347 74 25
-1.5904133 0.73143816 0.080007032 76 24
-1.6374009 0.50816798 0.038994133 77 23
-1.585169 0.72935367 0 76 22
-1.6444761 0.51066726 -0.039168216 80 21
-1.5854963 0.73017579 -0.079774112 76 20
-1.6339103 0.50740904 -0.11602084 76 19
-1.5920045 0.73385054 -0.15424226 76 18
-1.6485952 0.51226813 -0.19361414 72 17
-1.601104 0.73873031 -0.24014241 73 16
-1.6516191 0.51259023 -0.29542232 66 15
-1.5866348 0.73501205 -0.49042633 59 13
-1.6417197 0.50892466 -0.38566458 61 14
-1.5830275 0.73531735 -0.59166729 61 12
-1.6437254 0.50586313 -0.6814357 55 11
-1.5853078 0.74233341 -0.91105038 70 9
-1.6450756 0.50443649 -0.79183722 62 10
-1.5899823 0.74819702 -1.0410267 66 8
-0.7960397 0.24187842 -0.53947592 33 7
-0.65034765 0.30681884 -0.5210306 76 6
-0.62355375 0.18763927 -0.52174515 90 5
-0.24588884 0.11539916 -0.22630529 40 4
-0.24824496 0.075482383 -0.23834558 87 3
-0.2155835 0.10180006 -0.24041823 30 2
-0.29769817 0.088480927 -0.36194041 10 1
-0.28215891 0.1353066 -0.39126134 4 0
-1.6407139 0.51113814 0.44922933 58 31
-1.5777856 0.7332629 0.39455709 70 30
-1.640609 0.51265055 0.3248865 66 29
-1.5796717 0.7334919 0.26696429 74 28
-1.6387988 0.5136317 0.20539397 73 27
-1.5891182 0.73790628 0.16413514 77 26
-1.6466424 0.51670241 0.11764698 74 25
-1.5877219 0.73726249 0.080007032 77 24
-1.6380026 0.51462626 0.039052162 77 23
-1.589283 0.73832715 0 80 22
-1.6425933 0.51669115 -0.039168216 80 21
-1.585201 0.73676115 -0.079890572 78 20
-1.6367998 0.51488417 -0.11636614 74 19
-1.5870481 0.73862714 -0.15401873 78 18
-1.6467969 0.51801968 -0.19361414 72 17
-1.593899 0.74249679 -0.23945431 72 16
-1.6427679 0.51614785 -0.29413414 67 15
-1.5862354 0.74156666 -0.49111417 61 13
-1.6398433 0.51493847 -0.38566458 61 14
-1.580451 0.74083871 -0.59166729 61 12
-1.6397359 0.51091158 -0.68049836 55 11
-1.5825764 0.74813884 -0.91105038 69 9
-1.6433047 0.51017576 -0.79183722 65 10
-1.587361 0.75374258 -1.0410267 67 8
-0.79519057 0.24465565 -0.53947592 33 7
-0.65106547 0.30994838 -0.52254522 76 6
-0.61923951 0.18871877 -0.51851451 90 5
-0.24710998 0.11704639 -0.22803281 40 4
-0.24140185 0.074408673 -0.23106785 81 3
-0.22100782 0.10543916 -0.24805054 28 2
-0.29738751 0.089519538 -0.36194041 10 1
-0.28817296 0.13950576 -0.40145043 7 0
-1.6412244 0.51758534 0.44987386 58 31
-1.5818276 0.74187702 0.39624804 67 30
-1.6364683 0.51763731 0.32441291 66 29
-1.5815723 0.74110323 0.26773697 74 28
-1.636996 0.5193491 0.20539397 72 27
-1.591037 0.74556643 0.16461091 77 26
-1.6424508 0.52169549 0.11747347 74 25
-1.5873985 0.74386257 0.080123484 76 24
-1.6338133 0.51958674 0.038994133 77 23
-1.5821716 0.74174225 0 77 22
-1.6407796 0.52242172 -0.039168216 80 21
-1.5826195 0.74229002 -0.079890572 76 20
-1.6349927 0.52059454 -0.11636614 74 19
-1.5912176 0.74734652 -0.15468936 76 18
-1.6473466 0.52451503 -0.19389845 73 17
-1.5890578 0.74699968 -0.23911026 73 16
-1.6433041 0.52262211 -0.29456353 67 15
-1.5814648 0.74607086 -0.49042633 61 13
-1.638036 0.52065945 -0.38566458 61 14
-1.5821244 0.74837708 -0.59330177 59 12
-1.6357312 0.5159384 -0.67956102 55 11
-1.5819468 0.75461185 -0.91222286 65 9
-1.6393541 0.51523376 -0.79077435 66 10
-1.5885766 0.76113319 -1.0436131 66 8
-0.79235291 0.24682076 -0.53807467 33 7
-0.64997959 0.31221914 -0.52254522 74 6
-0.62040275 0.1914335 -0.5201298 90 5
-0.24345452 0.11631765 -0.22457777 44 4
-0.24278347 0.075741552 -0.23288728 84 3
-0.21774399 0.10477506 -0.24423438 28 2
-0.29707322 0.090557076 -0.36194041 10 1
-0.28897962 0.14115836 -0.40348825 7 0
-1.6417098 0.52404237 0.45051837 58 31
-1.5792284 0.74739414 0.39624804 70 30
-1.6416681 0.52558178 0.32583368 65 29
-1.5767442 0.74556077 0.26735064 76 28
-1.6351732 0.52506012 0.20539397 73 27
-1.5885559 0.75083846 0.16461091 77 26
-1.6477458 0.52970529 0.11799403 73 25
-1.5847923 0.74939907 0.080123484 76 24
-1.6367501 0.52681136 0.039110187 77 23
-1.5863483 0.7504763 0 78 22
-1.6414183 0.52862263 -0.039226241 78 21
-1.5822748 0.7488811 -0.080007032 76 20
-1.6331655 0.52629858 -0.11636614 74 19
-1.5887305 0.75261909 -0.15468936 76 18
-1.6478708 0.5310207 -0.19418277 70 17
-1.5910442 0.75439245 -0.23979835 73 16
-1.6414698 0.52835506 -0.29456353 66 15
-1.5810196 0.75262254 -0.49111417 59 13
-1.6363004 0.52608854 -0.38566458 62 14
-1.5795025 0.75389522 -0.59330177 61 12
-1.6340114 0.52135986 -0.67956102 55 11
-1.5794359 0.75985366 -0.91222286 65 9
-1.6397029 0.52163571 -0.79183722 63 10
-1.5802685 0.7635963 -1.0397335 58 8
-0.79741633 0.25143316 -0.54227841 34 7
-0.64715379 0.31349939 -0.5210306 73 6
-0.6161167 0.19236895 -0.51689917 90 5
-0.24306744 0.11712433 -0.22457777 43 4
-0.24088977 0.07605011 -0.23106785 83 3
-0.21739535 0.10549655 -0.24423438 25 2
-0.29677126 0.091541708 -0.36194041 10 1
-0.29626924 0.14602688 -0.41571516 7 0
-1.639963 0.5294835 0.45051837 58 31
-1.5767412 0.7526269 0.39624804 69 30
-1.6375797 0.53026998 0.32536009 69 29
-1.5764911 0.75185138 0.26773697 74 28
-1.6357844 0.53124273 0.20569691 72 27
-1.5904152 0.75852722 0.16508666 77 26
-1.6459802 0.53516644 0.11799403 73 25
-1.5845512 0.75572824 0.080239952 76 24
-1.6372787 0.53329211 0.039168216 76 23
-1.5861059 0.75681216 0 76 22
-1.6395631 0.53434896 -0.039226241 78 21
-1.5773988 0.75332063 -0.079890572 73 20
-1.6314112 0.5317114 -0.11636614 74 19
-1.5860938 0.75816023 -0.15468936 76 18
-1.6412822 0.53523612 -0.19361414 72 17
-1.5884012 0.75994164 -0.23979835 73 16
-1.6396154 0.53408164 -0.29456353 66 15
-1.5827134 0.76022363 -0.49248984 59 13
-1.6321356 0.53104645 -0.38510644 61 14
-1.581116 0.76146001 -0.59493619 58 12
-1.6342958 0.52805454 -0.68049836 55 11
-1.578759 0.76632917 -0.9133954 69 9
-1.6400272 0.52804643 -0.79290009 62 10
-1.5813024 0.77126431 -1.0423198 67 8
-0.79258502 0.25296929 -0.53947592 34 7
-0.64600039 0.31586921 -0.5210306 76 6
-0.62269497 0.19689423 -0.52336043 90 5
-0.24263652 0.11801444 -0.22457777 47 4
-0.23897006 0.076430365 -0.22924842 83 3
-0.21991037 0.10770936 -0.24805054 32 2
-0.29933515 0.09350203 -0.36591777 10 1
-0.29573202 0.14711177 -0.41571516 7 0
-1.6380113 0.53549075 0.45051837 58 31
-1.5739721 0.75840086 0.39624804 69 30
-1.6379588 0.53702986 0.32583368 66 29
-1.5715007 0.75655025 0.26735064 76 28
-1.6338261 0.53723466 0.20569691 72 27
-1.5898652 0.76543367 0.16532454 77 26
-1.6416378 0.54041928 0.11782051 73 25
-1.5840193 0.76261693 0.080356404 74 24
-1.6354072 0.53900415 0.039168216 77 23
-1.5810704 0.76153278 0 77 22
-1.635219 0.53957486 -0.039168216 80 21
-1.5792564 0.76099598 -0.080123484 74 20
-1.6341903 0.53924352 -0.11671145 74 19
-1.5877867 0.7661382 -0.15513644 76 18
-1.6464831 0.5432868 -0.19446707 70 17
-1.5878338 0.76683807 -0.24014241 70 16
-1.6400816 0.54056937 -0.29499292 66 15
-1.5778884 0.76469266 -0.49180201 59 13
-1.6324939 0.5377841 -0.38566458 62 14
-1.580572 0.76800984 -0.59575343 58 12
-1.6368506 0.53518999 -0.68237299 54 11
-1.573958 0.77113628 -0.91222286 65 9
-1.6360213 0.53307015 -0.79183722 65 10
-1.5843558 0.7796213 -1.0461996 66 8
-0.78972483 0.25510457 -0.53807467 33 7
-0.63955212 0.3154636 -0.5164867 77 6
-0.61654425 0.19734628 -0.51851451 90 5
-0.24383739 0.11967292 -0.22630529 43 4
-0.23706421 0.076756194 -0.22742899 83 3
-0.22527267 0.11144497 -0.25568286 29 2
-0.30045608 0.094988003 -0.36790645 10 1
-0.29392821 0.14748211 -0.41367733 7 0
-1.6338378 0.54045004 0.44987386 59 31
-1.5735044 0.76495826 0.39681172 69 30
-1.6337432 0.5419746 0.32536009 65 29
-1.5755113 0.76527715 0.26850969 73 28
-1.6319408 0.54293448 0.20569691 73 27
-1.5827094 0.76879829 0.16484877 76 26
-1.6444759 0.54771584 0.11816755 73 25
-1.5791028 0.76704764 0.080239952 76 24
-1.6335158 0.54470944 0.039168216 77 23
-1.5784025 0.76704705 0 76 22
-1.6333255 0.54527962 -0.039168216 77 21
-1.578835 0.76759875 -0.080239952 74 20
-1.6275645 0.54337186 -0.11636614 74 19
-1.58734 0.77276868 -0.15535997 76 18
-1.6445767 0.54903084 -0.19446707 70 17
-1.5851473 0.77237594 -0.24014241 73 16
-1.635847 0.54551524 -0.29456353 66 15
-1.5773674 0.77125442 -0.49248984 58 13
-1.6306068 0.5434792 -0.38566458 61 14
-1.5778816 0.77352238 -0.59575343 56 12
-1.632771 0.54017574 -0.6814357 55 11
-1.5732348 0.77760684 -0.9133954 65 9
-1.6363008 0.53948301 -0.79290009 63 10
-1.5797098 0.78419292 -1.0449063 61 8
-0.78882951 0.25785968 -0.53807467 32 7
-0.64377952 0.32037142 -0.5210306 78 6
-0.61585164 0.19949722 -0.51851451 90 5
-0.23858386 0.1180697 -0.22112274 47 4
-0.23843065 0.078096814 -0.22924842 80 3
-0.219134 0.10928023 -0.24805054 29 2
-0.29577985 0.094696037 -0.36194041 10 1
-0.295984 0.14983834 -0.41775298 7 0
-1.634233 0.54691303 0.45051837 58 31
-1.5730098 0.77152139 0.39737535 67 30
-1.6364981 0.5492295 0.3263073 67 29
-1.5728304 0.77077204 0.26850969 74 28
-1.6323889 0.54941595 0.20599985 73 27
-1.5823848 0.77514011 0.16508666 77 26
-1.6401893 0.55265975 0.11799403 73 25
-1.5808979 0.77475864 0.080472864 73 24
-1.6339738 0.55120373 0.039226241 76 23
-1.5802021 0.77475876 0 76 22
-1.6362468 0.55228484 -0.039284267 76 21
-1.5806273 0.7753104 -0.080472864 74 20
-1.6280221 0.54984444 -0.11653879 74 19
-1.5870026 0.77912837 -0.15558352 74 18
-1.6426501 0.55476815 -0.19446707 70 17
-1.5847982 0.778723 -0.24048644 72 16
-1.6386023 0.55278987 -0.29542232 66 15
-1.5768199 0.77782184 -0.49317768 58 13
-1.631106 0.54965842 -0.38622272 61 14
-1.5709389 0.77692515 -0.59411901 58 12
-1.6331697 0.54631913 -0.68237299 54 11
-1.574597 0.78479481 -0.91574043 65 9
-1.6344076 0.54519147 -0.79290009 62 10
-1.5790126 0.79038751 -1.0461996 63 8
-0.79579598 0.26318592 -0.54367965 32 7
-0.63916451 0.32070786 -0.51800138 73 6
-0.61337072 0.20095252 -0.51689917 90 5
-0.24301718 0.1213299 -0.22630529 45 4
-0.23490216 0.077849053 -0.22560956 81 3
-0.22020504 0.11074866 -0.24995862 26 2
-0.29835644 0.096579403 -0.36591777 10 1
-0.28906554 0.14746991 -0.40756389 7 0
-1.6324104 0.55232942 0.45051837 58 31
-1.5704428 0.77673352 0.39737535 69 30
-1.632342 0.55386788 0.32583368 65 29
-1.5746918 0.77817762 0.26928237 74 28
-1.6282074 0.55403012 0.20569691 72 27
-1.5818992 0.78176433 0.16532454 77 26
-1.6383477 0.55809575 0.11799403 73 25
-1.5760826 0.77888751 0.080356404 76 24
-1.6297703 0.5558157 0.039168216 77 23
-1.5776242 0.77999467 0 74 22
-1.6343091 0.55799299 -0.039284267 76 21
-1.5780476 0.78054768 -0.080472864 74 20
-1.6261897 0.55524021 -0.11653879 74 19
-1.5798135 0.78244746 -0.15513644 74 18
-1.6431533 0.56101155 -0.19475138 70 17
-1.5820702 0.78425026 -0.24048644 72 16
-1.6320959 0.55663741 -0.29456353 66 15
-1.5742319 0.78304648 -0.49317768 58 13
-1.6291775 0.55534869 -0.38622272 61 14
-1.5746927 0.7853018 -0.59657061 58 12
-1.6312528 0.55201668 -0.68237299 55 11
-1.577762 0.79326987 -0.919258 65 9
-1.6325907 0.55060834 -0.79290009 63 10
-1.5781523 0.79686147 -1.0474926 66 8
-0.79295307 0.26517332 -0.54227841 32 7
-0.63449836 0.32112798 -0.51497209 77 6
-0.61085165 0.20250019 -0.51528388 90 5
-0.24098632 0.1213486 -0.22457777 45 4
-0.23626126 0.079193242 -0.22742899 78 3
-0.21695308 0.11002192 -0.24614246 26 2
-0.3009066 0.098533414 -0.36989516 10 1
-0.29239395 0.15050095 -0.41367733 7 0
-1.6350454 0.55958188 0.45180741 56 31
-1.5699002 0.78330082 0.39793903 67 30
-1.6350446 0.56114948 0.32678086 67 29
-1.5719658 0.78366959 0.26928237 73 28
-1.6286114 0.56051445 0.20599985 72 27
-1.5791606 0.78728139 0.16532454 76 26
-1.6363896 0.56381124 0.11799403 73 25
-1.5778214 0.78661841 0.080589324 74 24
-1.6300859 0.56259745 0.039226241 76 23
-1.5771277 0.78661549 0 74 22
-1.6323513 0.56369442 -0.039284267 76 21
-1.5751762 0.78632629 -0.080472864 73 20
-1.6266003 0.56172395 -0.11671145 74 19
-1.5815246 0.79018867 -0.15558352 74 18
-1.6363885 0.56541455 -0.19418277 70 17
-1.5793231 0.78976786 -0.24048644 73 16
-1.6323742 0.56341583 -0.29499292 66 15
-1.5734979 0.78989208 -0.49386552 56 13
-1.6272291 0.56103224 -0.38622272 62 14
-1.5696949 0.79000318 -0.59575343 56 12
-1.6292186 0.55799186 -0.68237299 55 11
-1.5730155 0.7977711 -0.91808546 66 9
-1.6305617 0.55658841 -0.79290009 62 10
-1.5752212 0.80264032 -1.0474926 66 8
-0.79001254 0.26742056 -0.54087716 33 7
-0.63685322 0.32527336 -0.51800138 78 6
-0.60829365 0.20413892 -0.51366854 90 5
-0.24214274 0.12306577 -0.22630529 50 4
-0.23596942 0.080058649 -0.22742899 80 3
-0.2165677 0.11077856 -0.24614246 25 2
-0.29621485 0.098250039 -0.36392909 8 1
-0.2905612 0.15089262 -0.41163954 7 0
-1.6307 0.56478363 0.4511629 56 31
-1.5670185 0.78904951 0.39793903 67 30
-1.6306568 0.56633645 0.3263073 65 29
-1.569083 0.78942591 0.26928237 73 28
-1.6242014 0.56566703 0.20569691 73 27
-1.5829297 0.79642797 0.16603817 76 26
-1.627244 0.56735206 0.11747347 74 25
-1.5793866 0.7946465 0.080822244 74 24
-1.6281122 0.56828409 0.039226241 76 23
-1.5764657 0.79351747 0 76 22
-1.6326348 0.57049459 -0.039342295 78 21
-1.5746509 0.79294586 -0.080589324 74 20
-1.6245304 0.56768203 -0.11671145 74 19
-1.5786178 0.79597998 -0.15558352 72 18
-1.6367507 0.57193923 -0.19446707 70 17
-1.5786272 0.7966696 -0.2408305 72 16
-1.628071 0.56830204 -0.29456353 66 15
-1.570731 0.79537988 -0.49386552 58 13
-1.6274637 0.56779188 -0.38678083 61 14
-1.5711384 0.7976222 -0.59738785 58 12
-1.629452 0.56443071 -0.68331033 55 11
-1.5740093 0.80554825 -0.92043054 63 9
-1.6243289 0.56080633 -0.79077435 61 10
-1.5743114 0.80911458 -1.0487858 66 8
-0.79299623 0.27150488 -0.54367965 34 7
-0.63747883 0.32841158 -0.51951599 81 6
-0.60576779 0.20565589 -0.51205325 90 5
-0.24011183 0.12306995 -0.22457777 50 4
-0.237317 0.081418209 -0.22924842 87 3
-0.21330699 0.11005639 -0.2423263 23 2
-0.29298764 0.098349638 -0.35995173 10 1
-0.28620237 0.14985557 -0.40552607 7 0
-1.6264375 0.56967723 0.45051837 58 31
-1.5729353 0.79893762 0.40019363 66 30
-1.6309873 0.57283515 0.32678086 67 29
-1.5663178 0.79489821 0.26928237 74 28
-1.6222169 0.57133317 0.20569691 72 27
-1.58014 0.80194855 0.16603817 77 26
-1.6346664 0.57633245 0.11816755 73 25
-1.5766031 0.80015475 0.080822244 73 24
-1.6308345 0.57562083 0.039342295 76 23
-1.5759139 0.8001501 0 73 22
-1.6282759 0.57536077 -0.039284267 76 21
-1.5763236 0.80070502 -0.080822244 73 20
-1.622539 0.57334924 -0.11671145 74 19
-1.5802658 0.80374867 -0.1560306 74 18
-1.6394305 0.57929748 -0.19503568 70 17
-1.5736312 0.80104899 -0.24048644 70 16
-1.6260773 0.57398158 -0.29456353 66 15
-1.5722233 0.80304992 -0.49524119 56 13
-1.6254719 0.5734694 -0.38678083 61 14
-1.5683447 0.8031016 -0.59738785 58 12
-1.6252832 0.56935221 -0.68237299 54 11
-1.5692272 0.81002223 -0.919258 65 9
-1.6266361 0.56795818 -0.79290009 62 10
-1.5752739 0.81657964 -1.0513723 63 8
-0.78812641 0.27292934 -0.54087716 34 7
-0.62928194 0.32694155 -0.51345748 81 6
-0.60866117 0.20899203 -0.51528388 90 5
-0.24127766 0.12475324 -0.22630529 48 4
-0.23377815 0.081162013 -0.22560956 83 3
-0.2129215 0.1108003 -0.2423263 22 2
-0.28832379 0.097955994 -0.3539857 10 1
-0.2869519 0.15154161 -0.40756389 7 0
-1.6245395 0.57506758 0.45051837 58 31
-1.5637778 0.80081046 0.39850265 67 30
-1.6290786 0.57824051 0.32678086 65 29
-1.5658706 0.80121577 0.26966873 73 28
-1.6226524 0.57753819 0.20599985 70 27
-1.5752578 0.80604762 0.16580029 74 26
-1.6303957 0.58091623 0.11799403 72 25
-1.5739409 0.80537856 0.080822244 74 24
-1.6242063 0.57935303 0.039226241 76 23
-1.5754759 0.80651361 0 73 22
-1.6310689 0.5824315 -0.039400321 74 21
-1.5714383 0.8047868 -0.080705784 73 20
-1.6229787 0.57956195 -0.1168841 74 19
-1.5753775 0.80784565 -0.15580705 72 18
-1.6351602 0.58389884 -0.19475138 69 17
-1.5709661 0.80626297 -0.24048644 70 16
-1.6311276 0.58184314 -0.29585171 66 15
-1.571687 0.80936229 -0.49592903 55 13
-1.6235613 0.57885647 -0.38678083 59 14
-1.5656728 0.80829805 -0.59738785 58 12
-1.6233863 0.57473868 -0.68237299 55 11
-1.5684897 0.81624347 -0.92043054 63 9
-1.6247438 0.57334924 -0.79290009 63 10
-1.5725572 0.82179892 -1.0513723 65 8
-0.79112983 0.2768963 -0.54367965 34 7
-0.62995291 0.32995567 -0.51497209 87 6
-0.60977012 0.21162671 -0.51689917 90 5
-0.23767444 0.1238503 -0.22285026 51 4
-0.23675731 0.083031684 -0.22924842 78 3
-0.20971 0.10997117 -0.23851015 21 2
-0.29662547 0.10177173 -0.36591777 8 1
-0.28135937 0.1497238 -0.3994126 7 0
-1.6293486 0.58316684 0.45245194 58 31
-1.560973 0.80626416 0.39850265 66 30
-1.6270503 0.58392352 0.32678086 69 29
-1.5630643 0.80667681 0.26966873 74 28
-1.6206266 0.58319879 0.20599985 72 27
-1.5746447 0.81268555 0.16603817 74 26
-1.6307057 0.58744586 0.11816755 73 25
-1.5733377 0.81201577 0.080938697 73 24
-1.6268785 0.58670819 0.039342295 76 23
-1.572651 0.81200814 0 76 22
-1.6290258 0.58812147 -0.039400321 76 21
-1.5686195 0.81026727 -0.080705784 74 20
-1.6209457 0.58522373 -0.1168841 74 19
-1.5725478 0.81333977 -0.15580705 72 18
-1.6377867 0.59128332 -0.19532 69 17
-1.57034 0.81288284 -0.2408305 70 16
-1.6314046 0.58836555 -0.2962811 66 15
-1.5688522 0.81484365 -0.49592903 56 13
-1.6215309 0.58452028 -0.38678083 61 14
-1.5691242 0.81703991 -0.59983951 55 12
-1.6257367 0.58195758 -0.68424767 54 11
-1.5695382 0.823771 -0.92277557 63 9
-1.6206002 0.57825989 -0.79183722 61 10
-1.5715704 0.82828331 -1.0526655 62 8
-0.78625035 0.27828759 -0.54087716 33 7
-0.627042 0.33121729 -0.51345748 83 6
-0.60902774 0.21375392 -0.51689917 90 5
-0.2388318 0.12553592 -0.22457777 52 4
-0.23808892 0.08441072 -0.23106785 73 3
-0.21499988 0.11379152 -0.24614246 17 2
-0.29195938 0.1013614 -0.35995173 8 1
-0.2833744 0.15209815 -0.40348825 7 0
-1.627303 0.58885074 0.45245194 56 31
-1.5624664 0.81396413 0.39962995 66 30
-1.625002 0.58959943 0.32678086 65 29
-1.560239 0.81212801 0.26966873 70 28
-1.6185811 0.58885229 0.20599985 70 27
-1.5740044 0.8193289 0.16627604 74 26
-1.6286452 0.59313446 0.11816755 73 25
-1.56828 0.816347 0.080822244 73 24
-1.6224715 0.59153068 0.039284267 76 23
-1.5720228 0.81865025 0 74 22
-1.6293118 0.59465778 -0.039458349 77 21
-1.5702081 0.81805098 -0.080938697 73 20
-1.618893 0.59087831 -0.1168841 74 19
-1.5741117 0.82113278 -0.15625413 72 18
-1.6357127 0.59699667 -0.19532 69 17
-1.5718801 0.82065684 -0.24151857 69 16
-1.627026 0.59321624 -0.29585171 66 15
-1.5659984 0.82031494 -0.49592903 55 13
-1.6194805 0.59017688 -0.38678083 59 14
-1.5662626 0.82251215 -0.59983951 56 12
-1.6215149 0.58684343 -0.68331033 55 11
-1.5666533 0.82924473 -0.92277557 63 9
-1.6228312 0.58544266 -0.79396296 62 10
-1.5705576 0.83477086 -1.0539587 61 8
-0.78917748 0.28241265 -0.54367965 33 7
-0.62412995 0.33246267 -0.51194286 81 6
-0.61007905 0.21650857 -0.51851451 90 5
-0.23839214 0.12636884 -0.22457777 51 4
-0.23293 0.083564982 -0.22560956 73 3
-0.21460138 0.11454131 -0.24614246 21 2
-0.29590774 0.10384007 -0.36591777 10 1
-0.28157452 0.1523854 -0.40145043 7 0
-1.6252376 0.59452754 0.45245194 56 31
-1.5617704 0.82054883 0.40019363 67 30
-1.62524 0.59611017 0.32725447 65 29
-1.55958 0.8187201 0.27005506 73 28
-1.6235065 0.5970583 0.20690867 72 27
-1.5733368 0.8259778 0.16651392 74 26
-1.6265647 0.59881592 0.11816755 73 25
-1.5676305 0.82297987 0.080938697 73 24
-1.6202925 0.59747344 0.039284267 73 23
-1.5713676 0.82529783 0 73 22
-1.6248803 0.59947973 -0.039400321 76 21
-1.5716175 0.82613003 -0.081171617 73 20
-1.6191617 0.59738564 -0.11705674 73 19
-1.573438 0.82778454 -0.15647767 72 18
-1.6311823 0.60213101 -0.19503568 69 17
-1.5711955 0.82729518 -0.24186261 69 16
-1.6248407 0.59917563 -0.29585171 66 15
-1.5629812 0.82604915 -0.49592903 56 13
-1.6196985 0.59666544 -0.38733897 61 14
-1.5611513 0.82713848 -0.59902233 56 12
-1.6215308 0.59357607 -0.68424767 55 11
-1.567642 0.83679307 -0.92512059 63 9
-1.6206746 0.59138668 -0.79396296 59 10
-1.5712557 0.84254897 -1.0565451 62 8
-0.7822898 0.28320843 -0.53947592 34 7
-0.62290722 0.334748 -0.51194286 77 6
-0.60748261 0.21810652 -0.51689917 90 5
-0.23792738 0.12724173 -0.22457777 51 4
-0.23424104 0.084982865 -0.22742899 76 3
-0.21844022 0.11763611 -0.2518667 19 2
-0.29409233 0.10443196 -0.36392909 10 1
-0.28227875 0.15412202 -0.40348825 7 0
-1.6230477 0.60048032 0.45245194 56 31
-1.5587524 0.82626748 0.40019363 69 30
-1.6230444 0.602063 0.32725447 67 29
-1.5609313 0.82674843 0.27082774 73 28
-1.6213074 0.60300475 0.20690867 70 27
-1.5702989 0.83173883 0.16651392 76 26
-1.6266975 0.60564035 0.11834107 72 25
-1.5668092 0.82989168 0.081055157 73 24
-1.6205401 0.60399514 0.039342295 76 23
-1.5661244 0.82987833 0 73 22
-1.6250149 0.60630155 -0.039458349 76 21
-1.5665193 0.83043861 -0.081055157 72 20
-1.6169612 0.60331607 -0.11705674 73 19
-1.5681955 0.83237582 -0.15625413 73 18
-1.6290706 0.60782123 -0.19503568 69 17
-1.5681527 0.83304834 -0.24186261 70 16
-1.6250483 0.60570061 -0.2962811 66 15
-1.5643275 0.83376628 -0.49730471 55 13
-1.6175007 0.60259783 -0.38733897 61 14
-1.5603367 0.83369893 -0.59983951 56 12
-1.6194489 0.59923273 -0.68424767 54 11
-1.566507 0.84358257 -0.92629313 62 9
-1.6186005 0.5970403 -0.79396296 63 10
-1.5645438 0.84598804 -1.0539587 62 8
-0.78129649 0.28593743 -0.53947592 33 7
-0.62697071 0.33978206 -0.5164867 80 6
-0.6049211 0.21958281 -0.51528388 90 5
-0.23589987 0.12719786 -0.22285026 54 4
-0.23070917 0.084659293 -0.22379012 72 3
-0.21518669 0.11686133 -0.24805054 18 2
-0.29658824 0.10645184 -0.36790645 10 1
-0.28173906 0.15510643 -0.40348825 7 0
-1.6232053 0.60698485 0.45309645 56 31
-1.5580051 0.83285445 0.40075725 66 30
-1.6232326 0.60858333 0.32772809 65 29
-1.558036 0.83219206 0.27082774 72 28
-1.6168684 0.60779059 0.20660573 72 27
-1.5719199 0.83929133 0.16698968 74 26
-1.6245736 0.61131495 0.11834107 72 25
-1.5639026 0.83535582 0.081055157 73 24
-1.6184219 0.60964823 0.039342295 76 23
-1.5698286 0.83888304 0 73 22
-1.6253355 0.6125651 -0.039516374 74 21
-1.5636109 0.83590168 -0.081055157 72 20
-1.6148455 0.60895663 -0.11705674 73 19
-1.5698147 0.8399263 -0.15670121 73 18
-1.6269391 0.61350405 -0.19503568 69 17
-1.5653816 0.83824396 -0.24186261 69 16
-1.6229241 0.61136943 -0.2962811 66 15
-1.5614076 0.83922178 -0.49730471 55 13
-1.6200576 0.60966843 -0.38845521 59 14
-1.5636528 0.84251064 -0.60229117 58 12
-1.619625 0.60540795 -0.68518502 55 11
-1.5656402 0.84982866 -0.92746568 61 9
-1.6186279 0.6034739 -0.79502583 62 10
-1.5673614 0.85425097 -1.0578382 63 8
-0.77446109 0.28652734 -0.53527224 32 7
-0.62235636 0.33993989 -0.51345748 78 6
-0.60239518 0.22093876 -0.51366854 90 5
-0.24021377 0.13061602 -0.22803281 52 4
-0.23850214 0.088302433 -0.23288728 74 3
-0.21620582 0.11836625 -0.24995862 17 2
-0.29623362 0.10743478 -0.36790645 10 1
-0.28122315 0.15603985 -0.40348825 7 0
-1.6211836 0.61236429 0.45309645 58 31
-1.5595204 0.84033251 0.40188456 66 30
-1.6212056 0.61396283 0.32772809 65 29
-1.5552676 0.83735406 0.27082774 72 28
-1.614844 0.61314905 0.20660573 72 27
-1.5689807 0.84477323 0.16698968 74 26
-1.6248699 0.61758167 0.11851459 72 25
-1.5633211 0.84172392 0.081171617 72 24
-1.6163913 0.61501181 0.039342295 76 23
-1.5648386 0.84289587 0 72 22
-1.6185136 0.61646235 -0.039400321 76 21
-1.5608305 0.84108222 -0.081055157 72 20
-1.6151493 0.61519283 -0.11722939 73 19
-1.5668732 0.84540093 -0.15670121 70 18
-1.6295403 0.62065738 -0.19560429 70 17
-1.5624461 0.84370303 -0.24186261 69 16
-1.6231909 0.61762047 -0.29671049 65 15
-1.5607278 0.84554255 -0.49799252 55 13
-1.6179196 0.61531973 -0.38845521 59 14
-1.5608503 0.84769124 -0.60229117 55 12
-1.617502 0.61105776 -0.68518502 54 11
-1.5645995 0.8563512 -0.92863816 61 9
-1.614499 0.60804385 -0.79396296 63 10
-1.56437 0.85971689 -1.0578382 63 8
-0.7754485 0.2898123 -0.53667343 32 7
-0.62638211 0.3450076 -0.51800138 81 6
-0.59803611 0.22172995 -0.51043797 90 5
-0.23818046 0.13056935 -0.22630529 52 4
-0.23819245 0.089134425 -0.23288728 73 3
-0.21860145 0.120714 -0.25377479 14 2
-0.29442906 0.10796147 -0.36591777 10 1
-0.27816212 0.15558331 -0.3994126 7 0
-1.6190362 0.61801958 0.45309645 58 31
-1.5523 0.84344006 0.40075725 66 30
-1.6190525 0.61961812 0.32772809 63 29
-1.5501661 0.84159672 0.27044141 74 28
-1.615012 0.61966783 0.20690867 72 27
-1.5703934 0.85262507 0.16746543 74 26
-1.6250336 0.62414062 0.11868811 72 25
-1.5625668 0.84837008 0.081288077 73 24
-1.6164604 0.62182611 0.039400321 76 23
-1.5640823 0.84954906 0 72 22
-1.6186855 0.62300259 -0.039458349 74 21
-1.5599297 0.84799266 -0.081171617 70 20
-1.6153208 0.62171954 -0.11740204 73 19
-1.5682842 0.85325056 -0.15714829 70 18
-1.6295737 0.62751514 -0.19588861 69 17
-1.5616647 0.85033876 -0.24220666 70 16
-1.6209164 0.62356555 -0.29671049 65 15
-1.5618335 0.85356784 -0.49936819 56 13
-1.6180377 0.62183452 -0.38901332 59 14
-1.5598034 0.85454422 -0.60310835 58 12
-1.6130852 0.61615837 -0.68424767 55 11
-1.5616008 0.86180747 -0.92863816 61 9
-1.6186073 0.61636341 -0.79715157 58 10
-1.5649482 0.86752456 -1.0604247 63 8
-0.77050275 0.29120168 -0.533871 33 7
-0.62511337 0.34730107 -0.51800138 80 6
-0.60437816 0.22656703 -0.51689917 90 5
-0.23298225 0.12877104 -0.22112274 61 4
-0.23142083 0.087657839 -0.22560956 74 3
-0.21817875 0.12147632 -0.25377479 12 2
-0.29830897 0.11057568 -0.37188384 11 1
-0.28135407 0.15877146 -0.40552607 7 0
-1.6167601 0.62394947 0.45309645 58 31
-1.5491983 0.8491239 0.40075725 66 30
-1.6190611 0.62643057 0.32820165 65 29
-1.5514009 0.8496511 0.2712141 72 28
-1.6173599 0.62737125 0.20751455 70 27
-1.5694392 0.8595733 0.1677033 72 26
-1.6227353 0.6300925 0.11868811 72 25
-1.557258 0.85288918 0.081171617 72 24
-1.6142801 0.62746483 0.039400321 76 23
-1.5653398 0.85768396 0 73 22
-1.6163913 0.62893116 -0.039458349 74 21
-1.5613368 0.85583884 -0.08140453 70 20
-1.6083802 0.62583363 -0.11705674 73 19
-1.5651463 0.85899287 -0.15714829 70 18
-1.6227415 0.6314047 -0.19532 69 17
-1.5628754 0.85844642 -0.24289475 67 16
-1.6141362 0.62744176 -0.29585171 63 15
-1.5588444 0.85901451 -0.49936819 55 13
-1.6112021 0.62600213 -0.38789707 59 14
-1.556811 0.85998368 -0.60310835 55 12
-1.6109245 0.62178528 -0.68424767 55 11
-1.5603594 0.86860174 -0.9298107 61 9
-1.616446 0.62200969 -0.79715157 59 10
-1.5600443 0.87193561 -1.0591314 63 8
-0.77141809 0.29462165 -0.53527224 36 7
-0.62043375 0.34752461 -0.51497209 81 6
-0.60179627 0.22800744 -0.51528388 90 5
-0.23567046 0.13137476 -0.22457777 55 4
-0.23272221 0.089057989 -0.22742899 73 3
-0.21353409 0.11985441 -0.24805054 12 2
-0.29792118 0.1116163 -0.37188384 10 1
-0.27704167 0.1575698 -0.3994126 7 0
-1.616824 0.63046348 0.45374098 56 31
-1.5462248 0.85452634 0.40075725 66 30
-1.6168647 0.63207829 0.32820165 67 29
-1.5462649 0.85386449 0.27082774 73 28
-1.6105366 0.6312086 0.20690867 70 27
-1.5664291 0.86504644 0.1677033 72 26
-1.6251719 0.63756824 0.11903515 69 25
-1.556456 0.85952973 0.081288077 72 24
-1.6144074 0.63400614 0.039458349 72 23
-1.56671 0.86556607 0 72 22
-1.6188407 0.63639188 -0.039574403 74 21
-1.5561559 0.86007297 -0.081288077 70 20
-1.6108304 0.63326252 -0.11740204 73 19
-1.5621383 0.86445099 -0.15714829 70 18
-1.6228402 0.63797075 -0.19560429 69 17
-1.5598693 0.86389667 -0.24289475 69 16
-1.6165235 0.63486642 -0.29671049 62 15
-1.5579361 0.86562067 -0.50005603 54 13
-1.6135466 0.63339698 -0.38901332 59 14
-1.5558623 0.86656511 -0.60392559 56 12
-1.6130651 0.62908238 -0.6861223 54 11
-1.5553938 0.87295991 -0.92863816 59 9
-1.6163751 0.62846506 -0.79821444 62 10
-1.5607162 0.87948173 -1.0617179 63 8
-0.76264888 0.29435691 -0.52966726 32 7
-0.62094522 0.35067245 -0.5164867 80 6
-0.60456675 0.231455 -0.51851451 90 5
-0.23521045 0.13219661 -0.22457777 58 4
-0.23562331 0.091066763 -0.23106785 73 3
-0.21590739 0.12222266 -0.2518667 12 2
-0.3017965 0.11422119 -0.37784988 10 1
-0.27399075 0.15707196 -0.39533696 7 0
-1.6146135 0.63610345 0.45374098 58 31
-1.5474849 0.86229509 0.40188456 66 30
-1.6100798 0.63592142 0.32725447 65 29
-1.5454314 0.86046106 0.2712141 72 28
-1.6106318 0.63773686 0.20721161 69 27
-1.565725 0.87144917 0.16794118 73 26
-1.6206166 0.64232153 0.11886163 72 25
-1.5512657 0.86373997 0.081171617 73 24
-1.6121845 0.63963765 0.039458349 73 23
-1.5614965 0.86981034 0 73 22
-1.6167215 0.64175665 -0.039574403 74 21
-1.555324 0.86671805 -0.08140453 69 20
-1.6109295 0.63979882 -0.1175747 73 19
-1.5614363 0.8708421 -0.15737183 70 18
-1.6229132 0.6445452 -0.19588861 69 17
-1.5591567 0.87027413 -0.24323879 69 16
-1.6165882 0.64141035 -0.29713988 65 15
-1.5549051 0.87105358 -0.50005603 54 13
-1.6069038 0.63695472 -0.38789707 61 14
-1.5548865 0.87315023 -0.60474283 56 12
-1.6088126 0.63358206 -0.68518502 55 11
-1.5563313 0.8802923 -0.93098325 59 9
-1.6120641 0.63327932 -0.79715157 61 10
-1.5596502 0.88571149 -1.0630112 62 8
-0.76741111 0.29925427 -0.533871 33 7
-0.60942852 0.3467899 -0.50739902 78 6
-0.60201305 0.23277846 -0.51689917 90 5
-0.23477077 0.13297586 -0.22457777 58 4
-0.23692474 0.092451423 -0.23288728 70 3
-0.21689472 0.12375439 -0.25377479 11 2
-0.29999554 0.11469477 -0.3758612 10 1
-0.27596271 0.1594519 -0.3994126 7 0
-1.6124953 0.64145422 0.45374098 58 31
-1.5424948 0.86622667 0.40132093 65 30
-1.6148062 0.64397526 0.32867527 66 29
-1.5425696 0.86558121 0.2712141 73 28
-1.6062026 0.64215648 0.20690867 69 27
-1.5626736 0.87690926 0.16794118 72 26
-1.6184777 0.6476922 0.11886163 72 25
-1.5505694 0.87010425 0.081288077 73 24
-1.6100545 0.64498031 0.039458349 72 23
-1.5586035 0.87498367 0 70 22
-1.6121503 0.64646918 -0.039516374 74 21
-1.5546173 0.87309653 -0.081520997 69 20
-1.6087989 0.64513737 -0.1175747 73 19
-1.5583869 0.87628722 -0.15737183 70 18
-1.6230735 0.65084463 -0.19617291 67 17
-1.5582657 0.87692839 -0.24358284 66 16
-1.6121646 0.64585495 -0.29671049 63 15
-1.556191 0.8785736 -0.5014317 54 13
-1.6069343 0.64346266 -0.38845521 59 14
-1.5581466 0.88180053 -0.60719448 56 12
-1.6109005 0.64090109 -0.68705964 54 11
-1.5551655 0.88681579 -0.93215573 59 9
-1.6120598 0.63945276 -0.79821444 61 10
-1.5602596 0.8932814 -1.0655974 62 8
-0.76641452 0.30179745 -0.533871 32 7
-0.61165744 0.35090703 -0.51042825 73 6
-0.60475761 0.23625104 -0.5201298 90 5
-0.23430517 0.13379456 -0.22457777 61 4
-0.23499799 0.092668474 -0.23106785 74 3
-0.21367952 0.12286817 -0.24995862 11 2
-0.30384934 0.11733589 -0.38182727 10 1
-0.26669228 0.15523103 -0.38514787 4 0
-1.6146182 0.64915562 0.45503002 58 31
-1.5414273 0.87307745 0.40188456 65 30
-1.6124351 0.64988947 0.32867527 63 29
-1.5415348 0.87244844 0.27160043 70 28
-1.6107446 0.65081835 0.20781749 69 27
-1.5572846 0.88140231 0.1677033 74 26
-1.6207196 0.65548348 0.11920867 69 25
-1.5495416 0.87701422 0.08140453 72 24
-1.6076798 0.65087712 0.039458349 72 23
-1.55756 0.88192481 0 72 22
-1.6120878 0.65330923 -0.039574403 73 21
-1.5492353 0.87755513 -0.08140453 69 20
-1.6064236 0.65102959 -0.1175747 73 19
-1.5616579 0.88568622 -0.15804245 69 18
-1.6206771 0.65678912 -0.19617291 69 17
-1.5571932 0.88385886 -0.24392687 67 16
-1.6166393 0.65452254 -0.29799867 65 15
-1.5550474 0.8854633 -0.50211954 54 13
-1.6090854 0.65116984 -0.38957146 58 14
-1.5569545 0.88867939 -0.60801172 55 12
-1.6128439 0.64852399 -0.68893427 54 11
-1.5519048 0.89250976 -0.93215573 59 9
-1.6118068 0.64619583 -0.79927731 61 10
-1.556975 0.89899403 -1.0655974 62 8
-0.76722938 0.3053636 -0.53527224 33 7
-0.61380309 0.35515109 -0.51345748 76 6
-0.59855407 0.23638758 -0.51528388 90 5
-0.23069941 0.13281752 -0.22112274 59 4
-0.23945779 0.095374987 -0.23652615 66 3
-0.2160036 0.12530327 -0.25377479 10 2
-0.2991671 0.11683854 -0.3758612 10 1
-0.26487967 0.15546243 -0.38311005 7 0
-1.6101031 0.65388209 0.45438549 58 31
-1.5425974 0.88087362 0.40301186 66 30
-1.6124316 0.65643632 0.32914886 63 29
-1.5406238 0.87905085 0.27198678 73 28
-1.6061643 0.65550256 0.20751455 70 27
-1.5585185 0.889305 0.16817905 72 26
-1.6161116 0.66019702 0.11903515 72 25
-1.5464706 0.88241774 0.08140453 72 24
-1.6077127 0.65742773 0.039516374 73 23
-1.5566416 0.88859844 0 72 22
-1.6167407 0.66176307 -0.039748482 74 21
-1.5504967 0.88543975 -0.08163745 69 20
-1.6087604 0.65851611 -0.11792 73 19
-1.5628769 0.89360917 -0.15848951 69 18
-1.6137747 0.66056699 -0.19560429 67 17
-1.5540984 0.88928902 -0.24392687 67 16
-1.6143446 0.66016167 -0.29799867 65 15
-1.5519471 0.89088601 -0.50211954 52 13
-1.6090598 0.65770143 -0.39012957 58 14
-1.5517967 0.89292771 -0.60719448 55 12
-1.6062732 0.652412 -0.68705964 54 11
-1.5525973 0.90014148 -0.93450081 58 9
-1.6095414 0.65181816 -0.79927731 61 10
-1.5538274 0.90442336 -1.0655974 61 8
-0.7623117 0.30650815 -0.53246975 34 7
-0.60398746 0.35225013 -0.50588435 76 6
-0.59417439 0.23707746 -0.51205325 90 5
-0.23178808 0.13454488 -0.22285026 63 4
-0.23432885 0.0943477 -0.23106785 67 3
-0.21971996 0.12855017 -0.25949904 11 2
-0.3015871 0.11896548 -0.37983856 10 1
-0.26433539 0.15638609 -0.38311005 4 0
-1.612283 0.66132528 0.4556745 56 31
-1.5416225 0.88747072 0.40357554 66 30
-1.6078588 0.66113049 0.32867527 63 29
-1.5418249 0.88689172 0.27275947 70 28
-1.6084577 0.66299003 0.20812044 67 27
-1.557717 0.89571154 0.16841693 72 26
-1.6184108 0.66773021 0.11938219 69 25
-1.5455444 0.88905853 0.081520997 72 24
-1.6077194 0.66398644 0.039574403 72 23
-1.5556957 0.89527637 0 69 22
-1.6076035 0.66426706 -0.039574403 73 21
-1.545234 0.88959801 -0.081520997 69 20
-1.6041455 0.66317815 -0.11774734 70 19
-1.557749 0.89754122 -0.15826598 70 18
-1.6137557 0.66714174 -0.19588861 69 17
-1.5532845 0.89567727 -0.24427092 66 16
-1.614308 0.66672963 -0.29842806 65 15
-1.5509067 0.89750445 -0.50280738 54 13
-1.6068699 0.6630336 -0.39012957 58 14
-1.5507127 0.89952719 -0.60801172 56 12
-1.6062465 0.658611 -0.68799692 54 11
-1.5534137 0.90751779 -0.93684584 56 9
-1.6051607 0.65657896 -0.79821444 63 10
-1.5508198 0.90957117 -1.0655974 62 8
-0.76892054 0.3122575 -0.53807467 40 7
-0.6028161 0.35425109 -0.50588435 76 6
-0.59870428 0.2411612 -0.51689917 90 5
-0.22668877 0.13252871 -0.2176677 66 4
-0.22922635 0.093245782 -0.22560956 72 3
-0.21791022 0.12844227 -0.25759095 10 2
-0.30260396 0.12051129 -0.38182727 10 1
