# .PCD v0.7 - Point Cloud Data file format
VERSION 0.7
FIELDS x y z intensity ring
SIZE 4 4 4 4 2
TYPE F F F F U
COUNT 1 1 1 1 1
WIDTH 1033
HEIGHT 1
VIEWPOINT 0 0 0 1 0 0 0
POINTS 1033
DATA ascii
0.95379043 -0.060635712 0.088014498 52 26
0.95356172 -0.064131118 0.088014498 54 26
0.95334387 -0.067292891 0.088014498 54 26
0.95310318 -0.070620276 0.088014498 54 26
0.95533162 -0.074145079 0.088252373 54 26
0.96599072 -0.075003192 0.043555502 8 24
0.95753348 -0.077853434 0.088490255 54 26
0.96570933 -0.078543223 0.043555502 29 24
0.95479071 -0.0808127 0.088252373 54 26
0.96294135 -0.081696913 0.043439046 54 24
0.96441698 -0.085042074 0.089203887 55 26
0.96763945 -0.085339755 0.043671962 61 24
0.95915878 -0.087942183 0.088728137 54 26
0.96982199 -0.088950641 0.043788418 65 24
0.95636898 -0.091048181 0.088490255 54 26
0.96702009 -0.092093013 0.043671962 67 24
0.96098089 -0.095054105 0.088966012 52 26
0.96916062 -0.095888212 0.043788418 67 24
0.99005705 -0.098177955 0 8 22
0.95818526 -0.097981468 0.088728137 50 26
0.96882004 -0.099270627 0.043788418 67 24
0.98224926 -0.10085064 0 14 22
0.9627859 -0.10186052 0.089203887 37 26
0.97096831 -0.1027512 0.043904878 39 24
0.97693855 -0.10356908 0 48 22
0.96737105 -0.10577288 0.089679644 18 26
0.9755674 -0.10669404 0.044137795 50 24
0.98154002 -0.10753421 0 54 22
0.97192138 -0.10988811 0.090155393 11 26
0.97020823 -0.10969662 0.043904878 67 24
0.9811393 -0.111131 0 55 22
0.9715516 -0.11311051 0.090155393 11 26
0.9772588 -0.11396708 0.044254255 67 24
0.98322785 -0.11485072 0 55 22
0.97609138 -0.11710517 0.09063115 12 26
0.97687548 -0.11720716 0.044254255 73 24
0.98036015 -0.11780679 0 56 22
0.98179203 -0.11815597 -0.044487171 10 20
0.98308426 -0.1214435 0.091344781 12 26
0.97398269 -0.12030467 0.044137795 69 24
0.98242337 -0.12154063 0 54 22
0.97887474 -0.12144063 -0.044370711 32 20
0.97522849 -0.12408686 0.09063115 14 26
0.97105867 -0.12355292 0.044021338 70 24
0.97949207 -0.12481902 0 12 22
0.98587435 -0.12582172 -0.044720087 54 20
0.97478938 -0.1274903 0.09063115 48 26
0.97557235 -0.12760064 0.044254255 66 24
0.98152852 -0.12856753 0 7 22
0.99533051 -0.13058341 -0.04518592 55 20
0.97926986 -0.13156596 0.091106899 59 26
0.97512096 -0.13100524 0.044254255 65 24
0.98355067 -0.13233177 0 4 22
0.98744607 -0.13304022 -0.044836547 59 20
0.98129284 -0.13515766 0.091344781 69 26
0.97962755 -0.13493066 0.044487171 61 24
0.98558217 -0.1359397 0 7 22
0.98947251 -0.13666108 -0.044953004 61 20
1.0038704 -0.13921173 -0.087851033 10 18
0.98081505 -0.13858218 0.091344781 66 26
0.97915053 -0.13834938 0.044487171 61 24
0.99252534 -0.14044631 0 7 22
0.99143678 -0.14064297 -0.045069464 62 20
1.013236 -0.14413907 -0.088745192 8 18
0.98522472 -0.1429015 0.091820531 66 26
0.98357815 -0.1426651 0.044720087 55 24
0.98211098 -0.14262405 0 7 22
0.99341023 -0.14446767 -0.04518592 63 20
1.0053116 -0.14675668 -0.088074572 39 18
0.98474544 -0.14616784 0.091820531 63 26
0.98554349 -0.14647013 0.044836547 55 24
0.99149495 -0.14754502 0 8 22
1.0027766 -0.14942816 -0.045651756 65 20
1.0072813 -0.15046281 -0.088298112 50 18
0.98176968 -0.14922492 0.091582656 65 26
0.97764814 -0.14859524 0.044487171 18 24
0.98852956 -0.15045051 0 10 22
0.99733979 -0.15198945 -0.045418836 67 20
1.0042894 -0.15359618 -0.088074572 52 18
0.98615921 -0.15342706 0.092058413 65 26
0.98699039 -0.15356444 0.044953004 8 24
0.99787575 -0.15546113 0 10 22
0.9992426 -0.1560345 -0.045535296 67 20
1.0062063 -0.15749124 -0.088298112 51 18
0.98313349 -0.15664347 0.091820531 55 26
0.98642093 -0.15718089 0.044953004 7 24
0.99236345 -0.15831892 0 10 22
1.0011569 -0.15992084 -0.045651756 65 20
1.0056224 -0.16117811 -0.088298112 51 18
0.98012537 -0.15966868 0.091582656 56 26
0.97847462 -0.15940218 0.044603627 7 24
0.99673772 -0.16259772 0 11 22
0.99320138 -0.16219094 -0.04530238 65 20
1.0099664 -0.16550335 -0.088745192 51 18
0.97956204 -0.16308898 0.091582656 56 26
0.98776203 -0.16447915 0.045069464 7 24
0.98876894 -0.16482651 0 12 22
1.0000161 -0.16690628 -0.045651756 65 20
1.0020177 -0.16777816 -0.088074572 12 18
0.98146832 -0.16675873 0.091820531 54 26
0.98964286 -0.16835028 0.04518592 7 24
0.99557829 -0.16955224 0 17 22
0.99942738 -0.17039597 -0.045651756 67 20
1.0137234 -0.17322344 -0.089192271 8 18
0.9784292 -0.16975282 0.091582656 54 26
0.98907918 -0.17163113 0.04518592 8 24
0.99747276 -0.17328604 0 58 22
1.0062351 -0.17500891 -0.046001129 66 20
1.0155646 -0.17719418 -0.089415811 7 18
0.97804296 -0.17319283 0.14990181 55 28
0.98028022 -0.17360654 0.091820531 18 26
0.99584824 -0.17640544 0.045535296 7 24
0.99686182 -0.1767668 0 63 22
1.0031602 -0.17807846 -0.045884673 65 20
1.0296426 -0.18338881 -0.09075705 7 18
0.97254246 -0.1758863 0.14912911 56 28
0.98698109 -0.17854348 0.092534162 11 26
0.99028212 -0.17915432 0.04530238 7 24
0.99866623 -0.18087016 0 65 22
1.0049571 -0.18220484 -0.046001129 67 20
1.0216171 -0.18580909 -0.090086423 8 18
0.96949464 -0.17882656 0.14874277 61 28
0.9887982 -0.18244456 0.092772037 10 26
0.99701518 -0.18398553 0.045651756 7 24
0.99802876 -0.18435505 0 65 22
1.0092244 -0.18663046 -0.046234049 65 20
1.0258567 -0.1902927 -0.090533502 8 18
0.9688645 -0.18220964 0.14874277 59 28
0.97840846 -0.18386233 0.091820531 11 26
0.99636686 -0.18746464 0.045651756 7 24
0.99492341 -0.18736969 0 59 22
1.0085667 -0.19015217 -0.046234049 63 20
1.02522 -0.19369353 -0.090533502 8 18
0.97067976 -0.18589152 0.14912911 56 28
0.98753345 -0.18917081 0.092772037 11 26
0.99083644 -0.18981723 0.045418836 4 24
0.99675089 -0.19114411 0 56 22
1.0079306 -0.19349565 -0.046234049 25 20
1.0220937 -0.19679508 -0.09030997 8 18
0.96517867 -0.18832172 0.14835642 59 28
0.98930866 -0.19309889 0.093009919 11 26
0.97809833 -0.062794045 0.065764315 8 25
0.99261785 -0.19375853 0.045535296 19 24
0.99853009 -0.19510698 0 55 22
1.0023152 -0.19621849 -0.046001129 19 20
1.0214005 -0.20036165 -0.09030997 8 18
0.97416753 -0.19380745 0.14990181 55 28
0.99347377 -0.19770569 0.093485668 23 26
0.98283893 -0.066703886 0.066111363 15 25
0.99679738 -0.19838086 0.045768213 23 24
0.99535751 -0.19827175 0 44 22
1.0114162 -0.20169045 -0.046466965 43 20
1.0157781 -0.20311704 -0.089862891 29 18
0.96864569 -0.19621514 0.14912911 58 28
0.98549843 -0.19950168 0.092772037 43 26
0.97264779 -0.069448769 0.065417275 37 25
0.99854523 -0.20236041 0.045884673 8 24
0.99710834 -0.20224725 0 17 22
1.0082597 -0.20471758 -0.046350509 63 20
1.0175378 -0.20698588 -0.090086423 51 18
0.97524387 -0.2009377 0.15028815 55 28
0.98479599 -0.20294048 0.092772037 54 26
0.97489959 -0.072853416 0.065590799 44 25
0.99297911 -0.20465179 0.045651756 4 24
1.0037743 -0.20708384 0 12 22
1.0100199 -0.20857021 -0.046466965 70 20
1.0192463 -0.21104655 -0.09030997 54 18
0.97212023 -0.20382844 0.14990181 55 28
0.98895067 -0.20740911 0.093247794 52 26
0.97463936 -0.076256007 0.065590799 45 25
1.0069168 -0.2112243 0.046350509 4 24
0.99570864 -0.20902961 0 12 22
1.0092487 -0.21227072 -0.046466965 74 20
1.0209388 -0.21512163 -0.090533502 37 18
0.97136658 -0.20739007 0.14990181 54 28
0.9881838 -0.21103241 0.093247794 52 26
0.97683948 -0.080025144 0.065764315 44 25
0.9988125 -0.21333276 0.046001129 7 24
0.99982309 -0.21373343 0 12 22
1.0060607 -0.21526462 -0.046350509 69 20
1.027444 -0.22044455 -0.091204129 8 18
0.97063673 -0.2107795 0.14990181 52 28
0.99230272 -0.21554764 0.09372355 51 26
0.97406876 -0.083228365 0.065590799 44 25
1.0102578 -0.219495 0.046583425 7 24
0.98103946 -0.084145136 0.022050254 10 23
1.0039545 -0.21829501 0 54 22
1.0126202 -0.22038387 -0.046699882 66 20
1.0242364 -0.22349365 -0.090980582 4 18
0.97471642 -0.21524233 0.15067449 51 28
0.99154437 -0.2190101 0.09372355 15 26
0.97377235 -0.086627997 0.065590799 44 25
0.99973619 -0.22084445 0.046117589 10 24
0.97077984 -0.086704724 0.021818146 21 23
1.0031865 -0.22179814 0 66 22
1.0142819 -0.224462 -0.046816342 61 20
1.0185907 -0.22597867 -0.090533502 3 18
0.97399729 -0.21847342 0.15067449 51 28
0.9980939 -0.22394726 0.094437182 7 26
0.97347963 -0.089856662 0.065590799 17 25
1.006305 -0.22581448 0.046466965 8 24
0.98293316 -0.091045208 0.022108281 44 23
1.0097595 -0.22678266 0 62 22
1.013532 -0.22782426 -0.046816342 61 20
1.0299753 -0.2321177 -0.091651201 4 18
0.97322875 -0.22187197 0.15067449 48 28
0.9997313 -0.22798845 0.094675057 3 26
0.97812647 -0.09371753 0.065937839 11 25
1.0128113 -0.23100723 0.046816342 8 24
0.98508126 -0.094880693 0.022166308 47 23
1.0065256 -0.22974448 0 65 22
1.0102569 -0.23097573 -0.046699882 59 20
1.0218809 -0.23402864 -0.090980582 7 18
0.97721887 -0.22656389 0.15144718 48 28
1.0085814 -0.23392087 0.09562657 4 26
0.97777641 -0.097301923 0.065937839 7 25
1.0046632 -0.23300959 0.046466965 10 24
0.98723167 -0.098560847 0.022224335 48 23
1.0081109 -0.23400247 0 65 22
1.0191697 -0.23678179 -0.047165714 54 20
1.0331358 -0.24062176 -0.092098281 7 18
0.98122782 -0.23111679 0.15221988 45 28
1.0126425 -0.23841511 0.09610232 4 26
0.97991228 -0.10096384 0.066111363 4 25
1.0111322 -0.23824878 0.046816342 10 24
0.98439491 -0.10175548 0.022166308 51 23
1.00972 -0.23809893 0 62 22
1.0134783 -0.23918045 -0.046932798 39 20
1.0371761 -0.24520223 -0.09254536 8 18
0.98045599 -0.23436938 0.15221988 11 28
0.98478413 -0.10441274 0.11663227 52 27
1.0118041 -0.24194843 0.09610232 7 26
0.98205274 -0.10447045 0.06628488 4 25
1.0079091 -0.24101454 0.046699882 18 24
0.98653793 -0.10527839 0.022224335 51 23
1.011355 -0.24203302 0 61 22
1.0113587 -0.10822224 -0.022804603 10 21
1.0126796 -0.24253994 -0.046932798 8 20
1.0338941 -0.24823484 -0.092321828 8 18
0.97963202 -0.23779038 0.15221988 4 28
0.96960878 -0.10626485 0.11481462 54 27
1.0061193 -0.24429409 0.09562657 8 26
0.98664141 -0.10843045 0.066631921 4 25
1.0119126 -0.24572016 0.046932798 54 24
0.98614538 -0.10889352 0.022224335 51 23
1.008076 -0.24496631 0 61 22
0.99855065 -0.11040876 -0.02251447 14 21
1.0190595 -0.24803704 -0.047282174 4 20
1.0330212 -0.25184229 -0.092321828 8 18
0.98834115 -0.24376614 0.15376526 4 28
0.97167933 -0.11009111 0.11511756 54 27
1.0100468 -0.24918249 0.09610232 10 26
0.99119478 -0.11259675 0.066978961 7 25
1.0134286 -0.25003067 0.047049258 54 24
0.99072725 -0.11288887 0.022340389 51 23
1.012023 -0.24986823 0 59 22
0.99565542 -0.11379015 -0.022456443 40 21
1.010918 -0.24978025 -0.046932798 4 20
1.0320913 -0.2556268 -0.092321828 8 18
0.98269469 -0.24600445 0.15299256 4 28
0.97375458 -0.113764 0.11542051 54 27
1.0115837 -0.25331631 0.096340194 8 26
0.99079579 -0.11605599 0.066978961 7 25
1.0101284 -0.2529549 0.046932798 55 24
0.99281007 -0.116632 0.022398416 51 23
1.0159919 -0.25462502 0 56 22
0.9927693 -0.11697855 -0.022398416 45 21
1.0148821 -0.25453272 -0.047165714 4 20
1.0336062 -0.25983995 -0.09254536 10 18
0.99618554 -0.25311372 0.15531063 7 28
0.97088706 -0.11687197 0.11511756 55 27
1.0155597 -0.25790477 0.096815944 10 26
0.98047775 -0.11834299 0.06628488 7 25
1.0164964 -0.25834 0.047282174 54 24
0.98495102 -0.11921424 0.022224335 52 23
1.0126755 -0.25754863 0 55 22
0.99237591 -0.12027004 -0.022398416 48 21
1.0236627 -0.26055798 -0.047631547 7 20
1.0303273 -0.26264605 -0.092321828 12 18
0.9953407 -0.25641581 0.15531063 10 28
0.97788477 -0.12098657 0.11602639 54 27
1.0146533 -0.26144814 0.096815944 10 26
0.9875071 -0.12249646 0.066805445 8 25
1.0108001 -0.26045296 0.047049258 54 24
0.98951226 -0.12308466 0.022340389 52 23
1.0166548 -0.26216406 0 54 22
0.98946923 -0.12343007 -0.022340389 50 21
1.0203762 -0.26332206 -0.047515094 4 20
1.0318135 -0.26686943 -0.09254536 54 18
1.003993 -0.26240742 0.15685602 12 28
0.97499394 -0.12409213 0.11572345 54 27
1.0065153 -0.26308501 0.09610232 23 26
0.98459876 -0.1256332 0.066631921 8 25
1.0147145 -0.26525307 0.047282174 54 24
0.99153429 -0.1270221 0.022398416 52 23
1.0133162 -0.26507348 0 12 22
0.99399185 -0.12750711 -0.022456443 48 21
1.0194043 -0.26706013 -0.047515094 4 20
1.0142282 -0.13005893 -0.068369426 8 19
1.0308757 -0.27046949 -0.09254536 58 18
1.0054104 -0.2667239 0.15724234 11 28
0.97699398 -0.12798102 0.11602639 55 27
1.0055442 -0.2667723 0.09610232 54 26
0.98660529 -0.12955973 0.066805445 10 25
1.0185602 -0.27026138 0.047515094 55 24
0.9886061 -0.13016225 0.022340389 51 23
1.0268276 -0.27266544 0 8 22
0.99847507 -0.13179147 -0.022572497 34 21
1.0281146 -0.27320227 -0.047980927 4 20
0.98901111 -0.13057181 -0.066642925 23 19
1.034687 -0.27553746 -0.09299244 55 18
0.99970579 -0.26893827 0.15646966 14 28
0.96916062 -0.13041627 0.11511756 56 27
1.0094105 -0.27158397 0.096578076 56 26
0.99109185 -0.13365734 0.067152485 10 25
1.0176107 -0.27381516 0.047515094 58 24
0.99310094 -0.13427 0.022456443 51 23
1.0258695 -0.27624807 0 8 22
0.99305403 -0.13461664 -0.022456443 12 21
1.0223348 -0.27547988 -0.047748011 4 20
0.99843812 -0.13533926 -0.067333527 41 19
1.0313165 -0.27849343 -0.092768908 56 18
1.0035239 -0.27373645 0.15724234 11 28
0.97361761 -0.13446519 0.11572345 54 27
1.0156549 -0.27708596 0.097291701 55 26
0.99556178 -0.13778785 0.067499526 32 25
1.0238723 -0.27935261 0.047864471 55 24
0.99510264 -0.13807321 0.02251447 52 23
1.0273092 -0.28049079 0 8 22
1.0000069 -0.13909723 -0.022630524 11 21
1.0237746 -0.27970999 -0.047864471 4 20
1.007844 -0.14017411 -0.068024121 45 19
1.030338 -0.28209174 -0.092768908 55 18
1.0025623 -0.27723771 0.15724234 12 28
0.97068441 -0.137521 0.11542051 54 27
1.0074899 -0.27862433 0.096578076 59 26
0.9901346 -0.14057314 0.067152485 41 25
1.0228909 -0.28292489 0.047864471 55 24
0.9970898 -0.14189203 0.022572497 52 23
1.03114 -0.28541881 0 8 22
1.0044656 -0.143281 -0.022746576 10 21
1.0276027 -0.28462511 -0.048097387 12 20
1.0073485 -0.14369129 -0.068024121 47 19
1.034143 -0.28702822 -0.093215987 55 18
0.9968347 -0.27939224 0.15646966 37 28
0.98002529 -0.14231054 0.11663227 54 27
1.0089554 -0.28264013 0.096815944 58 26
0.99457556 -0.14473476 0.067499526 29 25
1.0170907 -0.28513545 0.047631547 52 24
0.99658847 -0.14537166 0.022572497 51 23
1.0277318 -0.28833619 0 12 22
1.0064589 -0.14696632 -0.022804603 8 21
1.0217969 -0.28685042 -0.047864471 19 20
1.0019035 -0.14649698 -0.067678824 48 19
1.0379769 -0.29181364 -0.093663067 52 18
0.99590266 -0.28269631 0.15646966 54 28
0.97463685 -0.14484231 0.11602639 54 27
1.0127479 -0.28752974 0.097291701 58 26
0.98915482 -0.14730945 0.067152485 14 25
1.0161395 -0.28850669 0.047631547 40 24
0.9961009 -0.14867567 0.022572497 45 23
1.0267699 -0.29174265 0 44 22
1.0009944 -0.14975099 -0.022688551 10 21
1.0280421 -0.292301 -0.048213843 4 20
1.0063472 -0.15054472 -0.068024121 47 19
1.0417384 -0.29680941 -0.094110139 52 18
0.99253762 -0.28548312 0.15608333 59 28
0.97657961 -0.14861079 0.11632933 51 27
1.0165185 -0.29244924 0.097767465 51 26
0.98616815 -0.15039143 0.066978961 11 25
1.0247203 -0.29483381 0.048097387 54 24
0.99554926 -0.15232557 0.022572497 26 23
1.0233443 -0.29462832 0 51 22
1.002937 -0.15361665 -0.022746576 14 21
1.0245658 -0.29537031 -0.048097387 4 20
1.0058155 -0.15405659 -0.068024121 47 19
1.0430869 -0.30113944 -0.094333678 51 18
0.99385428 -0.28981555 0.15646966 58 28
0.97602838 -0.15218912 0.11632933 51 27
1.020215 -0.29757667 0.098243214 33 26
0.99793541 -0.15589972 0.067846566 8 25
1.0236328 -0.29858762 0.048097387 58 24
0.99254137 -0.15541911 0.02251447 23 23
1.0318512 -0.30119881 0 51 22
1.0097773 -0.15843605 -0.022920657 39 21
1.0283198 -0.30035508 -0.048330303 4 20
1.0101737 -0.15850344 -0.068369426 32 19
1.0515293 -0.30777764 -0.09522783 50 18
0.99283659 -0.29328299 0.15646966 55 28
0.97303963 -0.15521039 0.11602639 48 27
1.0096294 -0.29829547 0.097291701 12 26
0.99984878 -0.15976976 0.068020083 7 25
1.0273712 -0.30358416 0.048330303 58 24
0.99693048 -0.15966131 0.022630524 47 23
1.0236057 -0.3026574 0 52 22
1.0042807 -0.16117963 -0.022804603 47 21
1.0272652 -0.30394277 -0.048330303 4 20
0.99976045 -0.16047147 -0.067678824 12 19
1.0504485 -0.31144628 -0.09522783 51 18
0.99653637 -0.29817295 0.15724234 55 28
0.97494209 -0.15899932 0.11632933 18 27
1.0205487 -0.30523214 0.098481089 11 26
1.0066719 -0.16444743 0.068540648 7 25
1.0239143 -0.30644754 0.048213843 59 24
0.99636704 -0.16314027 0.022630524 52 23
1.0225431 -0.30622864 0 54 22
1.0037408 -0.16450906 -0.022804603 50 21
1.0405421 -0.31185749 -0.049029056 7 20
1.0041184 -0.16475607 -0.068024121 8 19
1.0517935 -0.31564853 -0.095451377 51 18
1.0002669 -0.30291781 0.15801504 54 28
0.98420507 -0.1638373 0.11754109 10 27
1.019477 -0.30879268 0.098481089 12 26
1.0011991 -0.16697611 0.068193607 8 25
1.025281 -0.31057015 0.048330303 61 24
0.99828672 -0.16684948 0.022688551 52 23
1.0334769 -0.3132683 0 10 22
1.0080924 -0.16882561 -0.022920657 50 21
1.0442789 -0.31676579 -0.049261972 7 20
1.0011057 -0.16767891 -0.067851476 4 19
0.99448371 -0.30494922 0.15724234 56 28
0.98362714 -0.16727182 0.11754109 7 27
1.0255262 -0.31455344 0.099194728 55 26
1.0079888 -0.17170866 0.068714164 8 25
1.0265766 -0.31488436 0.04844676 55 24
0.99273926 -0.16967709 0.022572497 55 23
1.0299888 -0.31613547 0 4 22
1.0074968 -0.17234348 -0.022920657 50 21
1.0454963 -0.32132959 -0.049378429 10 20
1.0078923 -0.17241631 -0.068369426 4 19
1.0004309 -0.31080556 0.15840138 54 28
0.98789942 -0.17171383 0.11814697 3 27
1.0172412 -0.31607994 0.098481089 66 26
1.0048947 -0.17498004 0.068540648 10 25
1.0277988 -0.31939083 0.048563223 55 24
0.99706727 -0.17398874 0.022688551 54 23
1.0431376 -0.32439154 0 3 22
1.0117846 -0.17688408 -0.023036713 48 21
1.0419855 -0.32423031 -0.049261972 8 20
1.0097114 -0.17653292 -0.068542078 4 19
1.0016946 -0.31504184 0.15878774 54 28
0.97751606 -0.17345116 0.11693521 7 27
1.0209327 -0.32095399 0.098956846 65 26
0.99690813 -0.17719522 0.068020083 11 25
1.0290585 -0.32373086 0.048679676 54 24
1.0013771 -0.17833266 0.022804603 52 23
1.0348494 -0.32576427 0 4 22
0.99888438 -0.17807472 -0.022746576 23 21
1.045608 -0.32937574 -0.049494889 8 20
1.009089 -0.18005639 -0.068542078 4 19
1.0006443 -0.31836185 0.15878774 52 28
0.98915076 -0.17886984 0.11844991 7 27
1.0245459 -0.32603481 0.099432595 62 26
0.99877018 -0.18093875 0.068193607 12 25
1.0279793 -0.32714152 0.048679676 54 24
1.0007802 -0.18165237 0.022804603 52 23
1.0337635 -0.32919419 0 7 22
1.0031768 -0.18244301 -0.02286263 11 21
1.0492659 -0.33436728 -0.049727805 12 20
1.0158509 -0.18472277 -0.069060028 7 19
0.99482793 -0.32032874 0.15801504 43 28
0.99096185 -0.18276565 0.11875285 7 27
1.0210344 -0.32884136 0.099194728 66 26
1.0030396 -0.18531844 0.068540648 44 25
1.026831 -0.33072785 0.048679676 54 24
1.0001076 -0.1853192 0.022804603 51 23
1.0468755 -0.33743092 0 8 22
1.012368 -0.1877432 -0.02309474 7 21
1.0432831 -0.33666736 -0.049494889 52 20
1.0201064 -0.18916549 -0.069405325 7 19
0.99599385 -0.32474345 0.15840138 50 28
0.99028534 -0.18639649 0.11875285 8 27
1.0269154 -0.33491081 0.099908352 61 26
1.0023535 -0.18899351 0.068540648 50 25
1.0303571 -0.33604747 0.048912596 10 24
1.0019118 -0.18926713 0.02286263 51 23
1.0408816 -0.33970481 0 7 22
0.99938875 -0.18915795 -0.022804603 4 21
1.0421015 -0.34030706 -0.049494889 55 20
1.0145031 -0.19198726 -0.069060028 8 19
1.0018861 -0.33055463 0.15956043 54 28
0.98719037 -0.1893905 0.11844991 10 27
1.0281019 -0.33927813 0.10014623 58 26
1.0016878 -0.19249123 0.068540648 51 25
1.026808 -0.33885464 0.04879614 7 24
1.0061557 -0.19369651 0.022978684 51 23
1.0491788 -0.34649092 0 7 22
1.0085434 -0.19451521 -0.023036713 4 21
1.0480161 -0.34630737 -0.049844261 56 20
1.0187267 -0.19646032 -0.069405325 10 19
1.0054086 -0.33562383 0.16033313 54 28
0.99383312 -0.19424558 0.11935873 8 27
1.0293303 -0.34347811 0.1003841 58 26
0.99856114 -0.19551329 0.068367124 52 25
1.0327203 -0.3448239 0.049145512 4 24
1.0030198 -0.19673231 0.022920657 50 23
1.0455935 -0.34935418 0 7 22
1.0029855 -0.19690737 -0.022920657 4 21
1.0468009 -0.34996352 -0.049844261 58 20
1.0106897 -0.19859006 -0.068887375 15 19
1.0089675 -0.34054559 0.16110581 54 28
0.99318355 -0.19754019 0.11935873 10 27
1.0304815 -0.34786984 0.10062198 55 26
1.0052485 -0.20026784 0.068887688 51 25
1.0363001 -0.34985372 0.049378429 4 24
1.0072662 -0.20102401 0.023036713 48 23
1.0515298 -0.35523406 0 7 22
1.0121 -0.20234393 -0.023152767 4 21
1.0432706 -0.35262859 -0.049727805 62 20
1.0173659 -0.20338996 -0.069405325 44 19
1.0125426 -0.34608078 0.23955253 51 30
1.0054368 -0.34326255 0.16071945 54 28
0.99492133 -0.20149253 0.11966167 11 27
1.0339677 -0.35308275 0.10109774 52 26
1.0045433 -0.20377558 0.068887688 51 25
1.0327109 -0.35265717 0.049261972 4 24
1.0065227 -0.20471446 0.023036713 23 23
1.0384631 -0.35483697 0 10 22
1.0138377 -0.20636831 -0.023210794 7 21
1.0466933 -0.35807607 -0.049960721 59 20
1.0166497 -0.20694 -0.069405325 50 19
0.9974665 -0.34498367 0.2361706 52 30
1.0065048 -0.34775686 0.16110581 54 28
0.98931307 -0.20414655 0.11905579 30 27
1.0303161 -0.35605243 0.10085986 51 26
1.0062332 -0.20795499 0.069061212 50 25
1.03377 -0.35726029 0.049378429 7 24
1.0131478 -0.20972919 0.023210794 11 23
1.0371556 -0.35864076 0 54 22
1.0179714 -0.21108624 -0.023326848 7 21
1.0454371 -0.36172751 -0.049960721 59 20
1.0158844 -0.21066481 -0.069405325 52 19
0.99625623 -0.34846336 0.2361706 52 30
1.0052848 -0.35126811 0.16110581 52 28
0.98859435 -0.20759867 0.11905579 48 27
1.0385209 -0.36276874 0.10181136 10 26
1.0055012 -0.21146612 0.069061212 50 25
1.0372283 -0.36252403 0.049611345 4 24
1.0099627 -0.21275505 0.023152767 7 23
1.0382556 -0.36308885 0 55 22
1.0197126 -0.2149706 -0.023384873 7 21
1.0465237 -0.36620405 -0.050077178 59 20
1.0224674 -0.21573712 -0.069923274 51 19
0.99738973 -0.35258177 0.23673426 51 30
1.0064416 -0.35542709 0.16149215 51 28
0.98790056 -0.21087581 0.11905579 50 27
1.0302136 -0.36389086 0.10109774 4 26
1.0096747 -0.21583042 0.069408253 50 25
1.0336673 -0.36512509 0.049494889 4 24
1.0190321 -0.21817304 0.023384873 4 23
1.0394013 -0.36736766 0 55 22
1.0165111 -0.21801041 -0.023326848 8 21
1.0476563 -0.37050977 -0.050193641 58 20
1.0168667 -0.21809202 -0.06957797 52 19
0.99844486 -0.35688579 0.23729792 51 30
1.0098435 -0.36060899 0.16226484 52 28
0.9968639 -0.21640539 0.12026756 50 27
1.042989 -0.37253544 0.102525 4 26
1.0064769 -0.21882947 0.069234729 50 25
1.0394367 -0.37126514 0.049844261 4 24
1.0109344 -0.22015072 0.023210794 7 23
1.040465 -0.37183964 0 54 22
1.0230733 -0.22313803 -0.023500927 8 21
1.0487063 -0.37500998 -0.050310094 55 20
1.0185373 -0.22216602 -0.069750629 51 19
1.0017074 -0.36220896 0.23842523 50 30
1.0061938 -0.36346388 0.1618785 51 28
0.98636627 -0.21793963 0.11905579 51 27
1.0369389 -0.37465501 0.10204925 4 26
1.0032316 -0.22198392 0.069061212 50 25
1.038069 -0.37507236 0.049844261 4 24
1.0076793 -0.22331949 0.023152767 4 23
1.0461433 -0.37821457 0 39 22
1.0173661 -0.22581458 -0.023384873 14 21
1.0473248 -0.37885118 -0.050310094 59 20
1.0201521 -0.22643235 -0.069923274 51 19
1.000437 -0.36570337 0.23842523 50 30
1.0165106 -0.37123424 0.16381021 11 28
0.98802197 -0.22191931 0.11935873 51 27
1.0403627 -0.37980771 0.102525 4 26
1.0121886 -0.22765048 0.069755293 47 25
1.0367534 -0.37869361 0.049844261 14 24
1.0190911 -0.22955312 0.023442902 7 23
1.0518558 -0.38445246 0 11 22
1.0214906 -0.23027493 -0.023500927 43 21
1.0506833 -0.38422933 -0.050543014 58 20
1.0193555 -0.22999196 -0.069923274 50 19
1.0037849 -0.37071609 0.23955253 48 30
1.0129585 -0.37374333 0.16342388 11 28
0.98970145 -0.22574046 0.11966167 50 27
1.0460298 -0.38603571 0.10323863 4 26
1.0016974 -0.22880751 0.069061212 19 25
1.0331509 -0.38126031 0.049727805 29 24
1.0085737 -0.23072493 0.023210794 7 23
1.0482317 -0.38706782 0 8 22
1.0206805 -0.23383918 -0.023500927 48 21
1.0540851 -0.38945162 -0.050775934 55 20
1.0210196 -0.2339223 -0.070095927 48 19
1.0116049 -0.37764394 0.24180713 47 30
1.0185851 -0.37988037 0.16458291 4 28
0.99132627 -0.22974823 0.11996461 48 27
1.0400159 -0.38793588 0.10276287 4 26
1.0130463 -0.23509295 0.06992881 12 25
1.0341518 -0.38574174 0.049844261 8 24
1.0150281 -0.23610155 0.023384873 7 23
1.0538957 -0.39336088 0 7 22
1.0174224 -0.23683965 -0.023442902 48 21
1.0526507 -0.39331242 -0.050775934 55 20
1.0250577 -0.23860441 -0.070441224 47 19
1.0124907 -0.38221398 0.24237077 45 30
1.0194952 -0.38448745 0.16496925 4 28
0.99047756 -0.23338009 0.11996461 48 27
1.0362602 -0.3908622 0.102525 8 26
1.0121778 -0.23880437 0.06992881 17 25
1.0327311 -0.3895295 0.049844261 3 24
1.0093304 -0.23850517 0.023268819 11 23
1.0594584 -0.39988303 0 7 22
1.0214146 -0.24170686 -0.023558956 43 21
1.067613 -0.40319204 -0.051591143 58 20
1.0217479 -0.24179116 -0.070268571 44 19
1.0066028 -0.38400024 0.24124347 45 30
1.0204531 -0.38892815 0.16535559 7 28
0.99690139 -0.23855129 0.12087344 47 27
1.039537 -0.39625916 0.10300075 26 26
1.0161915 -0.24348694 0.070275851 36 25
1.040692 -0.39670861 0.050310094 4 24
1.0206501 -0.24491453 0.023558956 26 23
1.0557221 -0.40268326 0 7 22
1.0059757 -0.24180061 -0.023210794 21 21
1.0208976 -0.24535626 -0.070268571 21 19
1.0029855 -0.38663083 0.24067983 45 30
1.0236955 -0.3942726 0.16612828 7 28
0.99847543 -0.24260981 0.12117638 44 27
1.0358963 -0.39880541 0.10276287 47 26
1.0129106 -0.24644873 0.070102334 44 25
1.0393009 -0.40033883 0.050310094 7 24
1.0100706 -0.24613178 0.023326848 41 23
1.0566409 -0.40726963 0 41 22
1.012457 -0.24689448 -0.023384873 10 21
1.0248836 -0.25008959 -0.070613876 37 19
1.0039656 -0.39084297 0.24124347 43 30
1.0041347 -0.24659406 0.19275334 40 29
1.0200824 -0.39676511 0.16574195 8 28
0.99284369 -0.24474323 0.1205705 32 27
1.0368156 -0.40332586 0.10300075 10 26
1.0217787 -0.25217405 0.070796415 45 25
1.0426186 -0.40560305 0.050543014 7 24
1.0116764 -0.25007397 0.023384873 22 23
1.0459727 -0.4071258 0 54 22
1.016444 -0.2516169 -0.023500927 7 21
1.0288935 -0.25467414 -0.070959181 47 19
1.013919 -0.39882624 0.24406174 34 30
0.99611801 -0.24833354 0.19133258 45 29
1.0209881 -0.4012315 0.16612828 8 28
0.9968009 -0.24940056 0.12117638 44 27
1.0423447 -0.40968731 0.10371439 4 26
1.0184715 -0.25513875 0.070622891 45 25
1.0504862 -0.4129124 0.05100885 8 24
1.020455 -0.25619206 0.023616981 10 23
1.04687 -0.41169396 0 55 22
1.025261 -0.25757691 -0.023733035 4 21
1.0255779 -0.257662 -0.070786528 48 19
1.0147117 -0.40344426 0.24462539 11 30
0.99996328 -0.25317636 0.19227977 48 29
1.017217 -0.40405446 0.16574195 7 28
1.0006933 -0.2542631 0.12178227 48 27
1.0408361 -0.41350499 0.10371439 4 26
1.019948 -0.25947922 0.070796415 45 25
1.0443277 -0.41490668 0.050775934 7 24
1.021978 -0.260364 0.02367501 4 23
1.0523181 -0.41831219 0 54 22
1.0218871 -0.2607207 -0.02367501 7 21
1.0270448 -0.26203015 -0.070959181 50 19
1.0087807 -0.40515897 0.24349807 7 30
0.99907345 -0.25666535 0.19227977 48 29
1.0203815 -0.40945175 0.16651464 7 28
1.0094175 -0.26020977 0.12299403 48 27
1.0486175 -0.42086145 0.1046659 3 26
1.0262848 -0.264891 0.07131698 44 25
1.0544518 -0.42322299 0.051358223 7 24
1.0210629 -0.26392978 0.02367501 3 23
1.0508515 -0.42198291 0 54 22
1.0354968 -0.26801044 -0.024023172 7 21
1.0285397 -0.266233 -0.071131825 48 19
1.0141258 -0.41143873 0.24518906 7 30
1.0005482 -0.26076457 0.19275334 51 29
1.0189459 -0.41301101 0.16651464 45 28
1.0061008 -0.26310951 0.12269108 50 27
1.0540553 -0.42733783 0.10537952 7 26
1.0253539 -0.26847181 0.07131698 44 25
1.0437182 -0.42313004 0.05089239 23 24
1.0322307 -0.27063394 0.023965145 4 23
1.0516871 -0.42659274 0 52 22
1.0272986 -0.2697359 -0.023849091 8 21
1.0251904 -0.26919383 -0.070959181 48 19
1.0172598 -0.41665488 0.24631636 7 30
0.99967802 -0.26408106 0.19275334 52 29
1.0198548 -0.4173277 0.16690096 50 28
1.007623 -0.26707456 0.12299403 50 27
1.0457283 -0.42798936 0.1046659 8 26
1.0292821 -0.27313879 0.07166402 44 25
1.0538561 -0.43134096 0.051474687 54 24
1.0289106 -0.27341908 0.023907118 4 23
1.0548899 -0.43198162 0 52 22
1.0360655 -0.27568975 -0.024081198 18 21
1.0315269 -0.27449948 -0.071477123 47 19
1.006804 -0.41646081 0.24406174 4 30
1.0106133 -0.27071667 0.19512133 51 29
1.0206727 -0.42183316 0.16728732 51 28
1.0090826 -0.2712287 0.12329696 48 27
1.0580163 -0.43736812 0.10609316 7 26
1.0283223 -0.27673 0.07166402 23 25
1.052344 -0.43501702 0.051474687 55 24
1.0279015 -0.27718839 0.023907118 7 23
1.055684 -0.43662116 0 52 22
1.0375112 -0.27995023 -0.024139225 43 21
1.0257437 -0.27681002 -0.071131825 48 19
1.0052708 -0.4201481 0.24406174 7 30
1.0001332 -0.27186605 0.19322695 52 29
1.0191197 -0.42557126 0.16728732 48 28
1.005686 -0.2742781 0.12299403 50 27
1.0518172 -0.43931577 0.1056174 7 26
1.0224863 -0.27919436 0.07131698 10 25
1.053045 -0.43983805 0.051591143 55 24
1.0317525 -0.28208199 0.024023172 7 23
1.0563815 -0.4414559 0 51 22
1.0364783 -0.28375101 -0.024139225 45 21
1.0319432 -0.28252691 -0.071649782 45 19
1.0127664 -0.42746136 0.24631636 43 30
1.0039141 -0.27664849 0.19417414 51 29
1.0244498 -0.43201897 0.16844636 33 28
1.0095093 -0.27909821 0.12359991 48 27
1.045772 -0.44085899 0.10514165 8 26
1.0311261 -0.2854009 0.072011061 4 25
1.0561014 -0.44546109 0.051824059 54 24
1.0452217 -0.2896539 0.024371332 7 23
1.0548341 -0.44514069 0 51 22
1.0379415 -0.28784898 -0.024197252 45 21
1.0333554 -0.28678879 -0.071822427 45 19
1.0225375 -0.43561304 0.24913463 45 30
1.005357 -0.28063041 0.19464774 51 29
1.0320946 -0.43930113 0.16999175 11 28
1.006187 -0.28178075 0.12329696 48 27
1.0510904 -0.44744423 0.10585528 8 26
1.0277709 -0.28815091 0.071837537 3 25
1.0523226 -0.44797826 0.051707603 55 24
1.037032 -0.29110837 0.024197252 7 23
1.0625448 -0.45257244 0 11 22
1.039338 -0.29214117 -0.024255278 45 21
1.0348012 -0.29088342 -0.07199508 44 19
1.0043714 -0.28413808 0.19464774 51 29
1.0237527 -0.43996185 0.1688327 4 28
1.0099751 -0.28663516 0.12390284 48 27
1.0449532 -0.44913617 0.10537952 52 26
1.0315601 -0.293089 0.072184578 3 25
1.0576296 -0.45462051 0.052056976 52 24
1.0407689 -0.29626501 0.024313306 8 23
1.0678427 -0.45925483 0 7 22
1.0383118 -0.2957674 -0.024255278 44 21
1.0385798 -0.29584941 -0.072340377 33 19
1.0056844 -0.2884886 0.19512133 51 29
1.0311882 -0.44766334 0.17037807 7 28
1.0089177 -0.29033497 0.12390284 48 27
1.0478616 -0.45495415 0.10585528 54 26
1.0400711 -0.29960757 0.072878659 4 25
1.0582452 -0.45949289 0.052173436 52 24
1.0301164 -0.29714724 0.024081198 22 23
1.0638613 -0.46216515 0 10 22
1.0372207 -0.29957095 -0.024255278 45 21
1.0374885 -0.29965401 -0.072340377 12 19
1.0070301 -0.29267687 0.19559494 50 29
1.0318795 -0.45225614 0.17076443 7 28
1.0031301 -0.29247695 0.12329696 26 27
1.0509024 -0.46043268 0.10633103 54 26
1.0366235 -0.30254301 0.072705142 7 25
1.0589199 -0.46419102 0.052289892 52 24
1.0266722 -0.30004558 0.024023172 44 23
1.0645291 -0.46688432 0 30 22
1.048224 -0.30648905 -0.024545414 45 21
1.0484124 -0.30674857 -0.073203623 7 19
1.006054 -0.29601467 0.19559494 50 29
1.0394021 -0.45968926 0.17230982 7 28
1.0188266 -0.30068025 0.12541756 10 27
1.0447406 -0.46207613 0.10585528 54 26
1.0427945 -0.30808261 0.073225707 7 25
1.0550929 -0.46668547 0.052173436 51 24
1.0280699 -0.30415207 0.024081198 45 23
1.0652592 -0.47142792 0 48 22
1.0423517 -0.30873737 -0.02442936 45 21
1.0473895 -0.31022355 -0.073203623 3 19
1.0050147 -0.29952469 0.19559494 47 29
1.0332842 -0.461292 0.17153712 59 28
1.0153916 -0.30352956 0.12511462 4 27
1.0499328 -0.46877709 0.10656891 52 26
1.0345401 -0.30959204 0.072705142 7 25
1.0489007 -0.46832058 0.051940519 15 24
1.0317396 -0.3093428 0.024197252 47 23
1.0636071 -0.47514346 0 50 22
1.0436631 -0.31308675 -0.024487386 45 21
1.0534716 -0.31601155 -0.07372158 3 19
0.99920684 -0.3017979 0.19464774 45 29
1.0338361 -0.46609563 0.17192346 51 28
1.0190256 -0.30867696 0.1257205 3 27
1.0504743 -0.47364938 0.10680678 52 26
1.0429515 -0.31625503 0.073399231 7 25
1.0585501 -0.47731602 0.052522808 28 24
1.0354398 -0.31438383 0.024313306 47 23
1.0686892 -0.48213568 0 48 22
1.0496874 -0.31907451 -0.024661468 44 21
1.0523063 -0.31987056 -0.07372158 4 19
1.0051945 -0.307421 0.19606853 30 29
1.032203 -0.46970153 0.17192346 52 28
1.017942 -0.31223214 0.1257205 4 27
1.0533408 -0.47938371 0.10728253 52 26
1.0394554 -0.31916702 0.073225707 7 25
1.0591487 -0.48204699 0.052639272 48 24
1.0343361 -0.31799623 0.024313306 47 23
1.0669996 -0.48586318 0 51 22
1.0437865 -0.32127684 -0.024545414 28 21
1.0583392 -0.32572687 -0.074239522 8 19
1.0017688 -0.31020737 0.19559494 11 29
1.0263324 -0.31870559 0.12693226 4 27
1.0562648 -0.48495945 0.10775829 50 26
1.0335685 -0.32132348 0.072878659 14 25
1.0619942 -0.48783454 0.052872188 51 24
1.0379959 -0.32307959 0.02442936 45 23
1.0698364 -0.49168119 0 52 22
1.0451032 -0.3254742 -0.024603439 12 21
1.0500476 -0.3272092 -0.07372158 22 19
1.0124555 -0.31716934 0.19796291 4 29
1.0252697 -0.32210729 0.12693226 7 27
1.0523094 -0.487593 0.10752042 50 26
1.0372589 -0.32623491 0.073225707 40 25
1.0626345 -0.49240774 0.052988645 50 24
1.0345331 -0.32577461 0.024371332 45 23
1.0795308 -0.50050503 0 55 22
1.0463462 -0.3298665 -0.024661468 25 21
1.051337 -0.33143404 -0.073894225 40 19
1.0207087 -0.32364762 0.19985728 4 29
1.0194061 -0.32419088 0.12632638 7 27
1.0551058 -0.49338016 0.10799617 48 26
1.038492 -0.33060485 0.073399231 43 25
1.0586489 -0.49505192 0.052872188 51 24
1.0380979 -0.33107233 0.024487386 37 23
1.0547192 -0.3365348 -0.024893576 43 21
1.0454183 -0.33359614 -0.073548928 44 19
1.0195156 -0.32738653 0.19985728 4 29
1.0229386 -0.32943565 0.12693226 7 27
1.0577873 -0.49937737 0.10847192 48 26
1.0348979 -0.33364898 0.073225707 36 25
1.0658524 -0.50321031 0.053338021 48 24
1.0321754 -0.33316916 0.024371332 14 23
1.0487188 -0.33887187 -0.024777522 47 21
1.0560632 -0.34123346 -0.074412182 44 19
1.0277119 -0.3339563 0.20175166 3 29
1.0194213 -0.33224082 0.12662932 7 27
1.0583704 -0.5039565 0.1087098 52 26
1.0337268 -0.33725944 0.073225707 14 25
1.0640894 -0.50692773 0.053338021 48 24
1.0381389 -0.33908215 0.024545414 11 23
1.0499667 -0.34311879 -0.024835547 47 21
1.0524932 -0.34414783 -0.074239522 45 19
1.0219313 -0.33584049 0.20080447 7 29
1.0253898 -0.33793363 0.12753814 7 27
1.0302327 -0.33990943 0.07305219 11 25
1.0713983 -0.5147965 0.053803854 47 24
1.0393836 -0.34330142 0.024603439 21 23
1.0511373 -0.34756112 -0.024893576 47 21
1.0560856 -0.34919158 -0.074584827 44 19
1.0277461 -0.3417131 0.20222527 7 29
1.0171362 -0.33917207 0.12662932 23 27
1.0432445 -0.34820956 0.074093312 7 25
1.0651046 -0.51634616 0.053570937 48 24
1.0428625 -0.34868315 0.024719493 44 23
1.0499177 -0.35122818 -0.024893576 47 21
1.0264868 -0.34547767 0.20222527 8 29
1.0182394 -0.34368598 0.12693226 32 27
1.0419611 -0.3520309 0.074093312 4 25
1.0699282 -0.52355182 0.053920317 50 24
1.0321618 -0.34913918 0.024487386 47 23
1.0533614 -0.35666668 -0.02500963 45 21
1.0252746 -0.34905869 0.20222527 8 29
1.0123328 -0.34564534 0.12632638 23 27
1.0454496 -0.35726839 0.074440353 4 25
1.0703313 -0.52839297 0.05403677 51 24
1.0404029 -0.35595515 0.024719493 47 23
1.0473773 -0.35873216 -0.024893576 45 21
1.021727 -0.35184148 0.20175166 8 29
1.0228575 -0.35320014 0.12784109 12 27
1.0489141 -0.36253449 0.074787393 4 25
1.0391541 -0.35958469 0.024719493 47 23
1.0556365 -0.3654533 -0.025125684 45 21
1.022875 -0.35602936 0.20222527 37 29
1.0146463 -0.35415286 0.12693226 7 27
1.047706 -0.36601079 0.074787393 7 25
1.042678 -0.36466843 0.024835547 45 23
1.0519935 -0.36831516 -0.025067655 23 21
1.0100391 -0.35554913 0.19985728 41 29
1.0251137 -0.36179551 0.12844697 3 27
1.0487753 -0.37049127 0.07496091 15 25
1.0390406 -0.36747772 0.024777522 45 23
1.0577751 -0.37447193 -0.025241738 10 21
1.0179865 -0.3625215 0.20175166 44 29
1.0214418 -0.36472112 0.12814403 4 27
1.0474102 -0.37433273 0.07496091 39 25
1.0400418 -0.37212026 0.024835547 44 23
1.0469763 -0.37499607 -0.02500963 4 21
1.0167149 -0.36607271 0.20175166 44 29
1.0341787 -0.37330842 0.12996167 7 27
1.0507921 -0.37967128 0.07530795 41 25
1.0481452 -0.37912828 0.025067655 43 23
1.050431 -0.3801567 -0.025125684 3 21
1.0131867 -0.36860836 0.20127808 44 29
1.0259353 -0.37420058 0.12905285 7 27
1.0448381 -0.38145348 0.07496091 43 25
1.0492316 -0.3834548 0.025125684 41 23
1.0537956 -0.38552821 -0.025241738 4 21
1.0141995 -0.37298471 0.20175166 43 29
1.033944 -0.38119233 0.13026461 8 27
1.0505251 -0.38767323 0.075481474 41 25
1.0501653 -0.38815922 0.025183709 40 23
1.0618278 -0.39265144 -0.025473846 4 21
1.0151286 -0.37754992 0.20222527 43 29
1.0395215 -0.38756472 0.13117343 8 27
1.0514358 -0.3923879 0.075654998 41 25
1.0558336 -0.39443129 0.025357792 14 23
1.0674102 -0.39915174 -0.025647927 7 21
1.0161041 -0.38194954 0.20269886 40 29
1.0288658 -0.38771144 0.12996167 32 27
1.0547305 -0.39780581 0.076002039 40 25
1.0544502 -0.39811444 0.025357792 7 23
1.0637406 -0.401811 -0.0255899 7 21
1.0125351 -0.38445091 0.20222527 40 29
1.0345379 -0.39375386 0.13087049 40 27
1.0534055 -0.40130123 0.076002039 40 25
1.0624729 -0.40515089 0.0255899 3 23
1.0670054 -0.40729433 -0.025705952 4 21
1.0157746 -0.38973111 0.20317246 39 29
1.0331572 -0.39736268 0.13087049 41 27
1.0496688 -0.40408489 0.075828515 40 25
1.058647 -0.40814829 0.025531873 3 23
1.065577 -0.4110164 -0.025705952 4 21
1.0257924 -0.39786395 0.20554042 22 29
1.0386386 -0.40382928 0.13177931 41 27
1.0551591 -0.41062775 0.07634908 40 25
1.0572159 -0.41184115 0.025531873 4 23
1.0687245 -0.41672519 -0.025822006 12 21
1.0221099 -0.40055177 0.20506684 12 29
1.0395344 -0.40835458 0.13208227 40 27
1.0490736 -0.41249335 0.076002039 26 25
1.0650824 -0.41917032 0.025763981 4 23
1.064936 -0.41954207 -0.025763981 33 21
1.0207055 -0.40411714 0.20506684 14 29
1.0334853 -0.41016006 0.13147637 41 27
1.0453073 -0.4152371 0.075828515 11 25
1.0566393 -0.42013022 0.0255899 10 23
1.0635389 -0.42307121 -0.025763981 41 21
1.026204 -0.41021785 0.20648764 23 29
1.0390363 -0.41633892 0.13238519 43 27
1.0555084 -0.42331794 0.07669612 7 25
1.052919 -0.42270577 0.025531873 18 23
1.0666978 -0.428635 -0.025880035 41 21
1.0293221 -0.41562542 0.20743483 30 29
1.0421814 -0.42181525 0.13299108 40 27
1.0540242 -0.42699978 0.07669612 10 25
1.0629526 -0.43123531 0.025822006 33 23
1.0675129 -0.43329087 -0.02593806 41 21
1.0232424 -0.41755062 0.20648764 37 29
1.0360305 -0.42376336 0.13238519 40 27
1.0570723 -0.43273991 0.077043161 12 25
1.0614408 -0.43494305 0.025822006 34 23
1.0705464 -0.43908769 -0.026054114 40 21
1.0354083 -0.42670149 0.2093292 40 29
1.0391362 -0.42926207 0.13299108 37 27
1.0601689 -0.43832305 0.077390201 29 25
1.0552932 -0.43674392 0.025705952 12 23
1.0737069 -0.44453776 -0.026170168 41 21
1.0294505 -0.42825711 0.20838203 40 29
1.037707 -0.43270564 0.13299108 12 27
1.0633168 -0.44374752 0.077737242 37 25
1.0630721 -0.44407481 0.02593806 4 23
1.0324798 -0.43373936 0.2093292 40 29
1.0430579 -0.43919948 0.13389991 7 27
1.0640615 -0.44842011 0.077910759 37 25
1.0637422 -0.44893515 0.025996089 3 23
1.0308832 -0.43752068 0.2093292 40 29
1.0437267 -0.44398588 0.13420284 4 27
1.0624108 -0.45231706 0.077910759 37 25
1.0690726 -0.45557043 0.026170168 3 23
1.0383834 -0.44496411 0.21122359 40 29
1.0444529 -0.44860095 0.13450579 11 27
1.0631189 -0.45700294 0.078084283 37 25
1.0789653 -0.46421438 0.026460305 3 23
1.0369022 -0.44840506 0.21122359 40 29
1.0406804 -0.45107999 0.13420284 14 27
1.0684677 -0.46348888 0.07860484 21 25
1.0728307 -0.46580857 0.026344251 4 23
1.0488415 -0.45788527 0.21406516 40 29
1.0413752 -0.45569986 0.13450579 29 27
1.06227 -0.46522436 0.078257799 10 25
1.0825711 -0.47473258 0.026634384 4 23
1.0442419 -0.46151015 0.13511167 37 27
1.0651237 -0.47112274 0.07860484 3 25
1.07862 -0.47750157 0.026576359 4 23
1.0494298 -0.46817091 0.13602048 40 27
1.0657521 -0.47584984 0.078778364 3 25
1.0837984 -0.48430869 0.02675044 7 23
1.0477892 -0.47183126 0.13602048 40 27
1.0709122 -0.482627 0.079298921 3 25
1.0729798 -0.48399708 0.02651833 12 23
1.0462186 -0.47530326 0.13602048 40 27
1.0647609 -0.48412058 0.07895188 3 25
1.0781999 -0.49064407 0.026692413 34 23
1.0513272 -0.48204079 0.13692932 39 27
1.0698712 -0.4909406 0.079472445 3 25
1.0741211 -0.49355373 0.026634384 39 23
1.0518075 -0.48692867 0.13723224 39 27
1.0771248 -0.49903351 0.080166534 4 25
1.0746613 -0.49834689 0.026692413 39 23
1.0776378 -0.503842 0.080340058 4 25
1.075181 -0.50314981 0.02675044 39 23
1.0782189 -0.50847197 0.080513574 10 25
1.0712442 -0.50565028 0.026692413 40 23
1.0764375 -0.51223248 0.080513574 25 25
1.0694728 -0.50938654 0.026692413 40 23
1.0723925 -0.51491201 0.080340058 36 25
1.0789627 -0.51850641 0.026982548 37 23
1.079306 -0.52354366 0.027040575 37 23
1.0797191 -0.52840203 0.027098602 34 23
1.0801113 -0.53326964 0.027156627 39 23
1.0805767 -0.53795785 0.027214656 41 23
0.96908712 -0.055022471 0.089441761 10 26
0.96393162 -0.05792585 0.088966012 14 26
