# .PCD v0.7 - Point Cloud Data file format
VERSION 0.7
FIELDS x y z intensity ring
SIZE 4 4 4 4 2
TYPE F F F F U
COUNT 1 1 1 1 1
WIDTH 1201
HEIGHT 1
VIEWPOINT 0 0 0 1 0 0 0
POINTS 1201
DATA ascii
-1.8054053 -0.26057401 0.21842043 66 27
-1.754442 -0.021500606 0.16437303 74 26
-1.8094022 -0.26051772 0.12476134 66 25
-1.7554103 -0.02150516 0.080239952 73 24
-1.8059282 -0.25905362 0.041547321 66 23
-1.7522842 -0.021164913 0 74 22
-1.8059734 -0.25873843 -0.041547321 67 21
-1.7504271 -0.020533726 -0.080007032 73 20
-1.8096267 -0.25926065 -0.1241354 67 19
-1.7528881 -0.019953646 -0.15424226 76 18
-1.8122112 -0.25930551 -0.20555511 66 17
-1.7632011 -0.019448599 -0.24014241 72 16
-1.8093307 -0.25951561 -0.31259802 65 15
-0.80398613 -0.0088527007 -0.22010718 23 13
-1.8098421 -0.26021609 -0.41078019 62 14
-0.74602956 -0.0076264269 -0.24598324 32 12
nan nan nan 0 11
-0.58908761 -0.0047561377 -0.29430327 90 9
-0.50493258 -0.072270714 -0.22320242 40 10
-0.58688927 -0.003675357 -0.33364582 108 8
-0.65501744 -0.097301446 -0.42457455 36 7
-0.57588315 -0.0019466322 -0.41197771 106 6
nan nan nan 0 5
-0.27523297 -0.0012066768 -0.22976033 90 4
-0.25493285 -0.038021844 -0.23652615 34 3
-0.25133166 -0.0003854509 -0.25568286 10 2
-0.34871736 -0.054729931 -0.41762355 22 1
-0.24486229 0.00029652216 -0.2954838 3 0
-1.8041692 -0.25680909 0.47694361 59 31
-1.7446625 -0.014419357 0.39568439 65 30
-1.8064066 -0.2555469 0.34525111 61 29
-1.7465334 -0.015023831 0.26773697 73 28
-1.8014343 -0.25325751 0.21781455 66 27
-1.7545089 -0.015070111 0.16437303 74 26
-1.8128141 -0.25423384 0.12493485 66 25
-1.7579744 -0.015089421 0.080356404 73 24
-1.8068215 -0.25274819 0.041547321 66 23
-1.75235 -0.01474233 0 73 22
-1.8019598 -0.25142008 -0.041431267 69 21
-1.750488 -0.01442347 -0.080007032 74 20
-1.8056256 -0.25193042 -0.1237901 67 19
-1.7554395 -0.013544936 -0.15446581 74 18
-1.8106457 -0.25263157 -0.2052708 67 17
-1.7607843 -0.012970885 -0.23979835 73 16
-1.8029097 -0.25216487 -0.31130984 66 15
-0.80881923 -0.0060688639 -0.22148287 22 13
-1.8083708 -0.25323969 -0.41022208 61 14
nan nan nan 0 12
-0.57858741 -0.080562912 -0.22214615 7 11
-0.58910108 -0.0025969918 -0.29430327 97 9
-0.50070286 -0.069859117 -0.2210767 41 10
-0.58261943 -0.0016326834 -0.3310594 102 8
-0.65330535 -0.094708748 -0.42317334 28 7
-0.56594181 1.8459512e-05 -0.40440455 106 6
nan nan nan 0 5
-0.27162144 -0.00027809758 -0.22630529 90 4
-0.25167689 -0.036597077 -0.23288728 39 3
-0.25456172 0.00057914364 -0.25949904 10 2
-0.35040152 -0.053755868 -0.41961223 19 1
-0.24341175 0.0011269853 -0.293446 3 0
-1.8098388 -0.2511805 0.47823265 58 31
-1.7471379 -0.0083377622 0.39624804 65 30
-1.8024253 -0.24856247 0.34430391 62 29
-1.7441053 -0.0089177173 0.26735064 69 28
-1.799849 -0.24662758 0.21751161 67 27
-1.7520623 -0.0089360839 0.16413514 74 26
-1.8062791 -0.24688123 0.12441429 65 25
-1.7530218 -0.0089336755 0.080123484 73 24
-1.8076928 -0.24643967 0.041547321 69 23
-1.7473907 -0.0086070709 0 76 22
-1.8028265 -0.24512853 -0.041431267 69 21
-1.7430359 -0.0082868868 -0.079657651 73 20
-1.8114356 -0.24630474 -0.1241354 69 19
-1.7529861 -0.007409838 -0.15424226 76 18
-1.8090559 -0.24597177 -0.2049865 66 17
-1.7558664 -0.0068115564 -0.23911026 73 16
-1.803779 -0.24587002 -0.31130984 66 15
-0.80162483 -0.0032367117 -0.21941935 19 13
-1.8092438 -0.24692576 -0.41022208 62 14
-0.79095513 -0.0024258492 -0.2615104 30 12
-0.56509399 -0.076612264 -0.2165222 8 11
-0.58689857 -0.0005475661 -0.29313076 98 9
-0.5054248 -0.068743892 -0.22320242 44 10
-0.59117967 0.00044287089 -0.33623222 98 8
-0.63929069 -0.090338089 -0.41336468 18 7
-0.5738939 0.0020578383 -0.41046309 105 6
nan nan nan 0 5
-0.27162075 0.00067004003 -0.22630529 90 4
-0.2551921 -0.036241163 -0.23652615 43 3
-0.25455818 0.0014677264 -0.25949904 11 2
-0.34759483 -0.052055813 -0.41563487 21 1
-0.24485426 0.0020059622 -0.2954838 3 0
-1.8011316 -0.24355352 0.47565457 58 31
-1.7471564 -0.0022390625 0.39624804 65 30
-1.798417 -0.24160896 0.34335673 61 29
-1.7391858 -0.0028278749 0.26657793 70 28
-1.800699 -0.24034342 0.21751161 67 27
-1.7545708 -0.0031272902 0.16437303 74 26
-1.8071297 -0.24057463 0.12441429 66 25
-1.7505453 -0.0028135611 0.080007032 73 24
-1.808542 -0.24012813 0.041547321 69 23
-1.7499101 -0.0025079222 0 74 22
-1.8061064 -0.23948061 -0.041489292 69 21
-1.7455515 -0.0022025055 -0.079774112 73 20
-1.8073403 -0.23931871 -0.1237901 67 19
-1.7505111 -0.0015975549 -0.15401873 77 18
-1.8074416 -0.23932612 -0.20470218 67 17
-1.7608318 -0.00098539947 -0.23979835 72 16
-1.8046262 -0.23957215 -0.31130984 65 15
-0.80163127 -0.00043849903 -0.21941935 23 13
-1.8076375 -0.2405999 -0.40966395 61 14
-0.80513465 0.00038212328 -0.26641375 52 12
-0.57223368 -0.075680345 -0.21933419 11 11
-0.58248132 0.0013701462 -0.2907857 107 9
-0.50566167 -0.066979207 -0.22320242 45 10
-0.58475655 0.0023506393 -0.33235261 90 8
nan nan nan 0 7
-0.56393981 0.0038481094 -0.40288994 101 6
nan nan nan 0 5
-0.27342394 0.0015991481 -0.22803281 90 4
-0.26039693 -0.036162097 -0.24198443 40 3
-0.25293693 0.0022791624 -0.25759095 10 2
-0.34477177 -0.050436191 -0.41165751 21 1
-0.24339843 0.0027837974 -0.293446 3 0
-1.799535 -0.23726036 0.47501007 55 31
-1.7349762 0.0035143453 0.39342979 63 30
-1.7992083 -0.23564386 0.34335673 61 29
-1.7416557 0.0029468175 0.26696429 70 28
-1.7990259 -0.23404732 0.21720867 65 27
-1.7545711 0.0029973246 0.16437303 74 26
-1.802972 -0.23393218 0.12406725 66 25
-1.7480476 0.0029840616 0.079890572 74 24
-1.80685 -0.2338054 0.041489292 69 23
-1.7424089 0.0032714407 0 76 22
-1.7994965 -0.23220506 -0.041315213 69 21
-1.7455492 0.003585964 -0.079774112 73 20
-1.8056508 -0.23300152 -0.12361745 67 19
-1.7455261 0.0044937572 -0.15357165 74 18
-1.8082253 -0.2333311 -0.20470218 67 17
-1.7558721 0.005140312 -0.23911026 73 16
-1.8029686 -0.23326716 -0.31088045 66 15
-0.79922485 0.0022063849 -0.21873152 29 13
-1.8084663 -0.2342886 -0.40966395 61 14
-0.81930459 0.0031460614 -0.27131706 95 12
-0.57479167 -0.073988535 -0.2202715 12 11
-0.58688873 0.0034473077 -0.29313076 116 9
-0.51036638 -0.065904468 -0.22532816 45 10
-0.58902353 0.0044418434 -0.334939 90 8
nan nan nan 0 7
-0.56591165 0.0058461088 -0.40440455 97 6
nan nan nan 0 5
-0.2716099 0.0025188739 -0.22630529 90 4
-0.25543284 -0.0345033 -0.23652615 45 3
-0.25292742 0.0031620632 -0.25759095 11 2
-0.33745724 -0.048091855 -0.40171409 21 1
-0.24483491 0.003672573 -0.2954838 3 0
-1.8027477 -0.23128805 0.47565457 55 31
-1.7373888 0.0095870998 0.39399344 62 30
-1.7975852 -0.22904843 0.34288311 62 29
-1.7391648 0.0090103615 0.26657793 70 28
-1.7973702 -0.22745122 0.21690573 65 27
-1.7495729 0.0090897614 0.16389728 72 26
-1.8037775 -0.2276372 0.12406725 67 25
-1.7455293 0.0090697426 0.079774112 73 24
-1.8052155 -0.22686641 0.041431267 69 23
-1.7448868 0.0093701426 0 77 22
-1.7978165 -0.22560769 -0.041257184 69 21
-1.7380326 0.0099313948 -0.079424739 74 20
-1.8039788 -0.22638331 -0.1234448 66 19
-1.7454997 0.010586753 -0.15357165 76 18
-1.8066044 -0.22638991 -0.20441787 67 17
-1.7558434 0.011269418 -0.23911026 73 16
-1.8013684 -0.22634698 -0.31045106 66 15
-0.796808 0.0051134424 -0.21804368 29 13
-1.8092732 -0.22797444 -0.40966395 61 14
-0.81456256 0.0061002839 -0.26968262 98 12
-0.57735741 -0.072179019 -0.22120883 19 11
-0.58908087 0.0055255834 -0.29430327 115 9
-0.50162947 -0.062861413 -0.2210767 48 10
-0.58258545 0.0065021138 -0.3310594 70 8
nan nan nan 0 7
-0.56986368 0.0079938294 -0.40743384 92 6
nan nan nan 0 5
-0.27340549 0.0035556711 -0.22803281 90 4
-0.2555576 -0.033566862 -0.23652615 48 3
-0.24968542 0.0039569759 -0.25377479 11 2
-0.32414448 -0.044851117 -0.38381594 19 1
-0.24337229 0.0045254342 -0.293446 3 0
-1.7963936 -0.22377336 0.47372106 55 31
-1.7397776 0.015980391 0.39455709 62 30
-1.8032842 -0.22306776 0.34383032 61 29
-1.7440598 0.015434667 0.26735064 70 28
-1.7981918 -0.220862 0.21690573 65 27
-1.7445507 0.015451821 0.16342153 74 26
-1.7996496 -0.22041143 0.12372021 67 25
-1.7454842 0.015467365 0.079774112 74 24
-1.8035159 -0.22025733 0.041373238 69 23
-1.7423409 0.015739666 0 76 22
-1.7986314 -0.21901685 -0.041257184 69 21
-1.7429817 0.016050503 -0.079657651 73 20
-1.8023211 -0.21946508 -0.12327214 67 19
-1.747939 0.017011635 -0.15379518 77 18
-1.8073835 -0.22008231 -0.20441787 67 17
-1.7557904 0.01770483 -0.23911026 74 16
-1.7997032 -0.21975581 -0.31002167 66 15
-0.7967853 0.0078947907 -0.21804368 30 13
-1.8076782 -0.22104251 -0.40910584 59 14
-0.81926107 0.0090087513 -0.27131706 97 12
-0.57990533 -0.070452899 -0.22214615 37 11
-0.60009503 0.007873456 -0.30016586 109 9
-0.4973563 -0.060539667 -0.21895096 50 10
-0.57828093 0.0084550222 -0.328473 61 8
nan nan nan 0 7
-0.56187838 0.0098080318 -0.40137532 90 6
-0.40364707 -0.051693216 -0.31498545 14 5
-0.26977843 0.0044147721 -0.22457777 90 4
-0.25057927 -0.031961404 -0.23106785 54 3
-0.25128376 0.0049219839 -0.25568286 11 2
-0.32130048 -0.043284588 -0.37983856 19 1
-0.24480237 0.005424466 -0.2954838 3 0
-1.7995614 -0.21779497 0.47436553 55 31
-1.7397112 0.022053249 0.39455709 62 30
-1.7967415 -0.21588324 0.34240955 62 29
-1.7365861 0.021421604 0.2661916 70 28
-1.7964882 -0.21428651 0.21660277 67 27
-1.7420014 0.021203429 0.16318363 76 26
-1.8004079 -0.21412814 0.12372021 66 25
-1.7454197 0.021560149 0.079774112 73 24
-1.8017923 -0.21366288 0.041315213 69 23
-1.7397754 0.021787006 0 76 22
-1.7968663 -0.21275397 -0.041199159 69 21
-1.737921 0.022064811 -0.079424739 74 20
-1.8030763 -0.21317247 -0.12327214 67 19
-1.7428936 0.022736648 -0.1533481 76 18
-1.8032084 -0.21318212 -0.20384926 67 17
-1.7507701 0.023454539 -0.23842219 73 16
-1.7955686 -0.21288569 -0.30916288 66 15
-0.80876893 0.010871099 -0.22148287 29 13
-1.7987233 -0.21388255 -0.40687335 61 14
-0.81922466 0.011868452 -0.27131706 93 12
-0.57323456 -0.067683339 -0.21933419 40 11
-0.60668814 0.0099986522 -0.30368343 106 9
-0.50430185 -0.059635211 -0.22213957 50 10
-0.57183266 0.010230363 -0.32459342 67 8
nan nan nan 0 7
-0.56581938 0.011771893 -0.40440455 90 6
nan nan nan 0 5
-0.27156866 0.0053629768 -0.22630529 90 4
-0.24728636 -0.030666085 -0.22742899 67 3
-0.25288045 0.0058104917 -0.25759095 11 2
-0.31094223 -0.040731985 -0.36591777 19 1
-0.24188866 0.0061275694 -0.29140818 3 0
-1.7954767 -0.21125503 0.47307652 55 31
-1.7323228 0.027695971 0.39286613 62 30
-1.7950097 -0.20963573 0.34193593 62 29
-1.7365055 0.027180213 0.2661916 70 28
-1.7971888 -0.20832798 0.21660277 65 27
-1.7468934 0.027368279 0.16365939 74 26
-1.7961539 -0.20757724 0.12337317 66 25
-1.7428417 0.027305774 0.079657651 74 24
-1.8024907 -0.20768674 0.041315213 69 23
-1.7446929 0.027641706 0 76 22
-1.7901502 -0.20561472 -0.041025076 70 21
-1.7353414 0.027784696 -0.079308279 74 20
-1.8012959 -0.20690411 -0.12309949 69 19
-1.7452933 0.028864672 -0.15357165 76 18
-1.8039054 -0.2072013 -0.20384926 66 17
-1.7457259 0.029475838 -0.23773409 73 16
-1.7962646 -0.20693021 -0.30916288 65 15
-0.81834066 0.013740934 -0.22423421 26 13
-1.8018794 -0.20788513 -0.40743145 61 14
-0.83099157 0.014828309 -0.27540314 87 12
-0.57576865 -0.065955982 -0.2202715 39 11
-0.60444218 0.012063538 -0.30251092 103 9
-0.50449681 -0.057962555 -0.22213957 48 10
-0.57607108 0.012336144 -0.32717982 74 8
nan nan nan 0 7
-0.56179863 0.01363236 -0.40137532 62 6
-0.44941032 -0.054779146 -0.35375291 12 5
-0.27516049 0.0064307256 -0.22976033 90 4
-0.25079101 -0.030255038 -0.23106785 50 3
-0.24640197 0.0064496472 -0.24995862 11 2
-0.30958179 -0.039439164 -0.36392909 19 1
-0.24910074 0.0072687892 -0.3015973 3 0
-1.7962031 -0.20498635 0.47307652 55 31
-1.7297804 0.033692155 0.39230248 63 30
-1.7932918 -0.20308912 0.34146234 62 29
-1.7364001 0.033241581 0.2661916 69 28
-1.7954394 -0.20177284 0.21629985 65 27
-1.7467871 0.033465907 0.16365939 73 26
-1.7943896 -0.2010252 0.12319965 67 25
-1.7377421 0.033287272 0.079424739 73 24
-1.7982378 -0.2008321 0.041199159 69 23
-1.7370875 0.033577204 0 76 22
-1.790857 -0.19936466 -0.041025076 70 21
-1.7402273 0.033945728 -0.079541199 73 20
-1.7995288 -0.20033586 -0.12292685 66 19
-1.7426924 0.03490369 -0.1533481 74 18
-1.7996813 -0.20034692 -0.20328063 66 17
-1.7530394 0.035730138 -0.23876624 73 16
-1.7920815 -0.20010546 -0.3083041 66 15
-0.80627334 0.016320553 -0.22079504 25 13
-1.7977512 -0.20104578 -0.40631521 61 14
-0.83802062 0.017899621 -0.2778548 43 12
-0.5736931 -0.063679792 -0.21933419 43 11
-0.60881066 0.014294351 -0.30485597 101 9
-0.50919122 -0.056725264 -0.22426529 50 10
-0.5717473 0.014222227 -0.32459342 88 8
nan nan nan 0 7
-0.56373549 0.015657529 -0.40288994 50 6
-0.4552789 -0.05391958 -0.35859883 12 5
-0.27333048 0.0073249564 -0.22803281 90 4
-0.2542958 -0.029819895 -0.23470671 51 3
-0.24960583 0.0074427431 -0.25377479 11 2
-0.29770592 -0.036742784 -0.34801963 19 1
-0.24762706 0.0080738366 -0.29955944 3 0
-1.7945073 -0.19844636 0.47243202 55 31
-1.732087 0.039789092 0.39286613 63 30
-1.7915499 -0.19655704 0.34098873 62 29
-1.7313349 0.03918444 0.26541892 70 28
-1.7961327 -0.19550437 0.21629985 65 27
-1.7416837 0.039444126 0.16318363 73 26
-1.7975593 -0.19503276 0.12337317 66 25
-1.7376153 0.039352924 0.079424739 73 24
-1.7964771 -0.19396819 0.04114113 67 23
-1.7419583 0.039760984 0 76 22
-1.7915418 -0.19311219 -0.041025076 69 21
-1.7326015 0.040140707 -0.079191819 73 20
-1.7977377 -0.19378245 -0.12275419 66 19
-1.7375815 0.040863194 -0.15290102 77 18
-1.7979344 -0.1934803 -0.20299633 69 17
-1.7529041 0.04184917 -0.23876624 72 16
-1.7928028 -0.1935358 -0.3083041 66 15
-0.81822139 0.019596456 -0.22423421 14 13
-1.7960198 -0.19450353 -0.4057571 59 14
-0.8379494 0.020971 -0.2778548 22 12
-0.57622594 -0.061834209 -0.2202715 33 11
-0.60875714 0.016419409 -0.30485597 96 9
-0.50939572 -0.054858606 -0.22426529 51 10
-0.56313777 0.01603693 -0.31942061 90 8
nan nan nan 0 7
-0.559699 0.01758063 -0.39986068 52 6
-0.4611561 -0.052939221 -0.36344475 12 5
-0.27691308 0.0084723886 -0.23148786 90 4
-0.2561045 -0.029101651 -0.23652615 56 3
-0.24796462 0.0082418351 -0.2518667 12 2
-0.29633641 -0.035454962 -0.34603095 22 1
-0.25048888 0.0091208499 -0.30363509 3 0
-1.7904197 -0.19134776 0.47114298 55 31
-1.729495 0.046069238 0.39230248 62 30
-1.7898178 -0.18972726 0.34051517 61 29
-1.7336487 0.045597941 0.26580524 70 28
-1.7968373 -0.1889199 0.21629985 65 27
-1.7390399 0.045758836 0.16294576 73 26
-1.7933021 -0.18791649 0.12302613 65 25
-1.7399559 0.045790203 0.079541199 73 24
-1.7971432 -0.18769616 0.04114113 67 23
-1.7318046 0.045867842 0 77 22
-1.7872666 -0.18602034 -0.040909022 70 21
-1.7324508 0.046188369 -0.079191819 74 20
-1.7984359 -0.1871921 -0.12275419 69 19
-1.7399091 0.047302306 -0.15312457 74 18
-1.7961287 -0.18694267 -0.20271201 66 17
-1.7477884 0.048131 -0.23807815 73 16
-1.7910184 -0.18701746 -0.30787471 66 15
nan nan nan 0 13
-1.7991438 -0.18817632 -0.40631521 61 14
-0.84495562 0.024117263 -0.28030646 22 12
-0.57413411 -0.059572931 -0.21933419 34 11
-0.61089951 0.018726794 -0.30602849 90 9
-0.50958413 -0.053080149 -0.22426529 50 10
-0.5694927 0.01823551 -0.32330021 91 8
-0.63152713 -0.069042824 -0.40635848 4 7
-0.54770982 0.01906364 -0.39077297 76 6
-0.4613381 -0.051329162 -0.36344475 12 5
-0.2804926 0.009597226 -0.23494291 90 4
-0.25280076 -0.027791386 -0.23288728 62 3
-0.24954617 0.0092286784 -0.25377479 12 2
-0.28593838 -0.033082023 -0.33211017 26 1
-0.25334805 0.010144731 -0.30771074 3 0
-1.7910767 -0.18509687 0.47114298 55 31
-1.7293236 0.052106015 0.39230248 63 30
-1.7880275 -0.18322486 0.34004155 62 29
-1.7334789 0.051649224 0.26580524 69 28
-1.7950172 -0.18239237 0.21599689 65 27
-1.7438536 0.051679183 0.16342153 72 26
-1.793947 -0.18165556 0.12302613 67 25
-1.7372893 0.051785927 0.079424739 74 24
-1.7903286 -0.18065888 0.040967051 67 23
-1.7366315 0.052068867 0 76 22
-1.7829008 -0.17958479 -0.040792968 70 21
-1.7297831 0.05215703 -0.079075366 74 20
-1.7965974 -0.18066037 -0.12258155 66 19
-1.7397426 0.053071789 -0.15312457 77 18
-1.7967703 -0.18067187 -0.20271201 66 17
-1.7451441 0.053847101 -0.23773409 73 16
-1.7892103 -0.18051389 -0.30744532 65 15
nan nan nan 0 13
-1.7924855 -0.18146269 -0.40464085 62 14
-0.84486628 0.027066562 -0.28030646 14 12
-0.57663345 -0.057910565 -0.2202715 34 11
-0.60421479 0.020501694 -0.30251092 90 9
-0.52101749 -0.052491538 -0.22957964 45 10
-0.56301552 0.019869685 -0.31942061 93 8
-0.62764847 -0.066384293 -0.40355602 4 7
-0.54963076 0.020964829 -0.39228758 90 6
-0.47856745 -0.051748991 -0.37798253 12 5
-0.276849 0.010357066 -0.23148786 90 4
-0.25289154 -0.026952915 -0.23288728 58 3
-0.24790104 0.00997274 -0.2518667 12 2
-0.27852908 -0.031202622 -0.32216674 28 1
-0.25475901 0.011064386 -0.30974856 3 0
-1.7892773 -0.17891274 0.47049844 55 31
-1.7267071 0.057755798 0.39173883 62 30
-1.7861829 -0.17704903 0.33956796 62 29
-1.7332982 0.057397362 0.26580524 69 28
-1.7931428 -0.17619283 0.21569397 65 27
-1.7362008 0.057509396 0.16270788 73 26
-1.7895761 -0.17521283 0.12267908 65 25
-1.7396039 0.057632554 0.079541199 74 24
-1.7934048 -0.17496699 0.041025076 67 23
-1.7364494 0.057827458 0 76 22
-1.7835169 -0.1733602 -0.040792968 70 21
-1.7271047 0.05780619 -0.078958906 73 20
-1.7897406 -0.1739676 -0.12206359 66 19
-1.7370582 0.059056532 -0.15290102 76 18
-1.792416 -0.17422523 -0.2021434 70 17
-1.7449455 0.059938464 -0.23773409 73 16
-1.787348 -0.17433718 -0.3070159 65 15
nan nan nan 0 13
-1.7931079 -0.17520465 -0.40464085 59 14
-0.84241098 0.02977822 -0.27948925 14 12
-0.5791378 -0.056131192 -0.22120883 33 11
-0.60413957 0.02261067 -0.30251092 90 9
-0.53019291 -0.051686041 -0.23383114 43 10
-0.5629428 0.021834854 -0.31942061 94 8
-0.62374777 -0.063862555 -0.40075353 11 7
-0.54558057 0.022699354 -0.38925833 90 6
-0.47874516 -0.050078169 -0.37798253 12 5
-0.27500635 0.011231959 -0.22976033 90 4
-0.24787435 -0.025480585 -0.22742899 67 3
-0.25109041 0.011016101 -0.25568286 12 2
-0.28014043 -0.030411137 -0.32415542 32 1
-0.25327313 0.011868969 -0.30771074 3 0
-1.7898911 -0.17266589 0.47049844 55 31
-1.726495 0.063782781 0.39173883 62 30
-1.7867899 -0.17081301 0.33956796 61 29
-1.7281507 0.063260302 0.26503256 69 28
-1.7863363 -0.16922028 0.21478513 65 27
-1.7384765 0.063663758 0.16294576 73 26
-1.7876942 -0.16872723 0.12250557 69 25
-1.7319057 0.063420877 0.079191819 73 24
-1.7940341 -0.16839267 0.041025076 66 23
-1.7337387 0.063793346 0 76 22
-1.781623 -0.16689701 -0.040734943 72 21
-1.7343677 0.064423554 -0.079308279 76 20
-1.7928197 -0.16795519 -0.12223624 67 19
-1.7343535 0.065023184 -0.15267749 76 18
-1.7979878 -0.16812374 -0.20271201 66 17
-1.7447257 0.066029102 -0.23773409 72 16
-1.7806197 -0.1670846 -0.30572775 65 15
nan nan nan 0 13
-1.7912829 -0.1687126 -0.40408272 61 14
-0.83993554 0.03276708 -0.27867204 21 12
-0.57933974 -0.054008167 -0.22120883 33 11
-0.59082246 0.024125341 -0.29547578 90 9
-0.5281269 -0.049520053 -0.23276827 32 10
-0.57140779 0.024298156 -0.32459342 95 8
-0.62809658 -0.062000901 -0.40355602 22 7
-0.54748017 0.024798093 -0.39077297 90 6
-0.49220616 -0.049744785 -0.38928968 14 5
-0.27676782 0.012337874 -0.23148786 90 4
-0.25307795 -0.025142586 -0.23288728 67 3
-0.24943791 0.011797831 -0.25377479 12 2
-0.27272612 -0.028506966 -0.31421199 36 1
-0.25322792 0.012797181 -0.30771074 3 0
-1.7832973 -0.16542505 0.4685649 55 31
-1.7262497 0.070110269 0.39173883 62 30
-1.7874041 -0.16426294 0.33956796 61 29
-1.7303753 0.069696441 0.26541892 70 28
-1.7918867 -0.16312863 0.21539101 65 27
-1.735745 0.069931813 0.16270788 72 26
-1.7883006 -0.16217387 0.12250557 67 25
-1.7341567 0.069871902 0.079308279 74 24
-1.7896334 -0.16167279 0.040909022 66 23
-1.7334932 0.070147388 0 76 22
-1.7822229 -0.16036591 -0.040734943 70 21
-1.7291421 0.07026808 -0.079075366 74 20
-1.7884558 -0.16092925 -0.12189095 67 19
-1.7316157 0.071273901 -0.15245394 74 18
-1.7886698 -0.16094266 -0.20157477 66 17
-1.7419981 0.072317541 -0.23739004 70 16
-1.7787396 -0.16064313 -0.30529833 65 15
nan nan nan 0 13
-1.7918891 -0.16214608 -0.40408272 59 14
-0.84217632 0.035805572 -0.27948925 30 12
-0.57490993 -0.051550962 -0.21933419 34 11
-0.59514076 0.026504831 -0.29782084 90 9
-0.53505445 -0.048319817 -0.23595686 23 10
-0.56704581 0.026077595 -0.322007 96 8
-0.63036937 -0.060013324 -0.40495723 34 7
-0.53944582 0.026284311 -0.38471445 90 6
nan nan nan 0 5
-0.27491894 0.013199559 -0.22976033 90 4
-0.24975494 -0.023890473 -0.22924842 72 3
-0.25261736 0.012913153 -0.25759095 12 2
-0.27282396 -0.027554801 -0.31421199 36 1
-0.2531817 0.013681034 -0.30771074 3 0
-1.7790527 -0.15876299 0.46727586 55 31
-1.7259943 0.076135576 0.39173883 59 30
-1.7830766 -0.15758376 0.33862075 62 29
-1.7276539 0.075624958 0.26503256 70 28
-1.7899734 -0.15665303 0.21508808 65 27
-1.7379764 0.076102294 0.16294576 72 26
-1.7863715 -0.15571058 0.12233204 67 25
-1.7339022 0.075924814 0.079308279 73 24
-1.7876971 -0.15520525 0.040850997 67 23
-1.728243 0.075972036 0 76 22
-1.7827718 -0.15414383 -0.040734943 72 21
-1.7263914 0.076190196 -0.078958906 73 20
-1.7890067 -0.15468539 -0.12189095 67 19
-1.7313564 0.077317931 -0.15245394 74 18
-1.7892207 -0.15469807 -0.20157477 65 17
-1.741735 0.07839781 -0.23739004 73 16
-1.7792896 -0.15443319 -0.30529833 65 15
-1.7323312 0.080343843 -0.48629931 58 13
-1.7875892 -0.15546121 -0.40296647 61 14
-0.82788706 0.038055077 -0.27458593 41 12
-0.57970262 -0.049962331 -0.22120883 36 11
-0.59283966 0.028467309 -0.29664832 97 9
-0.54197985 -0.047071796 -0.23914547 15 10
-0.57122421 0.02828671 -0.32459342 96 8
-0.62851411 -0.057614483 -0.40355602 41 7
-0.53736502 0.028054064 -0.38319984 90 6
nan nan nan 0 5
-0.27306747 0.014048489 -0.22803281 90 4
-0.25495255 -0.023553496 -0.23470671 73 3
-0.24451166 0.013263827 -0.24805054 14 2
-0.26689461 -0.025942583 -0.30625728 41 1
-0.25024292 0.014364693 -0.30363509 3 0
-1.7795962 -0.15255198 0.46727586 56 31
-1.7257181 0.082159959 0.39173883 61 30
-1.7885072 -0.15178061 0.33956796 62 29
-1.7249122 0.081535347 0.26464623 67 28
-1.7855642 -0.14998171 0.2144822 65 27
-1.732743 0.081624687 0.16247001 72 26
-1.7819343 -0.14905143 0.121985 69 25
-1.7261435 0.081613429 0.078958906 74 24
-1.7857376 -0.1487532 0.040792968 67 23
-1.7254702 0.081882581 0 74 22
-1.7807826 -0.14802063 -0.040676914 70 21
-1.7261149 0.082215965 -0.078958906 73 20
-1.7845654 -0.14802054 -0.12154565 67 19
-1.7335775 0.083181396 -0.15267749 74 18
-1.787275 -0.14824288 -0.20129047 66 17
-1.7389923 0.084050491 -0.237046 72 16
-1.7773638 -0.14801358 -0.30486897 66 15
-1.7272395 0.086144611 -0.48492366 61 13
-1.7856669 -0.14932604 -0.40240833 61 14
-0.83010852 0.04106795 -0.27540314 43 12
-0.582174 -0.048241284 -0.22214615 37 11
-0.59053743 0.030310985 -0.29547578 98 9
-0.54664904 -0.045577232 -0.24127121 11 10
-0.56258303 0.029692635 -0.31942061 95 8
-0.63901925 -0.056374628 -0.41056219 36 7
-0.53726906 0.029835876 -0.38319984 90 6
nan nan nan 0 5
-0.27121603 0.014837318 -0.22630529 90 4
-0.25673506 -0.022880584 -0.23652615 77 3
-0.24446633 0.014074585 -0.24805054 14 2
-0.27149868 -0.025537189 -0.31222332 37 1
-0.25741592 0.015718466 -0.31382418 3 0
-1.777685 -0.14644809 0.46663132 55 31
-1.7205715 0.087628104 0.39061153 62 30
-1.7767689 -0.14483464 0.33719999 63 29
-1.7196991 0.086998962 0.26387355 69 28
-1.7885249 -0.14426264 0.21478513 65 27
-1.7299622 0.087543644 0.16223213 73 26
-1.7824186 -0.14314152 0.121985 69 25
-1.7308513 0.087595873 0.079191819 73 24
-1.78373 -0.14262804 0.040734943 67 23
-1.7251892 0.087604001 0 76 22
-1.7812884 -0.14180365 -0.040676914 69 21
-1.723339 0.087809257 -0.078842446 73 20
-1.7850466 -0.14210188 -0.12154565 67 19
-1.7258168 0.088838659 -0.15200688 76 18
-1.7902322 -0.14251573 -0.20157477 66 17
-1.7386882 0.090120189 -0.237046 73 16
-1.7802995 -0.14231846 -0.30529833 66 15
-1.7293442 0.092002675 -0.4856115 59 13
-1.7788906 -0.14249805 -0.40073395 59 14
-0.82760882 0.0436894 -0.27458593 52 12
-0.58002931 -0.046015296 -0.22120883 39 11
-0.59704047 0.032761537 -0.29899335 100 9
nan nan nan 0 10
-0.56247598 0.031656235 -0.31942061 96 8
-0.63714045 -0.054071207 -0.40916094 8 7
-0.53914654 0.031837735 -0.38471445 90 6
nan nan nan 0 5
-0.27476847 0.016029771 -0.22976033 84 4
-0.25510699 -0.021817558 -0.23470671 81 3
-0.2444157 0.014927845 -0.24805054 14 2
-0.27309322 -0.024744 -0.31421199 39 1
-0.2515834 0.016177541 -0.30567291 3 0
-1.7757777 -0.14004861 0.46598682 56 31
-1.7178234 0.093497947 0.39004788 62 30
-1.7772638 -0.13863169 0.33719999 63 29
-1.7169188 0.092864715 0.26348719 70 28
-1.7840697 -0.13763009 0.21417925 65 27
-1.7321309 0.093719423 0.16247001 73 26
-1.7829074 -0.13691886 0.121985 66 25
-1.725548 0.093360938 0.078958906 72 24
-1.7817252 -0.13620687 0.040676914 67 23
-1.7223766 0.093486816 0 76 22
-1.7792808 -0.13539188 -0.040618889 70 21
-1.7230221 0.093824305 -0.078842446 73 20
-1.7855316 -0.13587004 -0.12154565 67 19
-1.7279823 0.095002197 -0.15223041 74 18
-1.7882425 -0.13607393 -0.20129047 67 17
-1.7383631 0.096188799 -0.237046 70 16
-1.7758746 -0.13572103 -0.30443954 66 15
-1.7290126 0.098038658 -0.4856115 59 13
-1.7818067 -0.13647719 -0.40129209 61 14
-0.81330007 0.045742244 -0.26968262 44 12
-0.58480674 -0.044361267 -0.22308348 43 11
-0.59031141 0.03443294 -0.29547578 98 9
nan nan nan 0 10
-0.56022686 0.033482499 -0.31812742 97 8
-0.64557672 -0.052554227 -0.41476592 8 7
-0.5390321 0.03371951 -0.38471445 90 6
-0.60511982 -0.051279645 -0.484593 48 5
-0.27831581 0.017247206 -0.23321539 85 4
-0.25859553 -0.021248449 -0.23834558 83 3
-0.24436212 0.015780926 -0.24805054 15 2
-0.27619308 -0.024089407 -0.31818935 40 1
-0.25874355 0.017630056 -0.315862 3 0
-1.7762557 -0.13384914 0.46598682 55 31
-1.7199179 0.099637724 0.39061153 63 30
-1.7752891 -0.13224126 0.33672637 63 29
-1.7190499 0.09900251 0.26387355 69 28
-1.7820647 -0.13121606 0.21387632 63 27
-1.7293088 0.099618822 0.16223213 74 26
-1.7808875 -0.13050881 0.12181149 66 25
-1.7252116 0.099383652 0.078958906 73 24
-1.7821897 -0.12998666 0.040676914 67 23
-1.7245356 0.09964586 0 74 22
-1.7797425 -0.12918021 -0.040618889 70 21
-1.720191 0.099690527 -0.078725986 74 20
-1.7859951 -0.12963656 -0.12154565 67 19
-1.7251548 0.10088486 -0.15200688 74 18
-1.7887067 -0.12983099 -0.20129047 67 17
-1.735545 0.10210765 -0.23670195 70 16
-1.7763375 -0.12952122 -0.30443954 65 15
-1.7310588 0.10422101 -0.48629931 59 13
-1.7798421 -0.13007568 -0.40073395 59 14
-0.81077737 0.048433386 -0.26886541 41 12
-0.59189057 -0.04285185 -0.22589545 41 11
-0.59239078 0.036638472 -0.29664832 96 9
nan nan nan 0 10
-0.56437588 0.035726655 -0.32071382 97 8
-0.66020024 -0.051487941 -0.42457455 40 7
-0.5428791 0.035881829 -0.38774371 90 6
-0.61289936 -0.049821652 -0.49105424 72 5
-0.27464986 0.01794761 -0.22976033 81 4
-0.25525305 -0.020036057 -0.23470671 85 3
-0.24269535 0.01650539 -0.24614246 15 2
-0.27929172 -0.023413468 -0.32216674 39 1
-0.25579399 0.018293284 -0.31178638 3 0
-1.7743031 -0.12747155 0.46534228 56 31
-1.7171289 0.10548826 0.39004788 63 30
-1.7757399 -0.12604354 0.33672637 63 29
-1.7186937 0.10500251 0.26387355 70 28
-1.7825118 -0.12499471 0.21387632 63 27
-1.7314345 0.10580959 0.16247001 70 26
-1.7813321 -0.12429155 0.12181149 69 25
-1.7223618 0.10524967 0.078842446 73 24
-1.7776679 -0.12310157 0.04056086 67 23
-1.7241772 0.10566501 0 76 22
-1.7801825 -0.12296695 -0.040618889 70 21
-1.7198141 0.10599468 -0.078725986 73 20
-1.7839487 -0.12322618 -0.12137299 67 19
-1.727277 0.10706338 -0.15223041 76 18
-1.7817373 -0.12275181 -0.20043755 67 17
-1.7327068 0.108008 -0.23635793 72 16
-1.7743436 -0.12283625 -0.30401018 66 15
-1.7258683 0.11025223 -0.48492366 61 13
-1.7778547 -0.12368955 -0.40017584 62 14
-0.80116445 0.050780021 -0.26559651 40 12
-0.5874207 -0.040344313 -0.22402081 44 11
-0.58785397 0.038400348 -0.29430327 95 9
nan nan nan 0 10
-0.55997294 0.037490506 -0.31812742 97 8
-0.64593631 -0.047933273 -0.41476592 28 7
-0.5625785 0.039348777 -0.40288994 90 6
-0.60927457 -0.047261577 -0.48782364 90 5
-0.27818528 0.019238332 -0.23321539 81 4
-0.25020048 -0.018654758 -0.22924842 83 3
-0.23780704 0.016950328 -0.24041823 15 2
-0.28390148 -0.022805521 -0.32813281 36 1
-0.25139689 0.01885506 -0.30567291 3 0
-1.7723488 -0.12079989 0.46469781 56 31
-1.7167307 0.11178112 0.39004788 63 30
-1.7712921 -0.1191978 0.33577919 63 29
-1.7158328 0.1111383 0.26348719 70 28
-1.7780063 -0.1181248 0.21327044 63 27
-1.7260685 0.11182678 0.16199426 72 26
-1.7817757 -0.11776181 0.12181149 66 25
-1.7244563 0.11172636 0.078958906 72 24
-1.7780868 -0.1168956 0.04056086 67 23
-1.7187893 0.11165322 0 76 22
-1.7806214 -0.11644144 -0.040618889 72 21
-1.7244172 0.1123283 -0.078958906 72 20
-1.7819 -0.11652071 -0.12120035 67 19
-1.7219043 0.11306081 -0.15178333 76 18
-1.7796769 -0.11636616 -0.20015325 67 17
-1.7372406 0.11469049 -0.237046 70 16
-1.7747616 -0.11664189 -0.30401018 65 15
-1.725473 0.11627597 -0.48492366 59 13
-1.7782961 -0.11717255 -0.40017584 59 14
-0.79626846 0.0532475 -0.26396209 39 12
-0.5944941 -0.038776174 -0.22683278 40 11
-0.583305 0.040232804 -0.29195821 95 9
nan nan nan 0 10
-0.55983865 0.039444949 -0.31812742 97 8
-0.6419704 -0.045368489 -0.41196343 11 7
-0.57433522 0.042240299 -0.41197771 106 6
-0.61133802 -0.045284566 -0.48943892 97 5
-0.26911134 0.019467326 -0.22457777 78 4
-0.24855548 -0.017638709 -0.22742899 90 3
-0.24739873 0.018661465 -0.2518667 18 2
-0.27945212 -0.021414315 -0.32216674 34 1
-0.25565654 0.020123225 -0.31178638 3 0
-1.7751698 -0.11477174 0.46534228 56 31
-1.7187598 0.11794285 0.39061153 63 30
-1.7741468 -0.1131738 0.33625278 62 29
-1.7178984 0.11729843 0.26387355 69 28
-1.7808841 -0.11207694 0.21357337 65 27
-1.7281709 0.11772231 0.16223213 73 26
-1.782176 -0.11154153 0.12181149 69 25
-1.7215645 0.11757182 0.078842446 70 24
-1.7809783 -0.11084689 0.040618889 67 23
-1.723377 0.11800015 0 76 22
-1.7785033 -0.1103778 -0.04056086 72 21
-1.7215235 0.11817276 -0.078842446 72 20
-1.7798067 -0.11014253 -0.12102769 67 19
-1.7240036 0.11894479 -0.15200688 76 18
-1.7800721 -0.11015322 -0.20015325 67 17
-1.7319105 0.12010185 -0.23635793 67 16
-1.7702422 -0.11013339 -0.3031514 66 15
-1.7250565 0.1222983 -0.48492366 61 13
-1.7762429 -0.11111929 -0.3996177 59 14
-0.79136509 0.055681422 -0.26232764 34 12
-0.59693199 -0.036957741 -0.22777011 40 11
-0.58757156 0.042503376 -0.29430327 95 9
nan nan nan 0 10
-0.56183779 0.041467976 -0.31942061 97 8
-0.63179928 -0.042388983 -0.40495723 8 7
-0.59005123 0.045434568 -0.42409468 113 6
-0.60197145 -0.042538397 -0.48136237 90 5
-0.26544428 0.020050908 -0.22112274 76 4
-0.2537398 -0.017225096 -0.23288728 84 3
-0.24250922 0.019045938 -0.24614246 21 2
-0.28405014 -0.02087255 -0.32813281 29 1
-0.25126272 0.020565813 -0.30567291 3 0
-1.7707192 -0.10858195 0.46405327 56 31
-1.7110716 0.12310794 0.38892055 65 30
-1.7745124 -0.1072899 0.33625278 62 29
-1.7150365 0.12281494 0.26348719 69 28
-1.7738152 -0.10571752 0.21266456 65 27
-1.7302315 0.12393501 0.16247001 73 26
-1.7800466 -0.10548007 0.12163796 66 25
-1.7211652 0.1232801 0.078842446 70 24
-1.7763467 -0.10463952 0.040502835 67 23
-1.7179894 0.12334997 0 76 22
-1.7763829 -0.10401945 -0.040502835 70 21
-1.7186314 0.12369843 -0.078725986 73 20
-1.7751831 -0.10394143 -0.1206824 67 19
-1.7186114 0.12459549 -0.1515598 76 18
-1.7804276 -0.10424968 -0.20015325 66 17
-1.7240725 0.12559739 -0.23532578 70 16
-1.7730561 -0.10441065 -0.30358076 66 15
-1.7270381 0.12819918 -0.4856115 59 13
-1.7741873 -0.10477131 -0.39905956 59 14
-0.79588759 0.058666248 -0.26396209 36 12
-0.59937048 -0.035018962 -0.22870745 39 11
-0.57861573 0.043850422 -0.28961319 95 9
-0.69211978 -0.041522816 -0.30929479 55 10
-0.56168962 0.043428902 -0.31942061 96 8
-0.61954272 -0.039448716 -0.39654982 8 7
-0.59187084 0.047662113 -0.42560932 114 6
-0.60211629 -0.04043686 -0.48136237 83 5
-0.26717263 0.021138003 -0.22285026 67 4
-0.2537984 -0.016339272 -0.23288728 89 3
-0.24244124 0.019892337 -0.24614246 28 2
-0.27959138 -0.019511664 -0.32216674 23 1
-0.25118941 0.02144276 -0.30567291 3 0
-1.7710874 -0.10240031 0.46405327 54 31
-1.7082031 0.12889351 0.38835692 65 30
-1.7724255 -0.10095203 0.33577919 62 29
-1.7096719 0.12842438 0.26271451 70 28
-1.7766508 -0.099667512 0.21296749 65 27
-1.7248255 0.12959462 0.16199426 73 26
-1.7779142 -0.099123642 0.12146445 69 25
-1.7207245 0.12928733 0.078842446 70 24
-1.7742227 -0.097986929 0.040444806 67 23
-1.7200412 0.12953705 0 73 22
-1.7767352 -0.097818084 -0.040502835 70 21
-1.7156767 0.12980512 -0.078609534 74 20
-1.7755351 -0.097744256 -0.1206824 69 19
-1.7181661 0.13059382 -0.1515598 76 18
-1.773358 -0.097304836 -0.19930032 67 17
-1.7260925 0.13180645 -0.23566984 69 16
-1.7685089 -0.097632982 -0.30272198 66 15
-1.7217648 0.13414855 -0.48423582 61 13
-1.7721093 -0.098439015 -0.39850146 59 14
-0.78860188 0.061015714 -0.2615104 39 12
-0.60643554 -0.033231851 -0.23151942 33 11
-0.58506012 0.046420723 -0.29313076 92 9
-0.6922673 -0.038985789 -0.30929479 55 10
-0.56152666 0.045487307 -0.31942061 98 8
-0.61761707 -0.037044466 -0.39514861 10 7
-0.599617 0.050532799 -0.4316678 112 6
-0.59654957 -0.037839394 -0.47651646 45 5
-0.26349467 0.02178262 -0.21939522 67 4
-0.25898659 -0.015782973 -0.23834558 90 3
-0.24076261 0.020581989 -0.24423438 28 2
-0.27966103 -0.018486779 -0.32216674 22 1
-0.2554318 0.0227993 -0.31178638 3 0
-1.7690392 -0.095774278 0.46340877 55 31
-1.710147 0.13534884 0.38892055 63 30
-1.7727836 -0.094455086 0.33577919 63 29
-1.7067276 0.13449255 0.26232815 70 28
-1.7745261 -0.093021765 0.21266456 65 27
-1.7243389 0.13591555 0.16199426 74 26
-1.7782656 -0.092606597 0.12146445 67 25
-1.7177496 0.13539383 0.078725986 73 24
-1.7745539 -0.091793135 0.040444806 66 23
-1.7195548 0.13584045 0 73 22
-1.774586 -0.091173694 -0.040444806 72 21
-1.712724 0.13559286 -0.078493066 74 20
-1.7733909 -0.091104552 -0.12050975 67 19
-1.7176759 0.13689034 -0.1515598 77 18
-1.7761674 -0.091244936 -0.19958463 67 17
-1.7305337 0.13853349 -0.23635793 73 16
-1.768839 -0.091459125 -0.30272198 66 15
-1.7236813 0.140356 -0.48492366 59 13
-1.7724582 -0.091943249 -0.39850146 61 14
-0.79544735 0.064359955 -0.26396209 39 12
-0.6134901 -0.031500492 -0.2343314 25 11
-0.57388788 0.047606412 -0.28726813 94 9
nan nan nan 0 10
-0.57628244 0.048773259 -0.328473 100 8
-0.611543 -0.034510255 -0.3909449 8 7
-0.59349525 0.05207853 -0.42712393 108 6
-0.60429436 -0.036250677 -0.48297769 39 5
-0.26701456 0.023049293 -0.22285026 62 4
-0.25732967 -0.014760138 -0.23652615 88 3
-0.24711406 0.022113873 -0.2518667 23 2
-0.27670223 -0.017285923 -0.31818935 22 1
-0.25246993 0.02339004 -0.30771074 3 0
-1.7645382 -0.089347437 0.46211973 55 31
-1.7120912 0.14152136 0.38948423 63 30
-1.7657479 -0.087889917 0.33435842 65 29
-1.708709 0.14065515 0.26271451 70 28
-1.7723615 -0.08670225 0.2123616 65 27
-1.7213739 0.1417264 0.16175638 74 26
-1.7785779 -0.086398728 0.12146445 67 25
-1.7172666 0.14138907 0.078725986 74 24
-1.769871 -0.085350558 0.040328752 67 23
-1.7115964 0.14121571 0 77 22
-1.7723972 -0.08485572 -0.040386781 70 21
-1.7122401 0.14157057 -0.078493066 74 20
-1.768716 -0.084668301 -0.12016445 69 19
-1.7171876 0.1428853 -0.1515598 77 18
-1.7739942 -0.084922187 -0.19930032 67 17
-1.7300396 0.14457335 -0.23635793 72 16
-1.7691475 -0.085284173 -0.30272198 66 15
-1.7207863 0.14616537 -0.48423582 58 13
-1.7703345 -0.085634492 -0.39794332 59 14
-0.79521787 0.067136183 -0.26396209 41 12
-0.6089673 -0.029117843 -0.23245674 18 11
-0.57811612 0.050008059 -0.28961319 94 9
nan nan nan 0 10
-0.57823914 0.050981455 -0.32976621 104 8
-0.61165977 -0.032375362 -0.3909449 8 7
-0.59528977 0.054339152 -0.42863855 110 6
-0.59870368 -0.033790618 -0.47813177 34 5
-0.2651343 0.023801411 -0.22112274 62 4
-0.26251215 -0.0142 -0.24198443 90 3
-0.24382228 0.022640318 -0.24805054 25 2
-0.2737385 -0.016105952 -0.31421199 17 1
-0.2552664 0.024581982 -0.31178638 3 0
-1.7648393 -0.083187513 0.46211973 58 31
-1.7115867 0.14749683 0.38948423 62 30
-1.766044 -0.081725769 0.33435842 65 29
-1.7106683 0.14683321 0.26310086 69 28
-1.7701746 -0.080398999 0.21205868 65 27
-1.7208945 0.14743391 0.16175638 73 26
-1.7763773 -0.080074057 0.12129091 67 25
-1.7142749 0.14716581 0.078609534 73 24
-1.7701583 -0.079172038 0.040328752 67 23
-1.716074 0.14762434 0 76 22
-1.7726688 -0.078977779 -0.040386781 72 21
-1.7117356 0.14754653 -0.078493066 74 20
-1.7714921 -0.078607813 -0.12033709 69 19
-1.7167042 0.14857893 -0.1515598 76 18
-1.7717987 -0.07861574 -0.199016 69 17
-1.7221508 0.14965694 -0.23532578 70 16
-1.7694345 -0.079108179 -0.30272198 65 15
-1.7226595 0.15238605 -0.48492366 58 13
-1.7657402 -0.079537183 -0.39682707 61 14
-0.79733169 0.070125334 -0.2647793 44 12
nan nan nan 0 11
-0.57355052 0.051511608 -0.28726813 91 9
nan nan nan 0 10
-0.5738073 0.052490786 -0.32717982 108 8
-0.60763425 -0.030016866 -0.38814244 7 7
-0.59312701 0.056117088 -0.42712393 113 6
-0.60452706 -0.032136567 -0.48297769 36 5
-0.26685145 0.024866255 -0.22285026 61 4
-0.25742418 -0.013008221 -0.23652615 90 3
-0.24695781 0.023795398 -0.2518667 28 2
-0.27681348 -0.015402083 -0.31818935 17 1
-0.25662279 0.025588514 -0.31382418 3 0
-1.7651055 -0.077334642 0.46211973 55 31
-1.7086625 0.15295152 0.38892055 63 30
-1.763853 -0.075760111 0.33388481 65 29
-1.7052523 0.15206003 0.26232815 69 28
-1.7704315 -0.074528448 0.21205868 65 27
-1.7203693 0.15344004 0.16175638 74 26
-1.7766331 -0.074182935 0.12129091 67 25
-1.7112902 0.1526247 0.078493066 70 24
-1.7679142 -0.073194712 0.040270727 67 23
-1.7081056 0.15263708 0 77 22
-1.7679396 -0.072577588 -0.040270727 72 21
-1.7137239 0.15344796 -0.078609534 74 20
-1.7642677 -0.072415672 -0.11981915 70 19
-1.7161752 0.15457042 -0.1515598 76 18
-1.7670865 -0.072529197 -0.19844739 69 17
-1.7216179 0.15566747 -0.23532578 70 16
-1.7696871 -0.073240094 -0.30272198 65 15
-1.7197515 0.15787491 -0.48423582 59 13
-1.7635726 -0.073268525 -0.39626896 61 14
-0.7970947 0.072768994 -0.2647793 47 12
-0.67629415 -0.028009281 -0.25963917 26 11
-0.57776237 0.053941984 -0.28961319 91 9
nan nan nan 0 10
-0.57574964 0.054704808 -0.328473 118 8
-0.60566264 -0.027896965 -0.38674119 8 7
-0.5988633 0.058795314 -0.4316678 113 6
-0.60273033 -0.029922323 -0.48136237 34 5
-0.26676303 0.025797589 -0.22285026 54 4
-0.25746801 -0.012109565 -0.23652615 89 3
-0.24045178 0.023941554 -0.24423438 29 2
-0.28140122 -0.014725859 -0.32415542 12 1
-0.26084816 0.026979731 -0.31993765 3 0
-1.7605379 -0.070971332 0.46083066 56 31
-1.7056934 0.15868615 0.38835692 63 30
-1.7665594 -0.069702893 0.33435842 63 29
-1.7096294 0.15847386 0.26310086 69 28
-1.7682011 -0.068248875 0.21175572 63 27
-1.7198234 0.15944433 0.16175638 73 26
-1.7768812 -0.067980878 0.12129091 67 25
-1.718206 0.15929843 0.078842446 72 24
-1.7681588 -0.067023098 0.040270727 67 23
-1.7100515 0.15883297 0 76 22
-1.773177 -0.06660039 -0.040386781 70 21
-1.7131778 0.15942903 -0.078609534 73 20
-1.7670019 -0.066353828 -0.11999179 69 19
-1.7106675 0.16008967 -0.15111272 76 18
-1.767329 -0.066360474 -0.19844739 69 17
-1.7235292 0.16191085 -0.23566984 72 16
-1.767471 -0.066965595 -0.30229262 66 15
-1.7144052 0.1634146 -0.48286018 59 13
-1.7662524 -0.067208156 -0.39682707 59 14
-0.79448438 0.075321198 -0.26396209 47 12
-0.7064907 -0.026904829 -0.27182442 55 11
-0.57317692 0.055514455 -0.28726813 90 9
nan nan nan 0 10
-0.57981181 0.057151843 -0.3310594 126 8
-0.59748399 -0.025392525 -0.38113624 10 7
-0.60063219 0.061095007 -0.43318242 109 6
-0.60092551 -0.027721021 -0.47974709 34 5
-0.27205998 0.027323516 -0.22803281 55 4
-0.2575087 -0.011210759 -0.23652615 90 3
-0.24197149 0.024965283 -0.24614246 33 2
-0.28749973 -0.01410922 -0.33211017 11 1
-0.25787607 0.027549658 -0.315862 3 0
-1.7607862 -0.064518169 0.46083066 55 31
-1.7051003 0.16493675 0.38835692 63 30
-1.7643499 -0.063136421 0.33388481 63 29
-1.7065787 0.16449873 0.26271451 69 28
-1.7634796 -0.061587498 0.21114984 65 27
-1.7167506 0.16550475 0.1615185 76 26
-1.7721337 -0.061288532 0.12094387 67 25
-1.7101543 0.16486642 0.078493066 73 24
-1.7658949 -0.060453046 0.040212698 67 23
-1.7094579 0.16509956 0 76 22
-1.7709113 -0.060012817 -0.040328752 69 21
-1.7100966 0.16546337 -0.078493066 74 20
-1.7647408 -0.059789088 -0.11981915 70 19
-1.7150253 0.16684705 -0.1515598 76 18
-1.7675602 -0.059882436 -0.19844739 67 17
-1.7229242 0.16822681 -0.23566984 72 16
-1.7677046 -0.060487039 -0.30229262 65 15
-1.7161862 0.16993709 -0.48354799 59 13
-1.7640517 -0.060646899 -0.39626896 62 14
-0.80125475 0.078947678 -0.26641375 48 12
-0.70658457 -0.024315231 -0.27182442 97 11
-0.57736158 0.058074947 -0.28961319 91 9
-0.66806006 -0.023506613 -0.29760325 7 10
-0.57534343 0.058823347 -0.328473 129 8
-0.59757304 -0.023202466 -0.38113624 10 7
-0.60238135 0.063512899 -0.43469703 106 6
-0.60864687 -0.025879193 -0.48620832 36 5
-0.26836708 0.027910713 -0.22457777 55 4
-0.2541236 -0.010089196 -0.23288728 90 3
-0.24027431 0.025661564 -0.24423438 30 2
-0.28301194 -0.012797722 -0.32614413 10 1
-0.26208597 0.029021099 -0.32197547 3 0
-1.7585866 -0.058288027 0.46018615 55 31
-1.7069374 0.17113379 0.38892055 62 30
-1.7645596 -0.056977298 0.33388481 63 29
-1.7035367 0.17020607 0.26232815 69 28
-1.7612036 -0.055350024 0.21084692 65 27
-1.7137161 0.17094657 0.16128062 74 26
-1.7723368 -0.055102255 0.12094387 66 25
-1.7095683 0.17083497 0.078493066 76 24
-1.766095 -0.054288551 0.040212698 67 23
-1.7063838 0.17081346 0 77 22
-1.7686026 -0.054060124 -0.040270727 72 21
-1.7045395 0.17092699 -0.078260154 74 20
-1.7624459 -0.053549416 -0.1196465 70 19
-1.7070311 0.17177589 -0.15088919 74 18
-1.770241 -0.05379102 -0.19873169 69 17
-1.7174301 0.1734354 -0.23498175 69 16
-1.7654432 -0.054237146 -0.30186319 65 15
-1.713192 0.17567834 -0.48286018 56 13
-1.7618072 -0.054717664 -0.39571083 59 14
-0.80802357 0.082483768 -0.26886541 47 12
-0.7066614 -0.021971978 -0.27182442 114 11
-0.57716584 0.059989229 -0.28961319 91 9
-0.65683115 -0.020771757 -0.2922889 7 10
-0.57727194 0.060964603 -0.32976621 121 8
-0.59351289 -0.020950949 -0.37833378 12 7
-0.60216743 0.065510117 -0.43469703 103 6
-0.60491681 -0.023692917 -0.48297769 34 5
-0.26647827 0.02858966 -0.22285026 51 4
-0.25244313 -0.0091632791 -0.23106785 90 3
-0.23537767 0.025870988 -0.23851015 32 2
-0.29212967 -0.01234438 -0.3380762 8 1
-0.25767744 0.029349288 -0.315862 3 0
-1.7563559 -0.052380573 0.45954162 55 31
-1.7015158 0.17628492 0.38779324 62 30
-1.7598317 -0.050976429 0.33293763 62 29
-1.7005064 0.17559735 0.26194182 70 28
-1.7588971 -0.049436171 0.21054396 65 27
-1.713109 0.17692752 0.16128062 74 26
-1.7725098 -0.049224671 0.12094387 66 25
-1.7065088 0.17624342 0.078376614 73 24
-1.7637672 -0.048359707 0.040154673 67 23
-1.7082944 0.17673156 0 76 22
-1.7662822 -0.047815129 -0.040212698 72 21
-1.7089306 0.1770997 -0.078493066 74 20
-1.7651069 -0.047775589 -0.11981915 70 19
-1.7088972 0.17799462 -0.15111272 77 18
-1.7654442 -0.047779094 -0.19816308 67 17
-1.7143517 0.17916872 -0.23463769 73 16
-1.7656134 -0.048382428 -0.30186319 65 15
-1.7126 0.18135852 -0.48286018 58 13
-1.7619876 -0.048567474 -0.39571083 61 14
-0.81714129 0.086180188 -0.27213427 54 12
-0.7067337 -0.019505136 -0.27182442 121 11
-0.58573031 0.062983438 -0.29430327 94 9
-0.66368139 -0.018812664 -0.29547751 8 10
-0.58768517 0.064184733 -0.33623222 112 8
-0.59151006 -0.018906808 -0.37693256 41 7
-0.59205729 0.066460036 -0.42712393 99 6
-0.60690236 -0.02165846 -0.484593 32 5
-0.2699649 0.029953873 -0.22630529 51 4
-0.25247359 -0.0082820319 -0.23106785 90 3
-0.23528592 0.026692452 -0.23851015 36 2
-0.29368407 -0.011400172 -0.34006488 8 1
-0.25757343 0.030248569 -0.315862 3 0
-1.756528 -0.046249423 0.45954162 56 31
-1.7033116 0.18248588 0.38835692 62 30
-1.7599988 -0.044833161 0.33293763 62 29
-1.7023387 0.18179764 0.26232815 72 28
-1.7590588 -0.043296173 0.21054396 65 27
-1.7124809 0.18290631 0.16128062 74 26
-1.7726709 -0.043037158 0.12094387 67 25
-1.7083659 0.18246758 0.078493066 73 24
-1.761434 -0.041832041 0.040096644 69 23
-1.7076671 0.18269353 0 77 22
-1.7639399 -0.041586988 -0.040154673 72 21
-1.7033046 0.18282264 -0.078260154 74 20
-1.7602764 -0.041489445 -0.11947385 70 19
-1.7057903 0.18368892 -0.15088919 76 18
-1.7680905 -0.041369647 -0.19844739 69 17
-1.7186389 0.18569012 -0.23532578 72 16
-1.763317 -0.041848917 -0.30143383 65 15
-1.7095348 0.18736929 -0.48217231 55 13
-1.7621462 -0.042416696 -0.39571083 61 14
-0.81212395 0.088648677 -0.27049983 63 12
-0.70911717 -0.016978597 -0.27276173 118 11
-0.5855068 0.065027632 -0.29430327 98 9
-0.65469837 -0.016120981 -0.29122603 11 10
-0.58319598 0.065840513 -0.33364582 106 8
-0.58950615 -0.016670402 -0.37553129 65 7
-0.5997085 0.069579862 -0.43318242 98 6
-0.60125732 -0.01922315 -0.47974709 32 5
-0.26985332 0.03094314 -0.22630529 50 4
-0.2542153 -0.0074275155 -0.23288728 90 3
-0.23519132 0.027513588 -0.23851015 37 2
-0.29675055 -0.010463779 -0.34404227 8 1
-0.25458962 0.030811358 -0.31178638 3 0
-1.7542709 -0.039752942 0.45889711 55 31
-1.7002107 0.1884561 0.38779324 63 30
-1.7626054 -0.038439114 0.33341122 63 29
-1.701661 0.1880358 0.26232815 70 28
-1.7616868 -0.036904044 0.21084692 65 27
-1.711799 0.18918163 0.16128062 74 26
-1.7703234 -0.036484867 0.12077036 67 25
-1.7052039 0.18845034 0.078376614 70 24
-1.7590705 -0.035629153 0.040038615 70 23
-1.7045015 0.18867297 0 76 22
-1.7615817 -0.035068333 -0.040096644 72 21
-1.7026561 0.18876718 -0.078260154 74 20
-1.7604166 -0.035037432 -0.11947385 70 19
-1.70758 0.19021857 -0.15111272 76 18
-1.7632579 -0.035091843 -0.19787878 67 17
-1.7179468 0.19198801 -0.23532578 69 16
-1.7634523 -0.035693537 -0.30143383 65 15
-1.7112584 0.19360889 -0.48286018 59 13
-1.7574173 -0.035851497 -0.39459458 61 14
-0.8165037 0.092025273 -0.27213427 67 12
-0.71148914 -0.014559031 -0.27369905 106 11
-0.59184217 0.067955188 -0.29782084 103 9
-0.66153687 -0.014006153 -0.29441464 22 10
-0.58721083 0.068388432 -0.33623222 104 8
-0.59576923 -0.014795721 -0.37973502 80 7
-0.5955143 0.07118389 -0.43015319 101 6
-0.59559971 -0.016933465 -0.47490111 29 5
-0.27691337 0.032804653 -0.23321539 51 4
-0.25423971 -0.0065400936 -0.23288728 90 3
-0.24149382 0.02922661 -0.24614246 41 2
-0.29224455 -0.009233579 -0.3380762 8 1
-0.25878531 0.032286476 -0.31789982 3 0
-1.756814 -0.033678897 0.45954162 56 31
-1.6947036 0.19382989 0.38666594 65 30
-1.7602746 -0.032237832 0.33293763 61 29
-1.6985406 0.19369152 0.26194182 70 28
-1.7593237 -0.030707609 0.21054396 65 27
-1.70869 0.19457239 0.16104275 76 26
-1.7654529 -0.030212788 0.12042332 67 25
-1.7070165 0.19468763 0.078493066 70 24
-1.761683 -0.029533997 0.040096644 67 23
-1.7063161 0.19490857 0 74 22
-1.7616882 -0.029226523 -0.040096644 72 21
-1.6995062 0.19442238 -0.078143694 76 20
-1.7580346 -0.028847819 -0.11930119 70 19
-1.7044662 0.19559303 -0.15088919 76 18
-1.7658529 -0.028980928 -0.19816308 67 17
-1.709922 0.19682491 -0.23429367 70 16
-1.7635661 -0.029537726 -0.30143383 65 15
-1.7081851 0.19929942 -0.48217231 59 13
-1.7575266 -0.030023495 -0.39459458 61 14
-0.80679315 0.093757488 -0.26886541 76 12
-0.71616781 -0.012295833 -0.2755737 90 11
-0.59818858 0.070721246 -0.3013384 103 9
-0.64800811 -0.011403065 -0.28803745 22 10
-0.58698082 0.070335329 -0.33623222 103 8
-0.59167784 -0.012608336 -0.37693256 90 7
-0.60316712 0.074162304 -0.43621168 102 6
-0.58611643 -0.014671934 -0.46682456 33 5
-0.27321976 0.033250991 -0.22976033 54 4
-0.25597352 -0.0057562063 -0.23470671 90 3
-0.23659402 0.029372957 -0.24041823 36 2
-0.29227352 -0.0082644094 -0.3380762 8 1
-0.25867683 0.033144467 -0.31789982 3 0
-1.7520858 -0.027769437 0.45825258 56 31
-1.6964701 0.19973664 0.38722959 65 30
-1.7579174 -0.026360102 0.33246404 61 29
-1.6954362 0.19903186 0.26155546 70 28
-1.7544533 -0.02479622 0.20993808 65 27
-1.7104716 0.20082901 0.16128062 74 26
-1.7630497 -0.024320303 0.12024979 67 25
-1.7038816 0.20005283 0.078376614 74 24
-1.7592722 -0.023654804 0.040038615 70 23
-1.7031777 0.20027068 0 77 22
-1.7642787 -0.023113111 -0.040154673 72 21
-1.7013319 0.20035233 -0.078260154 74 20
-1.7556269 -0.022981679 -0.11912854 70 19
-1.7013007 0.20124583 -0.15066564 76 18
-1.7634559 -0.023089008 -0.19787878 67 17
-1.7092245 0.20279244 -0.23429367 73 16
-1.7661169 -0.023725899 -0.30186319 65 15
-1.7099009 0.20525247 -0.48286018 61 13
-1.7576207 -0.023888402 -0.39459458 61 14
-0.81585842 0.097580865 -0.27213427 76 12
-0.72315824 -0.0099159982 -0.2783857 48 11
