# .PCD v0.7 - Point Cloud Data file format
VERSION 0.7
FIELDS x y z intensity ring
SIZE 4 4 4 4 2
TYPE F F F F U
COUNT 1 1 1 1 1
WIDTH 1245
HEIGHT 1
VIEWPOINT 0 0 0 1 0 0 0
POINTS 1245
DATA ascii
-1.5497619 0.86321288 0.40244824 66 30
-1.6193289 0.6392327 0.32914886 67 29
-1.5455817 0.86019135 0.2712141 73 28
-1.6084344 0.63654584 0.20690867 72 27
-1.565725 0.87144917 0.16794118 73 26
-1.6160887 0.64020813 0.11851459 73 25
-1.5557775 0.86590356 0.08140453 72 24
-1.6169454 0.64119226 0.039574403 72 23
-1.5616481 0.86953783 0 73 22
-1.6190459 0.64267552 -0.039632428 74 21
-1.5576556 0.86766458 -0.081520997 70 20
-1.6110412 0.63951761 -0.1175747 73 19
-1.5657825 0.87327313 -0.1578189 70 18
-1.6230257 0.64426196 -0.19588861 69 17
-1.5613174 0.87148368 -0.24358284 67 16
-1.6189908 0.6420328 -0.29756927 65 15
-1.5550572 0.8707822 -0.50005603 55 13
-1.613704 0.6396389 -0.38957146 59 14
-1.5570976 0.87403798 -0.60556006 56 12
-1.6131278 0.63527411 -0.68705964 54 11
-1.5582516 0.88138181 -0.93215573 58 9
-1.6142821 0.63382173 -0.79821444 62 10
-1.5596502 0.88571149 -1.0630112 63 8
-0.76939487 0.29986563 -0.53527224 32 7
-0.61632884 0.35074973 -0.51345748 78 6
-0.5984475 0.23141834 -0.51366854 90 5
-0.23477077 0.13297586 -0.22457777 59 4
-0.23371533 0.091243811 -0.22924842 74 3
-0.21689472 0.12375439 -0.25377479 11 2
-0.29715452 0.11364158 -0.37188384 11 1
-0.27346838 0.15797968 -0.39533696 4 0
-1.6169866 0.64323342 0.45503002 56 31
-1.5467392 0.8686173 0.40244824 65 30
-1.6170876 0.64488131 0.32914886 67 29
-1.5447221 0.86679256 0.27160043 72 28
-1.6108137 0.64399236 0.20751455 70 27
-1.5626736 0.87690926 0.16794118 72 26
-1.6161609 0.64676887 0.11868811 72 25
-1.5527456 0.87132901 0.08140453 72 24
-1.6100545 0.64498031 0.039458349 72 23
-1.5607821 0.87621021 0 70 22
-1.6144714 0.64739615 -0.039574403 74 21
-1.5546173 0.87309653 -0.081520997 69 20
-1.6134312 0.64698732 -0.11792 73 19
-1.5648936 0.87995648 -0.15804245 70 18
-1.6207669 0.64992344 -0.19588861 69 17
-1.5582657 0.87692839 -0.24358284 66 16
-1.6121646 0.64585495 -0.29671049 65 15
-1.556191 0.8785736 -0.5014317 54 13
-1.6159886 0.64707309 -0.3906877 58 14
-1.5581466 0.88180053 -0.60719448 56 12
-1.6109005 0.64090109 -0.68705964 55 11
-1.5570822 0.88791209 -0.93332827 59 9
-1.6120598 0.63945276 -0.79821444 61 10
-1.5565491 0.8911503 -1.0630112 59 8
-0.76834345 0.30254951 -0.53527224 32 7
-0.60821426 0.34891507 -0.50739902 72 6
-0.60119683 0.23487847 -0.51689917 90 5
-0.23430517 0.13379456 -0.22457777 59 4
-0.23019023 0.090840258 -0.22560956 70 3
-0.21367952 0.12286817 -0.24995862 11 2
-0.29817468 0.1152097 -0.37387252 10 1
-0.26918146 0.15671194 -0.38922352 4 0
-1.6123756 0.64825779 0.45438549 56 31
-1.543545 0.87428057 0.40244824 63 30
-1.610157 0.64897507 0.32820165 65 29
-1.5436828 0.87366772 0.27198678 70 28
-1.6084425 0.64989197 0.20751455 69 27
-1.5616132 0.88385934 0.16817905 74 26
-1.6184063 0.65455168 0.11903515 69 25
-1.5517135 0.87824708 0.081520997 72 24
-1.6099979 0.65181178 0.039516374 73 23
-1.55756 0.88192481 0 72 22
-1.6144055 0.65424466 -0.039632428 74 21
-1.5514069 0.87878871 -0.081520997 69 20
-1.6110492 0.65289652 -0.11792 73 19
-1.5594935 0.8844552 -0.1578189 69 18
-1.6206771 0.65678912 -0.19617291 67 17
-1.5571932 0.88385886 -0.24392687 67 16
-1.6143551 0.65360153 -0.29756927 65 15
-1.5571346 0.88665533 -0.50280738 55 13
-1.6090854 0.65116984 -0.38957146 58 14
-1.5569545 0.88867939 -0.60801172 56 12
-1.6106921 0.64766246 -0.68799692 54 11
-1.5538174 0.8936131 -0.93332827 58 9
-1.6097052 0.64535695 -0.79821444 63 10
-1.5532722 0.89684939 -1.0630112 61 8
-0.77300805 0.30764103 -0.53947592 33 7
-0.61036718 0.35314652 -0.51042825 74 6
-0.59677625 0.23569478 -0.51366854 90 5
-0.23381321 0.13465244 -0.22457777 61 4
-0.23305643 0.092913888 -0.22924842 66 3
-0.21739151 0.12612966 -0.25568286 10 2
-0.2963337 0.11576506 -0.37188384 10 1
-0.2586703 0.15173738 -0.37292096 4 0
-1.6101031 0.65388209 0.45438549 56 31
-1.5425974 0.88087362 0.40301186 66 30
-1.6101567 0.655514 0.32867527 65 29
-1.5449113 0.88150436 0.27275947 72 28
-1.6061643 0.65550256 0.20751455 70 27
-1.5585185 0.889305 0.16817905 72 26
-1.6138015 0.65925711 0.11886163 72 25
-1.5529733 0.8861388 0.08175391 72 24
-1.6077127 0.65742773 0.039516374 73 23
-1.5588113 0.88984048 0 72 22
-1.6144263 0.66081947 -0.039690454 74 21
-1.5504967 0.88543975 -0.08163745 69 20
-1.6087604 0.65851611 -0.11792 73 19
-1.5628769 0.89360917 -0.15848951 69 18
-1.6160747 0.66150469 -0.19588861 67 17
-1.5583938 0.89175403 -0.24461496 67 16
-1.6120638 0.65923268 -0.29756927 65 15
-1.5519471 0.89088601 -0.50211954 54 13
-1.6090598 0.65770143 -0.39012957 58 14
-1.553843 0.89410871 -0.60801172 55 12
-1.6105704 0.65414995 -0.68893427 54 11
-1.5545061 0.90125144 -0.93567336 58 9
-1.6095414 0.65181816 -0.79927731 58 10
-1.5538274 0.90442336 -1.0655974 62 8
-0.76808232 0.30880573 -0.53667343 34 7
-0.60741633 0.35426667 -0.50891364 69 6
-0.59594989 0.23777649 -0.51366854 90 5
-0.23334177 0.13546777 -0.22457777 61 4
-0.23592703 0.094968557 -0.23288728 65 3
-0.21417986 0.12522528 -0.2518667 10 2
-0.29875746 0.11788212 -0.3758612 10 1
-0.25566053 0.15114069 -0.36884531 4 0
-1.6100469 0.66041189 0.45503002 56 31
-1.5416225 0.88747072 0.40357554 66 30
-1.6169453 0.66485155 0.33056965 65 29
-1.5418249 0.88689172 0.27275947 70 28
-1.606162 0.66204751 0.20781749 69 27
-1.557717 0.89571154 0.16841693 72 26
-1.616104 0.6667822 0.11920867 69 25
-1.5477076 0.89030635 0.08163745 73 24
-1.6054081 0.66303563 0.039516374 72 23
-1.5578609 0.89652592 0 69 22
-1.6122259 0.66616946 -0.039690454 73 21
-1.5473967 0.89084661 -0.08163745 69 20
-1.6064519 0.66412777 -0.11792 73 19
-1.562061 0.9000327 -0.15871306 70 18
-1.6160524 0.66808742 -0.19617291 69 17
-1.555428 0.89691687 -0.24461496 66 16
-1.6120304 0.66579276 -0.29799867 65 15
-1.5509067 0.89750445 -0.50280738 54 13
-1.6091239 0.66395992 -0.3906877 59 14
-1.5507127 0.89952719 -0.60801172 56 12
-1.6105379 0.6603632 -0.68987161 54 11
-1.5515088 0.90640146 -0.93567336 56 9
-1.6072563 0.6574325 -0.79927731 61 10
-1.5489757 0.90848619 -1.0643042 55 8
-0.76699972 0.31148493 -0.53667343 39 7
-0.61137152 0.35932085 -0.51345748 73 6
-0.5898388 0.23763677 -0.50882262 88 5
-0.23289125 0.13624083 -0.22457777 65 4
-0.2324186 0.09449809 -0.22924842 70 3
-0.21791022 0.12844227 -0.25759095 10 2
-0.30543 0.12160403 -0.38580462 10 1
-0.26010501 0.15500146 -0.37699658 4 0
-1.607848 0.66574734 0.45503002 58 31
-1.5386711 0.89257801 0.40357554 65 30
-1.607926 0.66739655 0.32914886 63 29
-1.5431461 0.89448237 0.27353215 70 28
-1.6062503 0.66832018 0.20812044 69 27
-1.5567322 0.90239424 0.16865481 72 26
-1.6115804 0.6711821 0.11903515 72 25
-1.5490645 0.89794403 0.08187037 72 24
-1.6077001 0.67055333 0.039632428 72 23
-1.5548794 0.90168703 0 72 22
-1.6098908 0.67179316 -0.039690454 74 21
-1.546436 0.89749873 -0.08175391 69 20
-1.6042407 0.6694513 -0.11792 72 19
-1.5589098 0.90547979 -0.15871306 69 18
-1.6182973 0.67563194 -0.19674155 67 17
-1.5544271 0.903588 -0.24495901 66 16
-1.6119709 0.6723606 -0.29842806 65 15
-1.5498389 0.90412635 -0.50349522 55 13
-1.6090472 0.67050683 -0.39124581 61 14
-1.5536773 0.90852034 -0.61046338 55 12
-1.6059643 0.66537774 -0.68893427 54 11
-1.5502366 0.91293466 -0.93684584 56 9
-1.6091371 0.66476053 -0.80140305 61 10
-1.5511558 0.91743249 -1.0681839 62 8
-0.76974404 0.31571892 -0.53947592 40 7
-0.60663569 0.3595188 -0.51042825 74 6
-0.5907343 0.24050841 -0.51043797 83 5
-0.23393756 0.13802719 -0.22630529 67 4
-0.2352583 0.09661331 -0.23288728 73 3
-0.21746054 0.12920214 -0.25759095 8 2
-0.29933822 0.12051649 -0.37784988 10 1
-0.2657052 0.15974365 -0.38718569 4 0
-1.6053972 0.67163593 0.45503002 58 31
-1.5374901 0.89944416 0.40413919 66 30
-1.6122644 0.67612368 0.33056965 66 29
-1.5377265 0.89888304 0.27314579 70 28
-1.6037899 0.67420292 0.20812044 69 27
-1.5512675 0.90683532 0.16841693 72 26
-1.6114097 0.67804837 0.11920867 69 25
-1.5479176 0.90487862 0.08198683 69 24
-1.6053495 0.67616117 0.039632428 72 23
-1.5558771 0.90990931 0 70 22
-1.6074178 0.67768919 -0.039690454 73 21
-1.5454475 0.90415514 -0.08187037 67 20
-1.6017762 0.67532659 -0.11792 72 19
-1.5598745 0.9137097 -0.15916014 67 18
-1.6159291 0.68127674 -0.19674155 67 17
-1.5511048 0.90927917 -0.24495901 65 16
-1.6141561 0.6798889 -0.29928684 63 15
-1.5487437 0.91075176 -0.50418305 55 13
-1.6043316 0.67545748 -0.3906877 56 14
-1.5484626 0.91273588 -0.60964614 56 12
-1.5972137 0.66830534 -0.6861223 55 11
-1.5525709 0.92200023 -0.94036335 56 9
-1.6047171 0.66950536 -0.80034018 62 10
-1.5461076 0.92174327 -1.0668907 54 8
-0.77438354 0.32076177 -0.54367965 43 7
-0.60367322 0.36060798 -0.50891364 72 6
-0.59519523 0.24472167 -0.51528388 88 5
-0.2288225 0.13602564 -0.22112274 67 4
-0.23491961 0.097433932 -0.23288728 72 3
-0.22111428 0.13253535 -0.2633152 7 2
-0.30173385 0.12267358 -0.38182727 8 1
-0.26760867 0.16219471 -0.39126134 7 0
-1.6074958 0.67910933 0.45631903 56 31
-1.5364375 0.90604532 0.40470284 63 30
-1.6076328 0.6807934 0.33009604 63 29
-1.5388323 0.90675837 0.27391851 69 28
-1.6037123 0.68076348 0.20842338 70 27
-1.550235 0.91351074 0.16865481 72 26
-1.6113297 0.68464118 0.11938219 69 25
-1.5447495 0.91027623 0.08198683 70 24
-1.6052809 0.68273568 0.039690454 72 23
-1.5526915 0.91533482 0 70 22
-1.6096443 0.68524754 -0.039806508 74 21
-1.542282 0.90954423 -0.08187037 69 20
-1.5994091 0.68091375 -0.11792 72 19
-1.5523905 0.91661185 -0.15871306 67 18
-1.6135411 0.68691325 -0.19674155 67 17
-1.5521821 0.91721284 -0.2456471 66 16
-1.6095055 0.68455857 -0.29885745 65 15
-1.5496873 0.91860873 -0.50555873 55 13
-1.604208 0.68200368 -0.39124581 56 14
-1.5472968 0.91934484 -0.61046338 58 12
-1.6034162 0.677472 -0.68987161 54 11
-1.5455571 0.92514104 -0.93801838 55 9
-1.6023704 0.67510271 -0.80034018 62 10
-1.5465455 0.92934358 -1.0694771 58 8
-0.77517176 0.32425556 -0.54508084 41 7
-0.60241079 0.36271301 -0.50891364 69 6
-0.59080637 0.24535033 -0.51205325 83 5
-0.22372432 0.13399011 -0.21594018 73 4
-0.22981 0.096324019 -0.22742899 69 3
-0.21653043 0.13075493 -0.25759095 7 2
-0.29567534 0.12148054 -0.37387252 10 1
-0.278099 0.17002702 -0.40960172 7 0
-1.6051155 0.68471646 0.45631903 56 31
-1.5353576 0.91265017 0.40526652 63 30
-1.6097633 0.68832475 0.33104324 63 29
-1.5335357 0.91086048 0.27353215 70 28
-1.6013262 0.68635732 0.20842338 69 27
-1.5493355 0.91991973 0.1688927 72 26
-1.6112233 0.69124168 0.11955571 70 25
-1.5437081 0.91694087 0.082103282 70 24
-1.6074836 0.69030094 0.039806508 70 23
-1.5473392 0.91946936 0 70 22
-1.6096609 0.69156486 -0.039864536 72 21
-1.541243 0.91620106 -0.08198683 67 20
-1.601608 0.688456 -0.11826529 72 19
-1.553619 0.92430627 -0.15916014 69 18
-1.6134167 0.69351906 -0.19702585 67 17
-1.5491319 0.92235488 -0.2456471 66 16
-1.6048416 0.68920392 -0.29842806 65 15
-1.5444095 0.92277712 -0.50487089 55 13
-1.6019375 0.6873197 -0.39124581 58 14
-1.5481291 0.92717338 -0.6120978 55 12
-1.5990276 0.68187952 -0.68893427 54 11
-1.546259 0.93254673 -0.94036335 56 9
-1.6020876 0.68157464 -0.80140305 59 10
-1.5471127 0.93668813 -1.0720634 58 8
-0.76639575 0.32376221 -0.53947592 37 7
-0.60120469 0.36470866 -0.50891364 72 6
-0.5952788 0.24949689 -0.51689917 89 5
-0.23096633 0.13947919 -0.22457777 76 4
-0.23107652 0.097733952 -0.22924842 67 3
-0.21472517 0.13061722 -0.25568286 8 2
-0.30229712 0.1252906 -0.38381594 8 1
-0.27875975 0.17171891 -0.41163954 7 0
-1.600616 0.68908346 0.4556745 58 31
-1.5302347 0.91648239 0.40470284 65 30
-1.6074718 0.69365913 0.33104324 65 29
-1.5326246 0.91721183 0.27391851 69 28
-1.5990415 0.69166374 0.20842338 69 27
-1.546115 0.92532229 0.1688927 72 26
-1.6089224 0.69658089 0.11955571 67 25
-1.5428001 0.92334002 0.082219742 69 24
-1.6028911 0.69463718 0.039748482 70 23
-1.546425 0.9258824 0 67 22
-1.6026486 0.69519669 -0.039748482 73 21
-1.5381962 0.92130691 -0.08198683 69 20
-1.5993161 0.69376332 -0.11826529 72 19
-1.5503831 0.92972368 -0.15916014 67 18
-1.6111081 0.69886547 -0.19702585 67 17
-1.5522677 0.93158728 -0.24667923 65 16
-1.6070696 0.69647425 -0.29928684 63 15
-1.5454563 0.9303779 -0.50624651 55 13
-1.6040037 0.69483823 -0.39236206 56 14
-1.5470674 0.93352526 -0.61291504 55 12
-1.6030276 0.69019711 -0.69174623 54 11
-1.5429945 0.93793857 -0.94036335 56 9
-1.6039797 0.68866277 -0.80352879 59 10
-1.5456585 0.94319987 -1.0733567 59 8
-0.76531786 0.32630187 -0.53947592 36 7
-0.60162109 0.36784869 -0.51042825 67 6
-0.58736217 0.24863039 -0.51043797 78 5
-0.22740966 0.13837467 -0.22112274 73 4
-0.23390386 0.099847794 -0.23288728 70 3
-0.21426791 0.13136595 -0.25568286 7 2
-0.2990514 0.12520316 -0.37983856 8 1
-0.2757118 0.17114109 -0.40756389 7 0
-1.6004175 0.69562614 0.45631903 58 31
-1.533277 0.92560244 0.40639383 62 30
-1.6050408 0.69926608 0.33104324 65 29
-1.531527 0.92383456 0.27430484 69 28
-1.6034441 0.70021105 0.2093322 67 27
-1.5450048 0.93200165 0.16913056 73 26
-1.6087674 0.70318848 0.11972923 67 25
-1.5417044 0.93001229 0.082336202 69 24
-1.6026254 0.70150644 0.039806508 72 23
-1.5474614 0.9338634 0 70 22
-1.6025028 0.70178616 -0.039806508 72 21
-1.5369451 0.92823207 -0.082103282 67 20
-1.5991707 0.70033902 -0.11843794 69 19
-1.5471283 0.93512988 -0.15916014 67 18
-1.6085358 0.70476574 -0.19702585 67 17
-1.5468892 0.93571585 -0.24633518 66 16
-1.6022487 0.70137542 -0.29885745 65 15
-1.5440891 0.93728578 -0.5069344 58 13
-1.6015685 0.70043302 -0.39236206 59 14
-1.5456522 0.94041985 -0.61373222 56 12
-1.6004872 0.69606781 -0.69174623 54 11
-1.5434736 0.94563091 -0.94270849 56 9
-1.5993675 0.69363981 -0.80246586 59 10
-1.5458325 0.95110583 -1.0759431 59 8
-0.76982951 0.33154261 -0.54367965 40 7
-0.59351158 0.36585185 -0.50436974 66 6
-0.5917204 0.25300804 -0.51528388 83 5
-0.22690098 0.13920724 -0.22112274 76 4
-0.2287887 0.098725259 -0.22742899 70 3
-0.21790144 0.13470681 -0.26140711 8 2
-0.29718933 0.1257223 -0.37784988 7 1
-0.28606793 0.17916504 -0.42590424 7 0
-1.6000704 0.70245504 0.45696354 56 31
-1.5298742 0.93121594 0.40639383 63 30
-1.6047153 0.70612961 0.33151683 65 29
-1.532348 0.93201393 0.27507755 67 28
-1.5963231 0.70408672 0.20872632 67 27
-1.5415784 0.93765807 0.16913056 70 26
-1.6084623 0.71008426 0.11990275 67 25
-1.5425494 0.93825746 0.082569115 69 24
-1.6047418 0.70911038 0.039922561 70 23
-1.5440282 0.93952894 0 69 22
-1.6022071 0.70866263 -0.039864536 70 21
-1.5358273 0.93489248 -0.082219742 67 20
-1.5943108 0.70518994 -0.11826529 69 19
-1.5479398 0.94339097 -0.15960722 69 18
-1.6060659 0.71037638 -0.19702585 66 17
-1.5476742 0.94396311 -0.24702327 66 16
-1.6042988 0.70894861 -0.29971623 63 15
-1.5449051 0.94518381 -0.50831008 59 13
-1.6034514 0.70826125 -0.39347833 58 14
-1.5463852 0.94828475 -0.6153667 59 12
-1.5959244 0.7007218 -0.69080895 54 11
-1.5418742 0.95244443 -0.94388103 54 9
-1.5969365 0.69921839 -0.80246586 62 10
-1.5443199 0.95762604 -1.0772363 56 8
-0.76486474 0.33258924 -0.54087716 45 7
-0.59054536 0.36686561 -0.50285512 63 6
-0.58381277 0.25207877 -0.50882262 76 5
-0.22641365 0.13999844 -0.22112274 81 4
-0.23318338 0.101519 -0.23288728 69 3
-0.21604498 0.13463499 -0.25949904 7 2
-0.29255122 0.12501599 -0.37188384 7 1
-0.27448007 0.17310964 -0.40756389 4 0
-1.5998183 0.70901161 0.45760807 56 31
-1.5349123 0.94165552 0.40864843 63 30
-1.6067302 0.71371347 0.33246404 65 29
-1.5290855 0.93735713 0.27507755 69 28
-1.600661 0.71267319 0.20963515 66 27
-1.5425365 0.94564009 0.16960631 72 26
-1.6036944 0.71468252 0.11972923 67 25
-1.5392649 0.94363618 0.082569115 69 24
-1.6045408 0.71572262 0.03998059 70 23
-1.5428687 0.94622242 0 69 22
-1.6020072 0.71526688 -0.039922561 72 21
-1.5325544 0.94024789 -0.082219742 67 20
-1.5986757 0.71379161 -0.11878324 67 19
-1.5446373 0.94878858 -0.15960722 69 18
-1.6058459 0.71698767 -0.19731016 67 17
-1.5464776 0.95065904 -0.24736732 65 16
-1.5995637 0.71354413 -0.29928684 62 15
-1.5436406 0.9518348 -0.50899786 62 13
-1.5987424 0.71286482 -0.3929202 59 14
-1.5450739 0.95492148 -0.61618394 61 12
-1.5955888 0.70722431 -0.69174623 54 11
-1.5441588 0.96132898 -0.94739854 54 9
-1.5965571 0.70570022 -0.80352879 61 10
-1.5445935 0.96528345 -1.0798227 55 8
-0.75610501 0.33195347 -0.53527224 54 7
-0.59598887 0.37317124 -0.50891364 56 6
-0.58643442 0.25562397 -0.51205325 80 5
-0.22897148 0.14273037 -0.22457777 78 4
-0.22651602 0.09964934 -0.22560956 67 3
-0.22236486 0.13975988 -0.26903945 7 2
-0.29211307 0.12603644 -0.37188384 7 1
-0.2702288 0.171703 -0.40145043 4 0
-1.5995399 0.71557492 0.45825258 56 31
-1.5274758 0.9444406 0.40752113 63 30
-1.6019877 0.7183165 0.33199042 65 29
-1.5279036 0.94398969 0.27546388 69 28
-1.5936337 0.71622801 0.20902926 66 27
-1.5392261 0.95101875 0.16960631 70 26
-1.6057419 0.72231603 0.12007628 67 25
-1.5380845 0.95031875 0.082685582 69 24
-1.597472 0.71927321 0.039864536 70 23
-1.5416814 0.95291924 0 70 22
-1.5972207 0.71983081 -0.039864536 70 21
-1.5356302 0.94953954 -0.082569115 67 20
-1.5961745 0.71936768 -0.11878324 67 19
-1.5434315 0.95548773 -0.15983075 67 18
-1.6055993 0.72360611 -0.19759446 67 17
-1.5410465 0.95474482 -0.24702327 66 16
-1.6015576 0.72113931 -0.30014563 63 15
-1.5443883 0.95975965 -0.51037353 61 13
-1.5962442 0.71844113 -0.3929202 56 14
-1.5417312 0.96030909 -0.61618394 56 12
-1.5973444 0.7146765 -0.69362092 54 11
-1.5407938 0.96671325 -0.94739854 50 9
-1.5940841 0.71126896 -0.80352879 61 10
-1.5412146 0.97066921 -1.0798227 54 8
-0.76441985 0.33875337 -0.54227841 54 7
-0.59132618 0.37311441 -0.50588435 54 6
-0.58553857 0.25766945 -0.51205325 73 5
-0.22391026 0.14059915 -0.21939522 78 4
-0.22931787 0.10179193 -0.22924842 69 3
-0.22187565 0.14053524 -0.26903945 7 2
-0.29446143 0.12823679 -0.3758612 7 1
-0.2720525 0.17422949 -0.40552607 4 0
-1.5949552 0.71988475 0.45760807 56 31
-1.5284672 0.95208144 0.40864843 66 30
-1.6018349 0.72463351 0.33246404 65 29
-1.5289556 0.95166677 0.27623656 67 28
-1.5912497 0.72150868 0.20902926 66 27
-1.5360639 0.95611787 0.16960631 72 26
-1.6056101 0.7286644 0.12024979 67 25
-1.5391617 0.95805848 0.082918495 69 24
-1.5926745 0.72381419 0.039806508 69 23
-1.5363925 0.95670241 0 69 22
-1.5993781 0.72718602 -0.03998059 69 21
-1.5365421 0.95754087 -0.082802035 67 20
-1.5937802 0.72465688 -0.11878324 72 19
-1.5402545 0.96060067 -0.15983075 67 18
-1.6008013 0.728181 -0.19731016 66 17
-1.5420699 0.96247721 -0.24771136 65 16
-1.5967869 0.72570956 -0.29971623 63 15
-1.5430642 0.96642303 -0.51106137 55 13
-1.6005139 0.72674358 -0.39459458 56 14
-1.5383698 0.96568477 -0.61618394 54 12
-1.5969535 0.72119874 -0.69455826 54 11
-1.5338496 0.96945316 -0.94505346 10 9
-1.5936562 0.71775514 -0.8045916 59 10
-1.5378169 0.97604322 -1.0798227 34 8
-0.75566185 0.33806312 -0.53667343 65 7
-0.59169459 0.37624958 -0.50739902 52 6
-0.57764643 0.2566452 -0.50559199 70 5
-0.22493522 0.1423617 -0.22112274 80 4
-0.22896117 0.10259178 -0.22924842 66 3
-0.2214084 0.14127022 -0.26903945 7 2
-0.29122606 0.12807268 -0.37188384 7 1
-0.26297557 0.16960354 -0.39126134 4 0
-1.5901065 0.72472709 0.45696354 56 31
-1.5229063 0.95637918 0.40808475 62 30
-1.5902313 0.7264325 0.33056965 63 29
-1.5296384 0.95989531 0.27700928 66 28
-1.5931102 0.72939593 0.20963515 65 27
-1.5346557 0.96306682 0.1698442 72 26
-1.5983913 0.73247272 0.11990275 67 25
-1.5356399 0.96369332 0.082918495 67 24
-1.5924115 0.73040807 0.039864536 70 23
-1.5328757 0.96232712 0 69 22
-1.5967021 0.73304319 -0.03998059 69 21
-1.5331903 0.96289849 -0.082802035 66 20
-1.5911136 0.73049349 -0.11878324 67 19
-1.5367234 0.96623957 -0.15983075 67 18
-1.5982498 0.73376441 -0.19731016 66 17
-1.5427203 0.97076535 -0.24839944 63 16
-1.594244 0.73127896 -0.29971623 63 15
-1.5376503 0.97051805 -0.51037353 54 13
-1.595623 0.73159242 -0.39403647 58 14
-1.5389798 0.97358012 -0.61781836 52 12
-1.5965366 0.72772682 -0.69549555 52 11
nan nan nan 0 9
-1.5932024 0.72424704 -0.80565453 62 10
-1.5253963 0.97562909 -1.0733567 11 8
-0.76203626 0.3440817 -0.54227841 65 7
-0.59538978 0.38155025 -0.51194286 54 6
-0.57500243 0.25788727 -0.5039767 70 5
-0.22897798 0.14610741 -0.22630529 83 4
-0.23331401 0.10545209 -0.23470671 67 3
-0.22898315 0.14741172 -0.28048792 7 2
-0.29634079 0.13149028 -0.37983856 4 1
-0.26841593 0.17452337 -0.40145043 4 0
-1.589763 0.73127949 0.45760807 56 31
-1.525728 0.9656046 0.40977573 62 30
-1.5966086 0.73607737 0.33246404 62 29
-1.5262784 0.96522892 0.27700928 67 28
-1.5928087 0.73599023 0.20993808 66 27
-1.5333862 0.96975064 0.17008208 66 26
-1.6003548 0.74013513 0.12024979 67 25
-1.5322666 0.9690479 0.082918495 69 24
-1.596661 0.73910248 0.040038615 69 23
-1.5358403 0.97168952 0 69 22
-1.5986719 0.7407074 -0.040096644 69 21
-1.5298196 0.96824455 -0.082802035 66 20
-1.5908183 0.73708844 -0.1189559 67 19
-1.5354429 0.97293317 -0.1600543 67 18
-1.5979337 0.74037993 -0.19759446 66 17
-1.5414119 0.9774732 -0.24874349 65 16
-1.593918 0.73787099 -0.30014563 62 15
-1.5443856 0.98234189 -0.51381272 8 13
-1.5930595 0.73715776 -0.39403647 55 14
-1.5335811 0.97767365 -0.61700112 4 12
-1.5939866 0.73329532 -0.69549555 52 11
nan nan nan 0 9
-1.5906646 0.72980392 -0.80565453 58 10
nan nan nan 0 8
-0.75894374 0.34588733 -0.54087716 70 7
-0.59072047 0.38145617 -0.50891364 50 6
-0.57932448 0.26222932 -0.50882262 76 5
-0.22544611 0.14492099 -0.22285026 88 4
-0.22980773 0.10488043 -0.23106785 70 3
-0.22846718 0.14821012 -0.28048792 7 2
-0.29865757 0.13373452 -0.38381594 7 1
-0.25456113 0.16660656 -0.37903443 4 0
-1.5893929 0.73783821 0.45825258 56 31
-1.5244 0.97223669 0.41033936 61 30
-1.5918024 0.7406137 0.33199042 62 29
-1.5228999 0.97055072 0.27700928 69 28
-1.5857289 0.73945445 0.2093322 65 27
-1.5343566 0.97750962 0.17055784 70 26
-1.5955001 0.74466527 0.12007628 67 25
-1.5351876 0.97842479 0.083267868 67 24
-1.5918053 0.7436167 0.03998059 69 23
-1.532439 0.97704476 0 69 22
-1.5962069 0.7460047 -0.040096644 69 21
-1.5243269 0.9722333 -0.082685582 66 20
-1.5904964 0.74369019 -0.11912854 67 19
-1.5343055 0.97936183 -0.16027784 67 18
-1.5953397 0.74595326 -0.19759446 66 17
-1.5402472 0.98391485 -0.24908753 65 16
-1.5935656 0.74446958 -0.30057502 61 15
nan nan nan 0 13
-1.5950255 0.74449158 -0.39515272 56 14
nan nan nan 0 12
-1.5894425 0.73760468 -0.69455826 52 11
nan nan nan 0 9
-1.5901622 0.73629957 -0.80671734 62 10
nan nan nan 0 8
-0.75396407 0.3468166 -0.53807467 67 7
-0.59610552 0.38777509 -0.51497209 45 6
-0.57323378 0.26179519 -0.5039767 76 5
-0.22948508 0.14866003 -0.22803281 87 4
-0.22945869 0.10564193 -0.23106785 70 3
-0.23200323 0.15165989 -0.28621218 7 2
-0.29266533 0.13228454 -0.3758612 4 1
-0.25160462 0.16583227 -0.37495875 4 0
-1.5869375 0.74310482 0.45825258 56 31
-1.5232151 0.97860545 0.41090304 61 30
-1.5915612 0.74692804 0.33246404 62 29
-1.5217499 0.97693241 0.27739561 67 28
-1.587762 0.74681497 0.20993808 65 27
-1.530935 0.98285955 0.17055784 69 26
-1.5975378 0.75207037 0.12042332 67 25
-1.5319345 0.98351014 0.083267868 67 24
-1.5870682 0.74782902 0.039922561 69 23
-1.5312924 0.98347461 0 67 22
-1.5935932 0.75157189 -0.040096644 72 21
-1.5252931 0.97998762 -0.082918495 65 20
-1.5880215 0.74896032 -0.11912854 67 19
-1.53297 0.98606116 -0.16050138 67 18
-1.5928571 0.75123948 -0.19759446 66 17
-1.5388838 0.99062824 -0.24943158 66 16
-1.5933174 0.75079656 -0.30100441 61 15
-1.4509072 0.93666345 -0.48423582 2 13
-1.5924171 0.75005478 -0.39515272 58 14
nan nan nan 0 12
-1.5889585 0.74412817 -0.69549555 54 11
nan nan nan 0 9
-1.5897635 0.74252331 -0.80778027 62 10
nan nan nan 0 8
-0.75280988 0.34931493 -0.53807467 63 7
-0.59972692 0.39314255 -0.51951599 44 6
-0.56710672 0.26142257 -0.49913079 74 5
-0.22896476 0.14946018 -0.22803281 90 4
-0.22596128 0.10503549 -0.22742899 67 3
-0.23817134 0.15698048 -0.29575258 7 2
-0.29497108 0.13453481 -0.37983856 4 1
-0.24503177 0.16264468 -0.36476967 4 0
-1.5865194 0.7496686 0.45889711 56 31
-1.5218327 0.98524272 0.41146669 61 30
-1.5911644 0.75352651 0.33293763 63 29
-1.5204028 0.9835825 0.27778196 66 28
-1.587389 0.75341374 0.21024103 65 27
-1.5316707 0.99090618 0.17103359 69 26
-1.5926486 0.75657517 0.12024979 67 25
-1.5326825 0.99156976 0.083500788 66 24
-1.5888337 0.75578183 0.040038615 69 23
-1.5299474 0.99017471 0 69 22
-1.5954766 0.7592718 -0.040212698 70 21
-1.5279741 0.98965186 -0.083267868 65 20
-1.5853974 0.75449902 -0.11912854 67 19
-1.5336941 0.99411994 -0.16094846 66 18
-1.592337 0.75813711 -0.19787878 66 17
-1.5354165 0.99599391 -0.24943158 65 16
-1.5905548 0.75663137 -0.30100441 61 15
-1.4494772 0.94328851 -0.48492366 10 13
-1.5897892 0.75560874 -0.39515272 56 14
-1.4164896 0.92383796 -0.57287127 10 12
-1.5883169 0.75093454 -0.69643289 52 11
-1.1313078 0.74224705 -0.69999617 34 9
-1.5870312 0.74834502 -0.80778027 56 10
nan nan nan 0 8
-0.75340229 0.35294381 -0.53947592 77 7
-0.59662646 0.39423558 -0.51800138 52 6
-0.56787843 0.26429641 -0.50074607 62 5
-0.22841541 0.15029837 -0.22803281 90 4
-0.22869684 0.10728118 -0.23106785 63 3
-0.2362853 0.15690389 -0.29384449 7 2
-0.29585838 0.13623485 -0.38182727 4 1
-0.25280252 0.16926315 -0.37903443 4 0
-1.5859427 0.75651532 0.45954162 56 31
-1.5202496 0.99214756 0.41203034 59 30
-1.5883919 0.7593534 0.33293763 65 29
-1.5188547 0.99050027 0.27816829 66 28
-1.5846168 0.75922668 0.21024103 65 27
-1.5321944 0.99923742 0.17150934 67 26
-1.5966158 0.76563323 0.12077036 67 25
-1.529038 0.99718076 0.083500788 67 24
-1.5906953 0.76348007 0.040154673 67 23
-1.5284002 0.99714416 0 67 22
-1.5926831 0.76511437 -0.040212698 69 21
-1.5224208 0.99361199 -0.083151415 66 20
-1.5893701 0.76353526 -0.1196465 67 19
-1.5279576 0.99837005 -0.16072492 66 18
-1.5896811 0.76369083 -0.19787878 65 17
-1.5317556 1.0016148 -0.24943158 65 16
-1.5901258 0.76324147 -0.30143383 59 15
nan nan nan 0 13
-1.5892076 0.76248151 -0.39571083 58 14
-1.4250923 0.93657833 -0.57777458 3 12
-1.5877794 0.75746912 -0.69737023 54 11
-1.1083453 0.73295486 -0.68709844 43 9
-1.5884988 0.75581855 -0.80990601 55 10
nan nan nan 0 8
-0.75029093 0.35469294 -0.53807467 81 7
-0.60185319 0.40074849 -0.52405989 58 6
-0.56175989 0.26386786 -0.49590015 67 5
-0.22639316 0.15008137 -0.22630529 90 4
-0.22364533 0.10593519 -0.22560956 62 3
-0.2397085 0.16050456 -0.29956874 7 2
-0.29262063 0.13601747 -0.37784988 4 1
-0.25578806 0.17260914 -0.38514787 4 0
-1.5832924 0.76204669 0.45954162 56 31
-1.5188103 0.99878889 0.41259399 63 30
-1.5879439 0.76595664 0.33341122 63 29
-1.5215756 0.99987286 0.27932733 67 28
-1.5774856 0.76259953 0.20963515 65 27
-1.5307752 1.0059489 0.17174721 70 26
-1.5939335 0.77120179 0.12077036 67 25
-1.5255479 1.002512 0.083500788 67 24
-1.5835186 0.76685548 0.040038615 67 23
-1.5249101 1.0024732 0 67 22
-1.5922531 0.77175623 -0.040270727 69 21
-1.5189432 0.99892026 -0.083151415 66 20
-1.5866951 0.76907855 -0.1196465 66 19
-1.5265412 1.0050693 -0.16094846 66 18
-1.5870055 0.76923525 -0.19787878 66 17
-1.5323822 1.0096854 -0.25011966 63 16
-1.5874521 0.76878738 -0.30143383 59 15
nan nan nan 0 13
-1.5865364 0.76802427 -0.39571083 58 14
-1.4139419 0.93631858 -0.57450569 3 12
-1.5851257 0.76300693 -0.69737023 52 11
-1.1039449 0.73559171 -0.6859259 50 9
-1.5878923 0.76233524 -0.81096882 59 10
nan nan nan 0 8
-0.74904829 0.35730979 -0.53807467 89 7
-0.60374612 0.40507478 -0.52708912 69 6
-0.56601948 0.26825446 -0.50074607 69 5
-0.22885326 0.15290797 -0.22976033 90 4
-0.22949836 0.10959514 -0.23288728 65 3
-0.24047688 0.16225688 -0.30147681 7 2
-0.29214406 0.13703808 -0.37784988 4 1
-0.2587533 0.17597798 -0.39126134 4 0
-1.5806227 0.76756877 0.45954162 58 31
-1.5173435 1.0054324 0.41315764 58 30
-1.5852605 0.77149498 0.33341122 63 29
-1.5180761 1.0051781 0.27932733 66 28
-1.5837418 0.77244025 0.21084692 65 27
-1.5293279 1.0126626 0.17198509 69 26
-1.588989 0.77567005 0.12059683 65 25
-1.5262002 1.0105935 0.083733708 66 24
-1.5853266 0.77456647 0.040154673 67 23
-1.5214015 1.00779 0 69 22
-1.5895494 0.77730954 -0.040270727 69 21
-1.5237672 1.0097442 -0.083617248 65 20
-1.5840009 0.77461243 -0.1196465 66 19
-1.5250968 1.0117708 -0.161172 66 18
-1.5865434 0.77585822 -0.19816308 66 17
-1.5288484 1.0150282 -0.25011966 63 16
-1.5891875 0.7764802 -0.30229262 59 15
-1.4215295 0.94640386 -0.47873315 4 13
-1.5882281 0.77569032 -0.39682707 55 14
-1.4067377 0.93862045 -0.57287127 4 12
-1.5845391 0.76954484 -0.69830751 52 11
-1.0958775 0.73573852 -0.68240833 89 9
-1.5831836 0.76688987 -0.80990601 59 10
nan nan nan 0 8
-0.74779648 0.35992226 -0.53807467 84 7
-0.60890388 0.4116585 -0.53314763 55 6
-0.56680483 0.27104375 -0.50236142 72 5
-0.22385077 0.15063441 -0.22457777 90 4
-0.22600736 0.10894475 -0.22924842 65 3
-0.2465435 0.16770123 -0.31101725 7 2
-0.28616068 0.13552 -0.36989516 4 1
-0.25695056 0.17605029 -0.38922352 4 0
-1.5801044 0.77414113 0.46018615 55 31
-1.5178725 1.0134326 0.41428494 59 30
-1.5847629 0.77810252 0.33388481 65 29
-1.520717 1.014591 0.28048638 65 28
-1.585492 0.78014886 0.2114528 63 27
-1.5280299 1.0191119 0.17222297 67 26
-1.5929885 0.78450817 0.1211174 67 25
-1.5268146 1.0186919 0.083966628 66 24
-1.5848563 0.78119749 0.040212698 66 23
-1.5241077 1.0172657 0 66 22
-1.5869632 0.78257638 -0.040270727 69 21
-1.5202333 1.015057 -0.083617248 65 20
-1.5812873 0.78013694 -0.1196465 66 19
-1.5279392 1.0209804 -0.16184261 65 18
-1.5815966 0.78029579 -0.19787878 66 17
-1.5295875 1.0228504 -0.25080776 63 16
-1.5842568 0.7809369 -0.30186319 61 15
-1.4142288 0.94867694 -0.47735748 4 13
-1.5812719 0.77880555 -0.39571083 56 14
-1.3975759 0.93956268 -0.57041961 8 12
-1.5819783 0.77479511 -0.69830751 54 11
-1.0970854 0.74184871 -0.68475336 99 9
-1.5866004 0.77538317 -0.81309456 59 10
-1.4606079 0.99227887 -1.0461996 7 8
-0.74467015 0.36163223 -0.53667343 88 7
-0.60753536 0.41367543 -0.53314763 47 6
-0.55901301 0.26963845 -0.49590015 67 5
-0.22780716 0.15446217 -0.22976033 90 4
-0.22874705 0.11115474 -0.23288728 63 3
-0.2446622 0.16759229 -0.30910915 7 2
-0.28296232 0.13519055 -0.36591777 4 1
-0.26110184 0.18023644 -0.39737478 4 0
-1.5775285 0.77937669 0.46018615 56 31
-1.5185424 1.0211837 0.41541225 62 30
-1.5821738 0.78335357 0.33388481 63 29
-1.5152957 1.0182481 0.28010002 67 28
-1.5851208 0.78650212 0.21175572 63 27
-1.5265273 1.0258299 0.17246085 67 26
-1.5926133 0.79089254 0.12129091 66 25
-1.5234281 1.0237494 0.083966628 66 24
-1.5822572 0.78644878 0.040212698 67 23
-1.5227988 1.0237114 0 66 22
-1.5909395 0.7914415 -0.040444806 69 21
-1.5168588 1.0200926 -0.083617248 66 20
-1.5809262 0.78648418 -0.11981915 67 19
-1.5264299 1.0277007 -0.16206616 65 18
-1.5812256 0.78663945 -0.19816308 65 17
-1.5260077 1.0281833 -0.25080776 63 16
-1.5838653 0.78727937 -0.30229262 59 15
-1.4170445 0.95740604 -0.47942099 3 13
-1.5807277 0.78540182 -0.39626896 56 14
-1.3924978 0.94286466 -0.56960237 11 12
-1.5813435 0.78133619 -0.69924492 52 11
-1.0890217 0.7419343 -0.68123585 108 9
-1.5840205 0.78064018 -0.81309456 59 10
-1.4588993 0.99858218 -1.0474926 7 8
-0.74346685 0.36409965 -0.53667343 80 7
-0.61917722 0.4248403 -0.5452646 43 6
-0.55806839 0.27158812 -0.49590015 63 5
-0.22726659 0.15525642 -0.22976033 90 4
-0.22371201 0.10974463 -0.22742899 66 3
-0.2440757 0.1684453 -0.30910915 7 2
-0.27974576 0.13489024 -0.36194041 4 1
-0.25810868 0.17947097 -0.39329916 4 0
-1.5747983 0.78487855 0.46018615 58 31
-1.5169832 1.0278468 0.4159759 62 30
-1.5794299 0.78887159 0.33388481 65 29
-1.5158193 1.0263057 0.2808727 65 28
-1.5801451 0.79092282 0.2114528 63 27
-1.5270553 1.0339477 0.1729366 67 26
-1.5876117 0.79533303 0.1211174 66 25
-1.5198452 1.0290607 0.083966628 65 24
-1.5839738 0.79420137 0.040328752 66 23
-1.5212843 1.0304254 0 66 22
-1.5881672 0.79699004 -0.040444806 67 21
-1.5215516 1.0309945 -0.08408308 65 20
-1.5781713 0.79199779 -0.11981915 67 19
-1.5269512 1.0358232 -0.16251324 65 18
-1.5806916 0.7932651 -0.19844739 66 17
-1.5265036 1.0362904 -0.25149584 65 16
-1.5811076 0.79280329 -0.30229262 58 15
-1.4236192 0.96912241 -0.48286018 2 13
-1.5779765 0.79091483 -0.39626896 56 14
-1.3833485 0.94371736 -0.56715071 12 12
-1.5786065 0.78685129 -0.69924492 54 11
-1.0846071 0.74447834 -0.68006331 91 9
-1.5833137 0.7871691 -0.81415743 61 10
-1.453645 1.0024515 -1.0461996 10 8
-0.73289502 0.36213839 -0.52966726 83 7
-0.62095499 0.42927215 -0.54829383 45 6
-0.55540019 0.27270165 -0.49428487 62 5
-0.23115875 0.15916607 -0.23494291 90 4
-0.2279655 0.11274897 -0.23288728 65 3
-0.24085155 0.16742666 -0.30529296 7 2
-0.28611925 0.13910787 -0.37188384 4 1
-0.26337197 0.18458086 -0.40348825 4 0
-1.5740706 0.79172748 0.46083066 55 31
-1.517225 1.036152 0.4171032 58 30
-1.5765278 0.7946552 0.33388481 63 29
-1.514086 1.0332494 0.28125906 65 28
-1.579452 0.7978248 0.21175572 65 27
-1.5232553 1.0395379 0.1729366 66 26
-1.5846859 0.80114657 0.1211174 66 25
-1.5181243 1.0360346 0.08408308 65 24
-1.5788205 0.79887629 0.040270727 66 23
-1.5174974 1.0359943 0 66 22
-1.5852354 0.8028056 -0.040444806 67 21
-1.5157021 1.0351536 -0.083966628 65 20
-1.5774844 0.79890049 -0.11999179 65 19
-1.5231444 1.0414128 -0.16251324 65 18
-1.5822083 0.80129153 -0.199016 65 17
-1.5267789 1.0446799 -0.25218391 61 16
-1.575992 0.79748404 -0.30186319 58 15
-1.4160975 0.97160888 -0.4814845 2 13
-1.5815954 0.79998362 -0.39794332 55 14
-1.3896053 0.95548755 -0.57123679 11 12
-1.5798558 0.79470885 -0.70111954 54 11
-1.0854982 0.75096762 -0.68240833 65 9
-1.5824418 0.79397875 -0.8152203 59 10
-1.4552265 1.0114433 -1.0500791 10 8
-0.7334187 0.36573976 -0.5310685 85 7
-0.62914574 0.43840027 -0.55738157 56 6
-0.55611068 0.27557459 -0.49590015 62 5
-0.22762445 0.15792322 -0.23148786 90 4
-0.22446422 0.11208969 -0.22924842 62 3
-0.24417798 0.17112717 -0.31101725 8 2
-0.28424063 0.13950221 -0.36989516 4 1
-0.26034334 0.1838523 -0.3994126 4 0
-1.5734529 0.79830706 0.46147519 58 31
-1.5156039 1.042825 0.41766685 61 30
-1.5759341 0.80126297 0.33435842 63 29
-1.5125036 1.0399301 0.28164542 65 28
-1.5810828 0.80558032 0.2123616 63 27
-1.5197997 1.0445834 0.1729366 66 26
-1.5818797 0.80667335 0.1211174 66 25
-1.5165548 1.0427449 0.08419954 65 24
-1.5782501 0.80551553 0.040328752 66 23
-1.5200461 1.0455427 0 65 22
-1.5825644 0.80805802 -0.040444806 67 21
-1.5120796 1.0404381 -0.083966628 65 20
-1.5769087 0.80553359 -0.12016445 65 19
-1.5217316 1.0478725 -0.16273677 65 18
-1.5794016 0.80680954 -0.199016 65 17
-1.5253434 1.0511445 -0.25252795 61 16
-1.5775892 0.80521351 -0.30272198 58 15
-1.4205984 0.98202318 -0.48423582 2 13
-1.5767614 0.80411988 -0.39738521 56 14
-1.3785003 0.95494014 -0.56796795 10 12
-1.5792803 0.80098873 -0.70205683 54 11
-1.0866207 0.7570942 -0.68475336 54 9
-1.5796607 0.7994976 -0.8152203 59 10
-1.4553666 1.0187221 -1.0526655 4 8
-0.72657949 0.36552528 -0.52686483 88 7
-0.63256127 0.44392794 -0.56192541 80 6
-0.55348289 0.27657241 -0.49428487 59 5
-0.22709952 0.15867719 -0.23148786 90 4
-0.22409129 0.11283342 -0.22924842 70 3
-0.24098761 0.170048 -0.30720106 7 2
-0.30424619 0.15031302 -0.39972541 4 1
-0.26090458 0.18556485 -0.40145043 4 0
-1.5729492 0.80461746 0.46211973 58 31
-1.5101372 1.0464554 0.4171032 59 30
-1.5732684 0.80648446 0.33435842 63 29
-1.5110757 1.0463486 0.28203174 65 28
-1.5784028 0.81081897 0.2123616 63 27
-1.5202328 1.0527205 0.17341235 66 26
-1.5814155 0.81305182 0.12129091 66 25
-1.5171913 1.0506164 0.08443246 65 24
-1.580018 0.81302583 0.040444806 65 23
-1.5206773 1.0534297 0 65 22
-1.5841813 0.81585985 -0.04056086 67 21
-1.5147736 1.0497211 -0.084316 62 20
-1.5764475 0.81189722 -0.12033709 63 19
-1.5201088 1.0545999 -0.16296032 65 18
-1.5789272 0.81317675 -0.19930032 65 17
-1.5236975 1.0578772 -0.25287202 61 16
-1.5727189 0.80931687 -0.30229262 58 15
-1.4173342 0.98672867 -0.48423582 2 13
-1.5761133 0.81073052 -0.39794332 56 14
-1.3850052 0.96627861 -0.57205403 7 12
-1.5744098 0.80544406 -0.70111954 54 11
-1.0839714 0.76088256 -0.68475336 50 9
-1.5790179 0.80575711 -0.81628317 59 10
nan nan nan 0 8
-0.72906262 0.36979324 -0.52966726 88 7
-0.63424832 0.44844046 -0.5649547 70 6
-0.54909825 0.27680114 -0.49105424 55 5
-0.22360919 0.15735988 -0.22803281 90 4
-0.22523418 0.11437248 -0.23106785 66 3
-0.24170004 0.1718367 -0.30910915 7 2
-0.30644429 0.15269953 -0.40370277 7 1
-0.2567471 0.18391153 -0.39533696 4 0
-1.5722791 0.81120765 0.46276423 58 31
-1.5124614 1.0559105 0.41879416 59 30
-1.5726258 0.81309569 0.33483198 63 29
-1.5114621 1.0544482 0.28280443 63 28
-1.577768 0.81746227 0.21266456 63 27
-1.5206275 1.0608735 0.17388812 66 26
-1.5763524 0.81742197 0.1211174 66 25
-1.5155611 1.0573374 0.084548913 65 24
-1.5770274 0.81881142 0.040444806 66 23
-1.5169909 1.0587316 0 66 22
-1.5791042 0.82023573 -0.040502835 67 21
-1.510916 1.055266 -0.084316 63 20
-1.5713891 0.81624854 -0.12016445 63 19
-1.5204966 1.0627575 -0.1634074 65 18
-1.5737306 0.81781614 -0.199016 65 17
-1.5220228 1.0646112 -0.25321606 61 16
-1.5719292 0.81620747 -0.30272198 58 15
-1.4097767 0.98915076 -0.48286018 2 13
-1.5732738 0.81622726 -0.39794332 55 14
-1.3795235 0.96998686 -0.57123679 4 12
-1.5755692 0.81332934 -0.70299417 54 11
-1.0723065 0.75827128 -0.67889082 50 9
-1.5780673 0.81257206 -0.8173461 59 10
nan nan nan 0 8
-0.72400993 0.37058881 -0.52686483 85 7
-0.62936836 0.44844306 -0.56192541 63 6
-0.5531944 0.28138298 -0.49590015 54 5
-0.22156727 0.1571185 -0.22630529 90 4
-0.22327814 0.11443408 -0.22924842 66 3
-0.23718625 0.16982006 -0.3033849 7 2
-0.314042 0.15782773 -0.41563487 7 1
-0.24557506 0.17712413 -0.37699658 4 0
-1.5735834 0.81918955 0.46405327 55 31
-1.508581 1.0614468 0.41879416 59 30
-1.569635 0.81885415 0.33483198 65 29
-1.5075872 1.0599808 0.28280443 65 28
-1.5725603 0.82209295 0.2123616 63 27
-1.5207973 1.0693074 0.17436387 67 26
-1.5777686 0.82550043 0.12146445 66 25
-1.5116756 1.062885 0.084548913 65 24
-1.5763755 0.82546765 0.040502835 66 23
-1.5151435 1.0657252 0 65 22
-1.5783025 0.82717508 -0.04056086 67 21
-1.5092638 1.0619731 -0.08443246 63 20
-1.5750186 0.82546657 -0.1206824 65 19
-1.518625 1.0697596 -0.16363093 65 18
-1.5730677 0.82445443 -0.19930032 65 17
-1.5201329 1.0716118 -0.2535601 59 16
-1.5690707 0.82168961 -0.30272198 56 15
-1.4141589 0.99962538 -0.4856115 2 13
-1.5767534 0.82536948 -0.3996177 56 14
-1.3780553 0.97616464 -0.57205403 4 12
-1.5747777 0.81989145 -0.70393151 54 11
-1.0784988 0.76861972 -0.68475336 44 9
-1.5752213 0.81807554 -0.8173461 59 10
nan nan nan 0 8
-0.72824067 0.37594426 -0.5310685 84 7
-0.63263512 0.45413268 -0.56646937 66 6
-0.55050707 0.28244928 -0.49428487 54 5
-0.22247742 0.15895595 -0.22803281 90 4
-0.22134466 0.11444426 -0.22742899 62 3
-0.23786291 0.17164612 -0.30529296 7 2
-0.31756184 0.16094026 -0.42160091 7 1
-0.24844502 0.1805682 -0.38311005 4 0
-1.5685742 0.82355756 0.46340877 56 31
-1.5068521 1.0681171 0.41935784 59 30
-1.573289 0.82774794 0.33625278 63 29
-1.505892 1.066667 0.28319079 63 28
-1.5740746 0.82988578 0.21296749 63 27
-1.5131843 1.0714636 0.17388812 66 26
-1.5748774 0.83100289 0.12146445 65 25
-1.5161008 1.0739391 0.085014746 63 24
-1.5756961 0.83212936 0.04056086 66 23
-1.5114142 1.0710074 0 65 22
-1.5755509 0.83240432 -0.04056086 67 21
-1.5116545 1.0715748 -0.084781833 63 20
-1.5743343 0.83212185 -0.12085505 63 19
-1.5150692 1.0747895 -0.16363093 65 18
-1.5723779 0.83109808 -0.19958463 65 17
-1.5206058 1.0795184 -0.25424817 61 16
-1.5661927 0.82716167 -0.30272198 58 15
-1.4067489 1.0017622 -0.48423582 2 13
-1.569694 0.82832509 -0.39850146 56 14
-1.3688754 0.97684395 -0.56960237 4 12
-1.574104 0.8261832 -0.70486885 54 11
-1.079527 0.77477318 -0.68709844 41 9
-1.5743622 0.82461613 -0.81840891 59 10
nan nan nan 0 8
-0.72692394 0.37848398 -0.5310685 83 7
-0.62630141 0.45271659 -0.56192541 70 6
-0.54447067 0.28166738 -0.48943892 52 5
-0.2248619 0.16183251 -0.23148786 90 4
-0.22555426 0.11749838 -0.23288728 65 3
-0.23210251 0.16858523 -0.29766065 7 2
-0.3305797 0.1687617 -0.44148776 7 1
-0.23740147 0.17359264 -0.36476967 4 0
-1.5658345 0.82875466 0.46340877 58 31
-1.5072632 1.0759432 0.42048514 58 30
-1.5705354 0.83296067 0.33625278 63 29
-1.5023465 1.0716549 0.28319079 62 28
-1.573507 0.8362627 0.21327044 62 27
-1.5155077 1.081082 0.17460173 67 26
-1.5721129 0.8362208 0.12146445 66 25
-1.512531 1.0789607 0.085014746 65 24
-1.5751358 0.83852142 0.040618889 66 23
-1.5139539 1.0803773 0 65 22
-1.574843 0.83907115 -0.040618889 67 21
-1.5101235 1.0780352 -0.084898293 62 20
-1.5671608 0.83499849 -0.12050975 65 19
-1.5133325 1.0815219 -0.16385446 63 18
-1.5740006 0.83863753 -0.20015325 65 17
-1.5208532 1.0877056 -0.25493628 59 16
-1.5656168 0.83350515 -0.3031514 56 15
-1.4092731 1.0106312 -0.48629931 3 13
-1.5689459 0.83494109 -0.39905956 56 14
-1.3713789 0.98552215 -0.57205403 3 12
-1.5732603 0.83275408 -0.70580614 54 11
nan nan nan 0 9
-1.5696164 0.82877874 -0.8173461 59 10
nan nan nan 0 8
-0.72382843 0.37993649 -0.52966726 80 7
-0.62792528 0.45725223 -0.5649547 67 6
-0.54518002 0.28444076 -0.49105424 52 5
-0.21993765 0.1593917 -0.22630529 90 4
-0.22819753 0.11984285 -0.23652615 66 3
-0.223748 0.16359416 -0.28621218 7 2
-0.32457677 0.16718802 -0.43353304 8 1
-0.23910877 0.17616133 -0.36884531 4 0
-1.5671973 0.83648413 0.46469781 58 31
-1.505474 1.0826223 0.42104879 58 30
-1.5697845 0.83959252 0.33672637 63 29
-1.5046086 1.0812237 0.2843498 62 28
-1.5727671 0.84291929 0.21357337 63 27
-1.5157634 1.0892749 0.17507748 65 26
-1.5713837 0.84287912 0.12163796 66 25
-1.5087557 1.0842338 0.085014746 63 24
-1.5742553 0.8454684 0.040676914 66 23
-1.5142299 1.0885789 0 65 22
-1.5741076 0.84574318 -0.040676914 67 21
-1.5081878 1.0850236 -0.085014746 63 20
-1.5708323 0.84399605 -0.12102769 63 19
-1.515605 1.0911696 -0.16452509 63 18
-1.5709162 0.84440088 -0.20015325 63 17
-1.517047 1.0930077 -0.25493628 59 16
-1.5647228 0.84040016 -0.30358076 55 15
-1.4055597 1.0157897 -0.48629931 2 13
-1.5703198 0.84271133 -0.40017584 55 14
-1.3677576 0.99054182 -0.57205403 4 12
-1.5701976 0.83851475 -0.70580614 54 11
nan nan nan 0 9
-1.5705657 0.83664793 -0.81947184 58 10
nan nan nan 0 8
-0.71326625 0.37777326 -0.52266109 72 7
-0.6262452 0.45955062 -0.5649547 63 6
-0.53905588 0.28379476 -0.48620832 50 5
-0.22080068 0.16127698 -0.22803281 90 4
-0.22165862 0.11754037 -0.22924842 65 3
-0.22446632 0.16534542 -0.28812027 7 2
-0.3374663 0.17524256 -0.45341986 8 1
-0.23153661 0.17178786 -0.3566184 4 0
-1.5641208 0.84222251 0.46469781 56 31
-1.5014958 1.088133 0.42104879 56 30
-1.5645348 0.84417772 0.33625278 63 29
-1.5006357 1.0867312 0.2843498 62 28
-1.5718517 0.84985548 0.21387632 63 27
-1.5097469 1.0933611 0.17483962 66 26
-1.572674 0.85100067 0.121985 66 25
-1.5067923 1.0912237 0.085131206 56 24
-1.5712944 0.85095847 0.040676914 63 23
-1.5122528 1.0955906 0 65 22
-1.5709975 0.85150689 -0.040676914 67 21
-1.5084318 1.0932173 -0.085247666 62 20
-1.572117 0.85211861 -0.12137299 65 19
-1.509582 1.0952526 -0.16430154 63 18
-1.5701444 0.85105985 -0.20043755 63 17
-1.5150326 1.1000177 -0.25528032 58 16
-1.5661139 0.84819663 -0.30443954 55 15
-1.4097704 1.0263585 -0.48905066 3 13
-1.5672204 0.84846115 -0.40017584 55 14
-1.3661984 0.99670523 -0.57287127 4 12
-1.5652189 0.84289479 -0.70486885 54 11
nan nan nan 0 9
-1.5696305 0.84319305 -0.82053465 58 10
nan nan nan 0 8
-0.71377283 0.38122985 -0.52406234 67 7
-0.6262328 0.46292135 -0.56646937 70 6
-0.54482019 0.28922132 -0.49266955 48 5
-0.22312625 0.16421729 -0.23148786 90 4
-0.22429055 0.11989304 -0.23288728 67 3
-0.21484871 0.1593354 -0.27476367 7 2
-0.33415645 0.17503685 -0.44944251 8 1
-0.22863337 0.17083745 -0.35254279 4 0
-1.5611714 0.84767723 0.46469781 58 31
-1.5016193 1.0962446 0.42217609 56 30
-1.5637364 0.85080403 0.33672637 62 29
-1.5008204 1.0948788 0.28512248 62 28
-1.571056 0.8565219 0.21417925 63 27
-1.5121399 1.1027678 0.17555325 67 26
-1.565312 0.85410208 0.12163796 66 25
-1.5049899 1.0979508 0.085247666 62 24
-1.5705099 0.85763299 0.040734943 63 23
-1.5084193 1.1008627 0 63 22
-1.5681651 0.8567118 -0.040676914 67 21
-1.5046064 1.0984761 -0.085247666 62 20
-1.569133 0.85760117 -0.12137299 63 19
-1.5139769 1.1061376 -0.1651957 62 18
-1.5693452 0.85772371 -0.20072186 63 17
-1.5153711 1.1079636 -0.25596842 56 16
-1.5631437 0.8536582 -0.30443954 55 15
-1.411988 1.035545 -0.49111417 3 13
-1.5686797 0.85598218 -0.40129209 55 14
-1.3684168 1.0056733 -0.57532293 3 12
-1.5705692 0.85249132 -0.70861816 54 11
nan nan nan 0 9
-1.5666776 0.84866691 -0.82053465 58 10
nan nan nan 0 8
-0.71426392 0.38469455 -0.52546358 70 7
-0.62469423 0.46499547 -0.56646937 73 6
-0.54554474 0.29191872 -0.49428487 50 5
-0.21969779 0.16277617 -0.22803281 90 4
-0.22237259 0.11984129 -0.23106785 67 3
-0.20918351 0.15612619 -0.26713136 7 2
-0.33491993 0.17683977 -0.45143119 8 1
-0.22347292 0.16806422 -0.34439147 4 0
-1.5604722 0.85400623 0.46534228 58 31
-1.4999366 1.1026632 0.42273974 55 30
-1.5652144 0.85833949 0.33767357 63 29
-1.5011591 1.1027792 0.2858952 62 28
-1.568207 0.86172694 0.21417925 62 27
-1.5082812 1.1080394 0.17555325 65 26
-1.5624712 0.8592881 0.12163796 66 25
-1.5053623 1.1058973 0.085480578 63 24
-1.5698483 0.86403841 0.040792968 66 23
-1.5107986 1.1103071 0 63 22
-1.5651649 0.86218047 -0.040676914 67 21
-1.5029659 1.1049411 -0.085364126 61 20
-1.5662804 0.86279994 -0.12137299 65 19
-1.5121101 1.1128939 -0.16541924 63 18
-1.5664922 0.86292315 -0.20072186 63 17
-1.5114943 1.1132463 -0.25596842 56 16
-1.5646229 0.86120635 -0.30529833 54 15
-1.4085463 1.0402216 -0.49111417 3 13
-1.5699556 0.86379611 -0.40240833 56 14
-1.3593824 1.0059814 -0.57287127 3 12
-1.5675839 0.85796845 -0.70861816 54 11
-1.3240703 0.98646498 -0.8582868 2 9
-1.5698178 0.85710192 -0.82372332 58 10
-0.98447251 0.73529941 -0.72160608 3 8
-0.70751554 0.38411638 -0.52125984 69 7
-0.62147987 0.46597487 -0.5649547 67 6
-0.5411554 0.29202494 -0.49105424 48 5
-0.22200328 0.16573223 -0.23148786 90 4
-0.22043653 0.11981662 -0.22924842 66 3
-0.21375918 0.16079415 -0.27476367 7 2
-0.33430058 0.17800778 -0.45143119 8 1
-0.21944968 0.16618344 -0.33827803 4 0
-1.5595983 0.86061215 0.46598682 56 31
-1.498034 1.109344 0.4233034 58 30
-1.5643586 0.86498278 0.33814716 63 29
-1.4992843 1.1094842 0.28628153 62 28
-1.5651894 0.86719579 0.21417925 63 27
-1.5084016 1.1162632 0.176029 63 26
-1.5638276 0.86714983 0.121985 66 25
-1.5055041 1.114121 0.085713498 62 24
-1.5646358 0.86830318 0.040734943 65 23
-1.5069137 1.115574 0 62 22
-1.5621459 0.86763871 -0.040676914 67 21
-1.501105 1.1116693 -0.085480578 62 20
-1.5654411 0.86947 -0.12154565 63 19
-1.5042192 1.1151948 -0.16497216 63 18
-1.5678166 0.87079203 -0.20129047 63 17
-1.509586 1.1199933 -0.25631246 56 16
-1.5616071 0.86666268 -0.30529833 54 15
-1.4068332 1.0465691 -0.49180201 3 13
-1.5669308 0.86927098 -0.40240833 55 14
-1.3615396 1.0149643 -0.57532293 4 12
-1.5666102 0.86455196 -0.70955545 54 11
-1.3188547 0.98975301 -0.85711432 3 9
-1.5688002 0.86366481 -0.82478613 58 10
-0.97336411 0.73228288 -0.71514004 3 8
-0.71162885 0.38954744 -0.52546358 81 7
-0.61509985 0.46452969 -0.5604108 66 6
-0.54349345 0.29572019 -0.49428487 50 5
-0.22429079 0.16870639 -0.23494291 90 4
-0.22455767 0.12300172 -0.23470671 66 3
-0.21575068 0.16351761 -0.27857983 7 2
-0.32831377 0.17635299 -0.44347647 8 1
-0.21430035 0.16338602 -0.33012676 4 0
-1.5606581 0.86866623 0.46727586 58 31
-1.4959083 1.116286 0.42386705 56 30
-1.5633234 0.8719033 0.33862075 62 29
-1.4991643 1.1179295 0.28705424 62 28
-1.5663363 0.87534195 0.21478513 63 27
-1.5082868 1.1247642 0.17650475 63 26
-1.5606389 0.87287569 0.121985 66 25
-1.5014105 1.1196314 0.085713498 62 24
-1.5658079 0.87646759 0.040850997 63 23
-1.5048169 1.122587 0 62 22
-1.5611376 0.87457699 -0.040734943 67 21
-1.49902 1.1186596 -0.085597046 59 20
-1.5622438 0.87520176 -0.12154565 65 19
-1.5080938 1.1266711 -0.16586632 62 18
-1.5646144 0.87653244 -0.20129047 63 17
-1.5094339 1.1284889 -0.25700054 54 16
-1.5562696 0.87118042 -0.30486897 54 15
-1.3972242 1.0473861 -0.48973849 3 13
-1.5637342 0.87500829 -0.40240833 55 14
-1.3559233 1.0185263 -0.57450569 4 12
-1.5614043 0.86916381 -0.70861816 54 11
-1.3152182 0.99458021 -0.85711432 3 9
-1.5656242 0.86940897 -0.82478613 58 10
-0.96216166 0.72936583 -0.70867407 4 8
-0.70474869 0.38916937 -0.52125984 69 7
-0.61812949 0.47041011 -0.5649547 63 6
-0.53569794 0.29406953 -0.48782364 50 5
-0.21795237 0.16510592 -0.22803281 90 4
-0.2195735 0.12139095 -0.22924842 70 3
-0.2113297 0.16132583 -0.27285561 7 2
