# .PCD v0.7 - Point Cloud Data file format
VERSION 0.7
FIELDS x y z intensity ring
SIZE 4 4 4 4 2
TYPE F F F F U
COUNT 1 1 1 1 1
WIDTH 1219
HEIGHT 1
VIEWPOINT 0 0 0 1 0 0 0
POINTS 1219
DATA ascii
-0.22953182 0.04321634 -0.23469399 44 2
-0.2997885 0.010281045 -0.34801963 7 1
-0.25466636 0.049031548 -0.315862 3 0
-1.733467 0.081832319 0.45374098 56 31
-1.6709452 0.30439937 0.38497499 69 30
-1.7340206 0.083349809 0.32820165 62 29
-1.6746809 0.30449951 0.26078278 72 28
-1.7277454 0.084543981 0.20690867 67 27
-1.6846409 0.30633628 0.16032912 76 26
-1.7386626 0.085664868 0.11868811 69 25
-1.6805351 0.30559039 0.078027233 78 24
-1.734803 0.08608105 0.039516374 70 23
-1.6773522 0.30530992 0 76 22
-1.7347728 0.086686611 -0.039516374 70 21
-1.6730596 0.30482462 -0.077677861 77 20
-1.7286792 0.086396813 -0.11740204 70 19
-1.6803559 0.30706686 -0.15021856 77 18
-1.7390826 0.086908087 -0.19532 66 17
-1.690629 0.30956176 -0.23394962 73 16
-1.7395065 0.086338282 -0.29756927 61 15
-1.6841323 0.31075165 -0.48010883 61 13
-1.7288623 0.08554098 -0.38845521 58 14
-1.6813235 0.31201997 -0.579409 58 12
-0.68993467 0.034153923 -0.26526314 58 11
-0.60518134 0.11279128 -0.30837354 55 9
-0.6292547 0.030759471 -0.27953446 87 10
-0.63143587 0.11887586 -0.36726904 90 8
-0.54156351 0.02462939 -0.34330288 90 7
-0.63789833 0.12209031 -0.46801877 45 6
-0.56672788 0.023610923 -0.45067149 90 5
-0.35546353 0.068343952 -0.31268138 52 4
-0.25236291 0.01115595 -0.23106785 90 3
-0.23253687 0.044705279 -0.23851015 47 2
-0.30277765 0.011461714 -0.35199699 7 1
-0.26015615 0.051145267 -0.32401329 3 0
-1.7379959 0.088120423 0.45503002 55 31
-1.6698724 0.3102302 0.38497499 65 30
-1.7361708 0.089525081 0.32867527 62 29
-1.668752 0.30943638 0.26001009 73 28
-1.7299181 0.090700835 0.20721161 67 27
-1.6835613 0.31221494 0.16032912 80 26
-1.7408437 0.091861323 0.11886163 69 25
-1.6770034 0.3109962 0.077910781 76 24
-1.7344919 0.092136122 0.039516374 70 23
-1.6762763 0.31116313 0 78 22
-1.7344598 0.092741564 -0.039516374 70 21
-1.6768948 0.31158158 -0.077910781 76 20
-1.7283671 0.092430502 -0.11740204 70 19
-1.6817211 0.3133899 -0.15044211 77 18
-1.7462099 0.093365453 -0.19617291 65 17
-1.6871047 0.31500363 -0.23360558 70 16
-1.736735 0.092282593 -0.29713988 62 15
-1.6806757 0.31618097 -0.47942099 62 13
-1.7285531 0.091575317 -0.38845521 58 14
-1.6825451 0.31832933 -0.58022624 62 12
-0.6944409 0.03679008 -0.2671378 59 11
-0.59611362 0.11322087 -0.30368343 52 9
-0.62914348 0.032955792 -0.27953446 85 10
-0.63941568 0.12272396 -0.37244183 88 8
-0.54974794 0.026882332 -0.34890783 90 7
-0.6355176 0.12392788 -0.46650416 45 6
-0.56092238 0.025360301 -0.44582558 90 5
-0.35876435 0.070305519 -0.31613642 54 4
-0.25232244 0.012036793 -0.23106785 90 3
-0.23237939 0.045516707 -0.23851015 48 2
-0.29970726 0.012426006 -0.34801963 8 1
-0.25714254 0.051452853 -0.31993765 3 0
-1.7376777 0.094186626 0.45503002 55 31
-1.6663867 0.31560084 0.38441133 69 30
-1.7309452 0.095321968 0.32772809 65 29
-1.6700879 0.31572148 0.26039642 72 28
-1.7295911 0.096738815 0.20721161 67 27
-1.6800719 0.31733108 0.16009125 77 26
-1.7405124 0.09793745 0.11886163 69 25
-1.6832672 0.3182494 0.078260154 77 24
-1.7341597 0.098190069 0.039516374 70 23
-1.6751801 0.31701252 0 78 22
-1.7316471 0.098354533 -0.039458349 70 21
-1.6757969 0.31743312 -0.077910781 77 20
-1.7255439 0.098324716 -0.11722939 70 19
-1.6782269 0.31849751 -0.15021856 77 18
-1.7483534 0.099598087 -0.19645722 66 17
-1.6884826 0.32106221 -0.23394962 73 16
-1.7314841 0.098072834 -0.2962811 62 15
-1.6795617 0.32204571 -0.47942099 58 13
-1.7258066 0.097173408 -0.38789707 58 14
-1.676785 0.32329974 -0.57859182 62 12
-0.68737179 0.03872763 -0.2643258 62 11
-0.60439956 0.11690796 -0.30837354 50 9
-0.62902462 0.035151709 -0.27953446 85 10
-0.63271034 0.12358925 -0.36856222 70 8
-0.56205916 0.029388484 -0.35731521 90 7
-0.6448499 0.1280088 -0.47407725 50 6
-0.56274146 0.027302811 -0.44744086 90 5
-0.35852927 0.07149484 -0.31613642 52 4
-0.25399441 0.012939874 -0.23288728 90 3
-0.23222718 0.046287052 -0.23851015 47 2
-0.30420673 0.013573662 -0.3539857 8 1
-0.26688084 0.05443893 -0.33420238 3 0
-1.7349441 0.099813201 0.45438549 55 31
-1.670113 0.32205367 0.38553864 66 30
-1.7306194 0.10106146 0.32772809 62 29
-1.6666069 0.32078797 0.26001009 73 28
-1.7267832 0.10233054 0.20690867 67 27
-1.6740675 0.32224652 0.15961549 76 26
-1.7376882 0.10356379 0.11868811 69 25
-1.6748476 0.32240391 0.077910781 76 24
-1.7288346 0.10364813 0.039400321 70 23
-1.6765738 0.32304204 0 80 22
-1.7337883 0.10454542 -0.039516374 70 21
-1.6747351 0.32298851 -0.077910781 77 20
-1.7227185 0.10389967 -0.11705674 70 19
-1.6795491 0.32482964 -0.15044211 77 18
-1.7405751 0.10495726 -0.19560429 67 17
-1.6800606 0.32553166 -0.23291749 70 16
-1.7311492 0.10381412 -0.2962811 62 15
-1.6832014 0.32854065 -0.48079664 62 13
-1.7278898 0.10333899 -0.38845521 58 14
-1.6780214 0.32931647 -0.579409 56 12
-0.69417441 0.041516107 -0.2671378 61 11
-0.59965849 0.11814643 -0.30602849 51 9
-0.64020157 0.037859149 -0.28484881 88 10
-0.6280815 0.12494615 -0.36597583 63 8
-0.57850063 0.032090157 -0.36852512 96 7
-0.64439911 0.13025896 -0.47407725 50 6
-0.56073672 0.029177763 -0.44582558 90 5
-0.35474095 0.072000623 -0.31268138 51 4
-0.25052166 0.013681611 -0.22924842 90 3
-0.23206419 0.047097396 -0.23851015 50 2
-0.29810184 0.014409173 -0.34603095 7 1
-0.25961572 0.053821452 -0.32401329 3 0
-1.7273515 0.10543766 0.45245194 55 31
-1.6665894 0.32740885 0.38497499 66 30
-1.7302563 0.10710184 0.32772809 62 29
-1.6679002 0.32708201 0.26039642 72 28
-1.7264155 0.10835752 0.20690867 65 27
-1.6778157 0.32905233 0.16009125 80 26
-1.7373163 0.10962883 0.11868811 69 25
-1.6786121 0.32921582 0.078143694 77 24
-1.723454 0.10967353 0.039284267 69 23
-1.6729833 0.3284077 0 78 22
-1.7284238 0.11028559 -0.039400321 70 21
-1.6686406 0.32815447 -0.077677861 77 20
-1.7223454 0.10991246 -0.11705674 69 19
-1.6735201 0.32972139 -0.14999503 77 18
-1.7376997 0.11118099 -0.19532 67 17
-1.6837716 0.33235949 -0.23360558 73 16
-1.7307571 0.11015839 -0.2962811 62 15
-1.6772726 0.3337633 -0.47942099 56 13
-1.7202216 0.10891841 -0.38678083 58 14
-1.672171 0.33453134 -0.57777458 55 12
-0.69633108 0.044198357 -0.26807511 62 11
-0.60789496 0.12201028 -0.31071857 52 9
-0.63102281 0.039674856 -0.28059733 84 10
-0.63390499 0.12854677 -0.36985543 55 8
-0.58044636 0.034322578 -0.36992633 100 7
-0.65948939 0.1358901 -0.48619428 54 6
-0.55681467 0.031040363 -0.44259495 90 5
-0.35447466 0.073300332 -0.31268138 48 4
-0.25218257 0.0146784 -0.23106785 90 3
-0.23820986 0.049290217 -0.24614246 48 2
-0.29804701 0.015501674 -0.34603095 8 1
-0.27072507 0.057292059 -0.34031585 3 0
-1.7317748 0.11207303 0.45374098 55 31
-1.6629905 0.33303359 0.38441133 69 30
-1.7274023 0.11328571 0.32725447 62 29
-1.6666902 0.33319297 0.26039642 72 28
-1.7210541 0.1143624 0.20630279 67 27
-1.6790379 0.33569068 0.16032912 77 26
-1.734414 0.11583298 0.11851459 69 25
-1.6773942 0.33536604 0.078143694 77 24
-1.7255545 0.11585274 0.039342295 69 23
-1.6693177 0.33404356 0 78 22
-1.7305019 0.1167846 -0.039458349 70 21
-1.6674849 0.3339771 -0.077677861 77 20
-1.7244196 0.11638885 -0.11722939 69 19
-1.674741 0.33634636 -0.15021856 77 18
-1.7348226 0.11708228 -0.19503568 67 17
-1.6776882 0.33754548 -0.23291749 70 16
-1.7303621 0.1161992 -0.2962811 62 15
-1.6784525 0.34009647 -0.48010883 62 13
-1.7246743 0.11554136 -0.38789707 58 14
-1.675622 0.34131563 -0.579409 56 12
-0.69385958 0.046482407 -0.2671378 61 11
-0.60095918 0.1228852 -0.307201 50 9
-0.64217269 0.04257983 -0.28591171 90 10
-0.63345242 0.13075873 -0.36985543 54 8
-0.59272474 0.037065756 -0.37833378 103 7
-0.65901095 0.13819133 -0.48619428 54 6
-0.55670291 0.032983817 -0.44259495 90 5
-0.34715438 0.072996125 -0.30577129 48 4
-0.25212979 0.015558591 -0.23106785 90 3
-0.23329782 0.049108338 -0.24041823 50 2
-0.29496413 0.016407153 -0.34205356 8 1
-0.27052343 0.058236718 -0.34031585 3 0
-1.726553 0.11779552 0.45245194 55 31
-1.6642039 0.33932623 0.38497499 66 30
-1.7269964 0.11931477 0.32725447 62 29
-1.665517 0.33900878 0.26039642 70 28
-1.7280717 0.12087826 0.20721161 67 27
-1.675418 0.34105003 0.16009125 77 26
-1.7364872 0.12205788 0.11868811 69 25
-1.6737667 0.34071788 0.078027233 78 24
-1.7276331 0.12204795 0.039400321 70 23
-1.6754885 0.34137529 0 80 22
-1.7275904 0.122651 -0.039400321 72 21
-1.6712015 0.34079996 -0.077910781 77 20
-1.7240028 0.12240749 -0.11722939 70 19
-1.6808734 0.34369612 -0.15088919 76 18
-1.7368813 0.12330962 -0.19532 65 17
-1.6789248 0.34389964 -0.23326153 70 16
-1.729946 0.12223858 -0.2962811 62 15
-1.6749016 0.34546465 -0.47942099 63 13
-1.7266916 0.12172877 -0.38845521 56 14
-1.6744204 0.34716254 -0.579409 59 12
-0.69600552 0.049058553 -0.26807511 62 11
-0.60052657 0.12498218 -0.307201 52 9
-0.63976222 0.044672783 -0.28484881 84 10
-0.63926858 0.13431236 -0.37373504 54 8
-0.59052521 0.039007768 -0.37693256 101 7
-0.66824251 0.14260261 -0.49376738 65 6
-0.5508697 0.034598365 -0.43774903 90 5
-0.35219008 0.075381786 -0.31095386 47 4
-0.25378609 0.016529223 -0.23288728 90 3
-0.23312497 0.049922399 -0.24041823 52 2
-0.29490507 0.01743667 -0.34205356 8 1
-0.27314115 0.059830248 -0.34439147 4 0
-1.7285405 0.12399093 0.45309645 55 31
-1.6653932 0.34563139 0.38553864 67 30
-1.729018 0.12551661 0.32772809 62 29
-1.6691593 0.34582898 0.26116911 72 28
-1.7152635 0.12601817 0.20569691 67 27
-1.6717811 0.34638816 0.15985337 77 26
-1.7335632 0.12793855 0.11851459 69 25
-1.6701225 0.3460485 0.077910781 77 24
-1.7247037 0.12789646 0.039342295 70 23
-1.666945 0.34568936 0 80 22
-1.724659 0.12849848 -0.039342295 70 21
-1.6675571 0.3461208 -0.077794321 76 20
-1.7210774 0.12824285 -0.11705674 70 19
-1.6747892 0.34854043 -0.15044211 77 18
-1.7314857 0.12900963 -0.19475138 67 17
-1.6801376 0.35026661 -0.23360558 70 16
-1.7270523 0.1280978 -0.29585171 62 15
-1.671334 0.35081223 -0.47873315 55 13
-1.7238256 0.12757896 -0.38789707 58 14
-1.6731983 0.35300523 -0.579409 56 12
-0.69351816 0.051325288 -0.2671378 63 11
-0.60656148 0.1284752 -0.31071857 52 9
-0.64185983 0.047061969 -0.28591171 87 10
-0.63461465 0.13563289 -0.37114862 50 8
-0.60898 0.042274557 -0.38954365 98 7
-0.67939329 0.14750914 -0.50285512 74 6
-0.55265009 0.036637202 -0.43936431 90 5
-0.34839916 0.075815514 -0.30749881 47 4
-0.25030321 0.017221792 -0.22924842 90 3
-0.2345234 0.051098399 -0.2423263 51 2
-0.29181647 0.01831004 -0.3380762 7 1
-0.28280181 0.063091323 -0.35865623 4 0
-1.7232792 0.1296684 0.45180741 55 31
-1.6617944 0.3509362 0.38497499 65 30
-1.7236733 0.1311857 0.32678086 63 29
-1.6606935 0.35011527 0.26001009 72 28
-1.7197621 0.13237865 0.20630279 67 27
-1.6705618 0.35222164 0.15985337 77 26
-1.7281325 0.13361159 0.11816755 69 25
-1.6664615 0.35135785 0.077794321 76 24
-1.7192627 0.13353601 0.039226241 69 23
-1.6706191 0.35254467 0 80 22
-1.7241999 0.13451788 -0.039342295 73 21
-1.6687815 0.35245875 -0.077910781 77 20
-1.7181327 0.13405927 -0.1168841 70 19
-1.6686918 0.3533465 -0.14999503 78 18
-1.7335014 0.13524255 -0.19503568 66 17
-1.6789048 0.35612926 -0.23360558 73 16
-1.7265947 0.13412558 -0.29585171 62 15
-1.6771487 0.35815927 -0.48079664 61 13
-1.72094 0.13341062 -0.38733897 58 14
-1.6719559 0.35884365 -0.579409 59 12
-0.69102341 0.053575262 -0.26620045 63 11
-0.608266 0.1310651 -0.31189111 50 9
-0.64169157 0.049302194 -0.28591171 85 10
-0.6404044 0.13923435 -0.37502822 47 8
-0.617091 0.044964757 -0.39514861 95 7
-0.68857723 0.15205929 -0.51042825 90 6
-0.54871053 0.038320482 -0.43613371 90 5
-0.35165524 0.077838682 -0.31095386 45 4
-0.25195304 0.018197987 -0.23106785 90 3
-0.23434362 0.051916726 -0.2423263 52 2
-0.2993142 0.019744799 -0.34801963 8 1
-0.27976185 0.063408837 -0.35458058 7 0
-1.720408 0.13549682 0.4511629 55 31
-1.6581786 0.3562201 0.38441133 69 30
-1.7232049 0.13720164 0.32678086 62 29
-1.6594614 0.35591 0.26001009 74 28
-1.7242372 0.13877206 0.20690867 67 27
-1.6668894 0.35752577 0.15961549 78 26
-1.7276555 0.13964309 0.11816755 69 25
-1.670107 0.35822654 0.078027233 77 24
-1.7187861 0.13953654 0.039226241 72 23
-1.6669346 0.3578462 0 78 22
-1.7262113 0.14073522 -0.039400321 72 21
-1.6651002 0.35775399 -0.077794321 76 20
-1.7201402 0.140255 -0.11705674 69 19
-1.6723151 0.3602241 -0.15044211 77 18
-1.728067 0.14089611 -0.19446707 69 17
-1.6800711 0.36251295 -0.23394962 73 16
-1.7236609 0.13995589 -0.29542232 63 15
-1.6735404 0.36349818 -0.48010883 62 13
-1.7180346 0.13922369 -0.38678083 59 14
-1.6683856 0.36417073 -0.57859182 55 12
-0.6908322 0.055987056 -0.26620045 62 11
-0.60564977 0.13270664 -0.31071857 51 9
-0.64828438 0.052057892 -0.28910032 90 10
-0.64200181 0.14193857 -0.37632143 47 8
-0.61073512 0.046673369 -0.3909449 90 7
-0.69192034 0.15534732 -0.51345748 90 6
-0.54476607 0.039976712 -0.43290305 90 5
-0.34962139 0.078655824 -0.30922633 45 4
-0.24333246 0.01853459 -0.22197071 90 3
-0.23730402 0.053481467 -0.24614246 52 2
-0.29319394 0.020435369 -0.34006488 7 1
-0.28517014 0.0657432 -0.36273187 7 0
-1.7247399 0.14189048 0.45245194 56 31
-1.6593039 0.36252907 0.38497499 66 30
-1.7251621 0.14341578 0.32725447 62 29
-1.6582088 0.36170045 0.26001009 74 28
-1.718796 0.14438152 0.20630279 67 27
-1.6704929 0.36440927 0.16009125 77 26
-1.724672 0.14546677 0.11799403 69 25
-1.6664072 0.36351869 0.077910781 77 24
-1.7207793 0.14574277 0.039284267 72 23
-1.6656753 0.36366269 0 77 22
-1.7207283 0.14634342 -0.039284267 72 21
-1.6638411 0.3635641 -0.077794321 76 20
-1.7196403 0.14625856 -0.11705674 70 19
-1.6710474 0.36605936 -0.15044211 77 18
-1.7300398 0.1471343 -0.19475138 65 17
-1.6763778 0.36784145 -0.23360558 70 16
-1.7256162 0.1461761 -0.29585171 62 15
-1.669915 0.36881626 -0.47942099 61 13
-1.7175382 0.14521991 -0.38678083 59 14
-1.6671042 0.36999226 -0.57859182 59 12
-0.69063258 0.058398172 -0.26620045 65 11
-0.61810255 0.13775048 -0.31775373 45 9
-0.6571213 0.05504011 -0.29335177 89 10
-0.6623596 0.14894795 -0.38925347 48 8
-0.61263299 0.04896054 -0.39234614 90 7
-0.69331139 0.15821105 -0.51497209 92 6
-0.5446232 0.04187806 -0.43290305 90 5
-0.35989612 0.08237195 -0.31959143 48 4
-0.25010914 0.019841969 -0.22924842 90 3
-0.23397546 0.053551476 -0.2423263 55 2
-0.29614493 0.021646295 -0.34404227 7 1
-0.28212562 0.0660493 -0.35865623 7 0
-1.721827 0.1477071 0.45180741 58 31
-1.6580282 0.36831892 0.38497499 69 30
-1.7197592 0.14902005 0.3263073 63 29
-1.6545255 0.36694849 0.25962374 74 28
-1.7158092 0.15016752 0.20599985 67 27
-1.6692108 0.37023816 0.16009125 77 26
-1.7266386 0.1517009 0.11816755 69 25
-1.6700029 0.37042117 0.078143694 77 24
-1.71777 0.15153244 0.039226241 72 23
-1.659516 0.3683849 0 78 22
-1.7226968 0.15256596 -0.039342295 73 21
-1.6576878 0.36828023 -0.077561401 76 20
-1.7166346 0.15204385 -0.1168841 70 19
-1.6697595 0.37189019 -0.15044211 77 18
-1.7270414 0.15295677 -0.19446707 66 17
-1.6702513 0.37260631 -0.23291749 70 16
-1.7201883 0.15177287 -0.29499292 63 15
-1.6662729 0.37411344 -0.47873315 56 13
-1.7145929 0.15100408 -0.38622272 59 14
-1.6681066 0.37633234 -0.579409 61 12
-0.69504333 0.061198048 -0.26807511 63 11
-0.62192112 0.14089911 -0.32009879 36 9
-0.65918016 0.057521325 -0.29441464 90 10
-0.6785078 0.15513273 -0.39959905 52 8
-0.59801042 0.049959119 -0.38253748 90 7
-0.69081897 0.16017401 -0.51345748 97 6
-0.53876549 0.043350693 -0.42805713 90 5
-0.36312065 0.08447206 -0.32304651 51 4
-0.25174865 0.020835388 -0.23106785 90 3
-0.23064932 0.053598903 -0.23851015 59 2
-0.29757932 0.022778984 -0.34603095 7 1
-0.28892049 0.068780556 -0.36884531 8 0
-1.723734 0.15362704 0.45245194 56 31
-1.6544225 0.37327591 0.38441133 69 30
-1.7217007 0.15493865 0.32678086 63 29
-1.6581173 0.37352499 0.26039642 73 28
-1.7153019 0.15585653 0.20599985 69 27
-1.6631196 0.37467122 0.15961549 77 26
-1.726126 0.15742581 0.11816755 69 25
-1.6663299 0.37540507 0.078027233 77 24
-1.7222089 0.15797721 0.039342295 72 23
-1.6607233 0.37443906 0 78 22
-1.7221813 0.15827778 -0.039342295 73 21
-1.6588273 0.3746177 -0.077677861 77 20
-1.7111534 0.15728611 -0.11653879 72 19
-1.6660892 0.37687275 -0.15021856 77 18
-1.7264968 0.15898432 -0.19446707 67 17
-1.673835 0.37924355 -0.23360558 70 16
-1.7196479 0.15777652 -0.29499292 63 15
-1.6672994 0.38046539 -0.47942099 62 13
-1.7116556 0.1564707 -0.38566458 58 14
-1.6667826 0.38215283 -0.579409 59 12
-0.68789929 0.063015431 -0.26526314 62 11
-0.61715066 0.14195456 -0.31775373 25 9
-0.66348404 0.060213234 -0.29654038 90 10
-0.69045609 0.16044906 -0.40735826 51 8
-0.60814947 0.052896284 -0.38954365 66 7
-0.69992721 0.16489923 -0.5210306 104 6
-0.53670865 0.045081694 -0.42644182 90 5
-0.37335733 0.088308871 -0.33341163 51 4
-0.25167441 0.021714028 -0.23106785 90 3
-0.22733511 0.053584099 -0.23469399 67 2
-0.29296386 0.023504511 -0.34006488 7 1
-0.29008284 0.070142932 -0.37088314 8 0
-1.7183485 0.15950426 0.4511629 56 31
-1.6554166 0.37988505 0.38497499 69 30
-1.7186769 0.1610225 0.3263073 63 29
-1.656737 0.37959981 0.26039642 74 28
-1.7147189 0.16214238 0.20599985 69 27
-1.6690103 0.38244128 0.16032912 80 26
-1.7180878 0.16305499 0.11764698 70 25
-1.6625091 0.38094902 0.077910781 78 24
-1.7166703 0.16352095 0.039226241 73 23
-1.6642119 0.38164732 0 81 22
-1.7166132 0.16412015 -0.039226241 72 21
-1.6599429 0.38096756 -0.077794321 77 20
-1.7155313 0.1640244 -0.1168841 72 19
-1.6671226 0.38353813 -0.15044211 81 18
-1.7284043 0.16524284 -0.19475138 67 17
-1.6724339 0.38537592 -0.23360558 73 16
-1.7141826 0.16331813 -0.29413414 63 15
-1.6729833 0.38792101 -0.4814845 62 13
-1.713497 0.16297041 -0.38622272 59 14
-1.6654387 0.38796866 -0.579409 59 12
-0.68998319 0.06562712 -0.26620045 63 11
-0.62736642 0.1467703 -0.32361633 23 9
-0.65876251 0.062121831 -0.29441464 90 10
nan nan nan 0 8
-0.60589832 0.054841597 -0.38814244 54 7
-0.69934732 0.16734143 -0.5210306 98 6
-0.53654796 0.046954885 -0.42644182 90 5
-0.37304679 0.089611597 -0.33341163 51 4
-0.25501591 0.022857269 -0.23470671 90 3
-0.22870335 0.054812394 -0.23660207 81 2
-0.29136902 0.024417367 -0.3380762 7 1
-0.29544806 0.072591774 -0.37903443 7 0
-1.7177812 0.16550145 0.4511629 56 31
-1.6540805 0.38566121 0.38497499 67 30
-1.7156609 0.16678682 0.32583368 63 29
-1.6505921 0.38425422 0.25962374 76 28
-1.7141426 0.16812687 0.20599985 69 27
-1.6652421 0.38769746 0.16009125 80 26
-1.7224728 0.16953278 0.11799403 69 25
-1.6636008 0.38731936 0.078027233 77 24
-1.7136015 0.16927008 0.039168216 72 23
-1.6604354 0.38688371 0 78 22
-1.7210047 0.1705973 -0.039342295 73 21
-1.658603 0.38675949 -0.077794321 77 20
-1.7149484 0.17001173 -0.1168841 70 19
-1.6657736 0.38935515 -0.15044211 78 18
-1.7253449 0.17103356 -0.19446707 67 17
-1.6734885 0.39177898 -0.23394962 73 16
-1.7160532 0.16953935 -0.29456353 63 15
-1.6716191 0.39375842 -0.4814845 61 13
-1.7080666 0.16847926 -0.38510644 59 14
-1.6617757 0.39323261 -0.57859182 58 12
-0.6897499 0.068035215 -0.26620045 61 11
-0.63114285 0.14999621 -0.32596138 19 9
-0.65854168 0.064420961 -0.29441464 90 10
nan nan nan 0 8
-0.60157889 0.056587428 -0.38533995 51 7
-0.70455205 0.17121094 -0.52557451 90 6
-0.54398537 0.049478099 -0.43290305 90 5
-0.39726806 0.097080879 -0.35759693 54 4
-0.25151667 0.023470502 -0.23106785 90 3
-0.22694585 0.055209491 -0.23469399 81 2
-0.28523958 0.024974652 -0.33012149 7 1
-0.29659456 0.073986709 -0.38107225 8 0
-1.7147892 0.17126007 0.45051837 55 31
-1.652724 0.3914327 0.38497499 67 30
-1.7175109 0.17301711 0.3263073 63 29
-1.6516438 0.39058509 0.26001009 73 28
-1.711076 0.17386201 0.20569691 69 27
-1.6591049 0.39206651 0.15961549 77 26
-1.7218707 0.17554429 0.11799403 69 25
-1.6598091 0.39254615 0.077910781 76 24
-1.7130002 0.17525063 0.039168216 72 23
-1.6566428 0.3920984 0 78 22
-1.7179428 0.17605215 -0.039284267 73 21
-1.659672 0.39312553 -0.077910781 77 20
-1.7118632 0.17574582 -0.11671145 72 19
-1.6620513 0.394299 -0.15021856 77 18
-1.7222662 0.17680497 -0.19418277 67 17
-1.6673634 0.39617527 -0.23326153 70 16
-1.7154509 0.17552847 -0.29456353 63 15
-1.6678975 0.39902872 -0.48079664 62 13
-1.7074986 0.17414251 -0.38510644 58 14
-1.6603931 0.39903092 -0.57859182 62 12
-0.68952048 0.070322134 -0.26620045 62 11
-0.63922006 0.15419054 -0.33065146 19 9
-0.66056496 0.066938549 -0.29547751 90 10
nan nan nan 0 8
-0.59519315 0.058112178 -0.38113624 51 7
-0.70398045 0.17354637 -0.52557451 90 6
-0.54001713 0.05094384 -0.42967245 90 5
-0.3811838 0.094380535 -0.34204921 52 4
-0.25143746 0.024304435 -0.23106785 90 3
-0.22832496 0.056367848 -0.23660207 76 2
-0.28817564 0.026160236 -0.33409885 7 1
-0.29494712 0.074601136 -0.37903443 8 0
-1.7166147 0.1771901 0.4511629 58 31
-1.6514169 0.3969112 0.38497499 70 30
-1.712044 0.17821038 0.32536009 63 29
-1.6527405 0.3966395 0.26039642 76 28
-1.7129585 0.17979069 0.20599985 67 27
-1.6601453 0.39843938 0.15985337 78 26
-1.721279 0.18125327 0.11799403 70 25
-1.6609259 0.39863408 0.078027233 74 24
-1.7124096 0.1809302 0.039168216 72 23
-1.6577636 0.39817691 0 81 22
-1.7148321 0.18178789 -0.039226241 74 21
-1.6583592 0.39862701 -0.077910781 77 20
-1.7063099 0.18090279 -0.11636614 72 19
-1.6606649 0.40009826 -0.15021856 78 18
-1.7241408 0.18277358 -0.19446707 67 17
-1.6683769 0.40257698 -0.23360558 74 16
-1.7124101 0.18096085 -0.29413414 63 15
-1.6642302 0.40398747 -0.48010883 59 13
-1.7093041 0.18035391 -0.38566458 58 14
-1.6613554 0.40509754 -0.579409 61 12
-0.69157648 0.072963193 -0.2671378 62 11
-0.64296323 0.15748696 -0.33299652 14 9
-0.6625908 0.069355406 -0.29654038 90 10
nan nan nan 0 8
-0.58675367 0.059291828 -0.37553129 62 7
-0.69951487 0.17502351 -0.52254522 90 6
-0.54553598 0.053355306 -0.4345184 89 5
-0.38785025 0.097520396 -0.34895933 52 4
-0.25135109 0.025181966 -0.23106785 90 3
-0.22968882 0.057576038 -0.23851015 67 2
-0.28657278 0.027040809 -0.33211017 7 1
-0.30028164 0.077124648 -0.38718569 8 0
-1.7159858 0.18318112 0.4511629 56 31
-1.6500214 0.40267327 0.38497499 67 30
-1.7138524 0.18444459 0.32583368 63 29
-1.6537448 0.40299416 0.26078278 73 28
-1.7123204 0.18576893 0.20599985 69 27
-1.6587445 0.40423194 0.15985337 78 26
-1.7206358 0.18726054 0.11799403 69 25
-1.6570988 0.40383491 0.077910781 77 24
-1.70925 0.18693708 0.039110187 72 23
-1.6563636 0.40396112 0 78 22
-1.7141871 0.18777265 -0.039226241 72 21
-1.6544619 0.40410683 -0.077794321 77 20
-1.7056681 0.18685783 -0.11636614 72 19
-1.6592581 0.40589261 -0.15021856 77 18
-1.7209899 0.18882425 -0.19418277 67 17
-1.664557 0.40780589 -0.23326153 70 16
-1.7141837 0.18750019 -0.29456353 63 15
-1.6604055 0.40950581 -0.47942099 56 13
-1.7062413 0.18605874 -0.38510644 59 14
-1.6644446 0.41232637 -0.58104342 61 12
-0.69591415 0.075983584 -0.26901242 61 11
-0.66595846 0.16567603 -0.34589428 14 9
-0.66683334 0.072253369 -0.29866612 92 10
nan nan nan 0 8
-0.5844723 0.061236002 -0.37413004 74 7
-0.70272052 0.17857948 -0.52557451 90 6
-0.54533678 0.055354435 -0.4345184 80 5
-0.39972541 0.10215341 -0.36105198 54 4
-0.2495497 0.025946757 -0.22924842 90 3
-0.22636533 0.057543486 -0.23469399 61 2
-0.2894904 0.028352413 -0.33608752 7 1
-0.30279255 0.078982167 -0.39126134 8 0
-1.7129016 0.18920758 0.45051837 56 31
-1.6485344 0.40871823 0.38497499 70 30
-1.7131649 0.19072494 0.32583368 63 29
-1.6498598 0.40845603 0.26039642 73 28
-1.7066951 0.19149731 0.20539397 69 27
-1.6596668 0.41091007 0.16009125 77 26
-1.7149804 0.19301492 0.11764698 70 25
-1.6556076 0.40990579 0.077910781 78 24
-1.7085872 0.19290233 0.039110187 72 23
-1.6548718 0.41002929 0 80 22
-1.7110035 0.19377646 -0.039168216 74 21
-1.6554643 0.41048369 -0.077910781 77 20
-1.7049718 0.19310816 -0.11636614 74 19
-1.6577593 0.41197139 -0.15021856 78 18
-1.7227888 0.19510648 -0.19446707 69 17
-1.663051 0.41390404 -0.23326153 73 16
-1.7110713 0.19320986 -0.29413414 62 15
-1.6636275 0.41647273 -0.48079664 61 13
-1.703126 0.19204167 -0.38454834 59 14
-1.6561234 0.41639629 -0.57859182 61 12
-0.6910367 0.077910095 -0.2671378 58 11
-0.66534674 0.16811578 -0.34589428 17 9
-0.67557591 0.075551853 -0.3029176 90 10
nan nan nan 0 8
-0.57601744 0.062423095 -0.36852512 69 7
-0.70209289 0.18103133 -0.52557451 90 6
-0.54514027 0.057257682 -0.4345184 76 5
-0.39412758 0.10215317 -0.35586941 52 4
-0.25116447 0.026979938 -0.23106785 90 3
-0.22459388 0.057950072 -0.23278591 61 2
-0.28788078 0.029226761 -0.33409885 7 1
-0.302515 0.080038622 -0.39126134 8 0
-1.7098304 0.19491549 0.44987386 58 31
-1.6470978 0.41447017 0.38497499 69 30
-1.7076106 0.19615062 0.3248865 65 29
-1.6484241 0.41421261 0.26039642 76 28
-1.7084818 0.1977354 0.20569691 69 27
-1.655882 0.41580221 0.15985337 77 26
-1.7142962 0.19900015 0.11764698 70 25
-1.6541666 0.41568244 0.077910781 78 24
-1.7054205 0.19857973 0.039052162 73 23
-1.6534305 0.41580337 0 78 22
-1.7103516 0.19944929 -0.039168216 72 21
-1.6491795 0.41503465 -0.077677861 76 20
-1.7042873 0.19905844 -0.11636614 72 19
-1.6587976 0.41807812 -0.15044211 78 18
-1.714695 0.20026511 -0.19361414 69 17
-1.6640697 0.42002577 -0.23360558 73 16
-1.7103864 0.19918144 -0.29413414 63 15
-1.659835 0.42168248 -0.48010883 62 13
-1.7049007 0.19796593 -0.38510644 58 14
-1.6523712 0.42158753 -0.57777458 59 12
-0.69538081 0.080718718 -0.26901242 55 11
-0.67547053 0.17309844 -0.3517569 19 9
-0.68205482 0.078661583 -0.30610618 96 10
nan nan nan 0 8
-0.58197188 0.065094493 -0.37272879 66 7
-0.69572121 0.18182933 -0.5210306 90 6
-0.54115129 0.058674168 -0.43128774 56 5
-0.37459475 0.098281205 -0.33686668 51 4
-0.24424841 0.027141057 -0.22379012 90 3
-0.22595806 0.059122398 -0.23469399 58 2
-0.28778228 0.030181248 -0.33409885 7 1
-0.3064335 0.082206063 -0.39737478 10 0
-1.7091746 0.20058441 0.44987386 58 31
-1.6527919 0.42174578 0.38666594 67 30
-1.7093889 0.20209686 0.32536009 65 29
-1.642256 0.41845071 0.25962374 51 28
-1.7053521 0.20310989 0.20539397 69 27
-1.6568313 0.42219746 0.16009125 80 26
-1.7111502 0.2043916 0.11747347 70 25
-1.652779 0.42116556 0.077910781 78 24
-1.7047526 0.204234 0.039052162 73 23
-1.6471992 0.42004228 0 78 22
-1.707163 0.20512369 -0.039110187 74 21
-1.6526319 0.42174247 -0.077910781 77 20
-1.7011414 0.20441496 -0.1161935 70 19
-1.6573282 0.42386582 -0.15044211 81 18
-1.7189543 0.20653574 -0.19418277 67 17
-1.6625932 0.42583194 -0.23360558 73 16
-1.7097164 0.20485218 -0.29413414 63 15
-1.6537739 0.42597914 -0.47873315 56 13
-1.7041993 0.20391594 -0.38510644 58 14
-1.6555372 0.42825416 -0.579409 56 12
-0.69509482 0.083145566 -0.26901242 56 11
-0.67272717 0.17489232 -0.35058436 23 9
-0.67729414 0.080406696 -0.30398044 97 10
nan nan nan 0 8
-0.57557917 0.066342443 -0.36852512 61 7
-0.69700295 0.18477319 -0.52254522 90 6
-0.55232728 0.061775371 -0.44097963 52 5
-0.38122165 0.10149558 -0.34377676 48 4
-0.25268072 0.028862782 -0.23288728 90 3
-0.23041865 0.061210688 -0.24041823 61 2
-0.29069096 0.031478122 -0.3380762 7 1
-0.30753851 0.083668314 -0.3994126 10 0
-1.7084641 0.20654932 0.44987386 58 31
-1.6418813 0.42505839 0.38441133 73 30
-1.7111101 0.20835572 0.32583368 63 29
-1.6455665 0.42542338 0.26039642 73 28
-1.7021692 0.20876288 0.20509103 70 27
-1.6505302 0.42672616 0.15961549 78 26
-1.7079505 0.21006246 0.11729994 70 25
-1.6537157 0.42756051 0.078027233 78 24
-1.7064735 0.21078371 0.039110187 72 23
-1.655401 0.42830685 0 81 22
-1.7089174 0.21138485 -0.039168216 76 21
-1.6534917 0.42842633 -0.078027233 77 20
-1.7028928 0.21065447 -0.11636614 70 19
-1.6558386 0.4296484 -0.15044211 77 18
-1.7132552 0.21223095 -0.19361414 67 17
-1.6587008 0.43100697 -0.23326153 70 16
-1.7089542 0.21111722 -0.29413414 63 15
-1.6614997 0.43448222 -0.4814845 62 13
-1.7034771 0.20986345 -0.38510644 58 14
-1.6562411 0.43492231 -0.58022624 61 12
-0.69708663 0.085967876 -0.26994976 55 11
-0.68277782 0.18009126 -0.35644698 28 9
-0.68598318 0.083953984 -0.30823192 98 10
nan nan nan 0 8
-0.57944626 0.068921074 -0.37132758 52 7
-0.69440228 0.18680312 -0.5210306 90 6
-0.5596835 0.064635545 -0.44744086 65 5
-0.37562314 0.10144243 -0.3385942 43 4
-0.25257322 0.029788706 -0.23288728 90 3
-0.22553982 0.060698427 -0.23469399 58 2
-0.28906631 0.032391567 -0.33608752 7 1
-0.31279933 0.086387768 -0.40756389 14 0
-1.7029009 0.21221934 0.44858482 56 31
-1.6426673 0.43169549 0.38497499 74 30
-1.7054629 0.21402158 0.3248865 65 29
-1.641608 0.43082178 0.26001009 77 28
-1.7013925 0.21500024 0.20509103 70 27
-1.6513613 0.43340772 0.15985337 81 26
-1.7046946 0.21601102 0.11712643 72 25
-1.6497229 0.43298176 0.077910781 80 24
-1.7032475 0.21642762 0.039052162 73 23
-1.65382 0.43437132 0 80 22
-1.7081312 0.21764691 -0.039168216 74 21
-1.6495717 0.43355754 -0.077910781 77 20
-1.6996349 0.21658273 -0.1161935 70 19
-1.6566597 0.43635175 -0.15066564 78 18
-1.7149681 0.21852046 -0.19389845 69 17
-1.6595036 0.43771815 -0.23360558 72 16
-1.7033195 0.21646737 -0.29327536 63 15
-1.6599729 0.44027925 -0.4814845 56 13
-1.7026964 0.2161056 -0.38510644 58 14
-1.6524304 0.44008988 -0.579409 59 12
-0.70368302 0.089250393 -0.27276173 55 11
nan nan nan 0 9
-0.68343985 0.086073801 -0.30716905 99 10
nan nan nan 0 8
-0.57508969 0.07045947 -0.36852512 48 7
-0.69566286 0.18975607 -0.52254522 90 6
-0.57082957 0.067882828 -0.45713273 85 5
-0.3630895 0.099327818 -0.32650155 41 4
-0.25076327 0.03048411 -0.23106785 90 3
-0.22686879 0.061969094 -0.23660207 56 2
-0.28141746 0.032615189 -0.32614413 7 1
-0.31805977 0.089091375 -0.41571516 15 0
-1.7069424 0.21876945 0.44987386 58 31
-1.6435028 0.43805721 0.38553864 69 30
-1.7047054 0.21997344 0.3248865 66 29
-1.64248 0.43718785 0.26039642 74 28
-1.7006317 0.22093791 0.20509103 70 27
-1.6522425 0.43981269 0.16009125 80 26
-1.7113507 0.22291608 0.11764698 70 25
-1.6530265 0.44002873 0.078143694 78 24
-1.7024816 0.22237174 0.039052162 73 23
-1.6522937 0.44014159 0 80 22
-1.7048825 0.22328703 -0.039110187 76 21
-1.6456361 0.43866664 -0.077794321 80 20
-1.7013419 0.22283459 -0.11636614 72 19
-1.6527216 0.44148624 -0.15044211 78 18
-1.7117317 0.22418645 -0.19361414 69 17
-1.6579655 0.4435083 -0.23360558 70 16
-1.7074386 0.22304273 -0.29413414 63 15
-1.6561056 0.4454436 -0.48079664 56 13
-1.7043487 0.22235955 -0.38566458 58 14
-1.6508842 0.44585526 -0.579409 59 12
-0.70566648 0.091997445 -0.27369905 52 11
nan nan nan 0 9
-0.69885141 0.090433203 -0.31460917 102 10
nan nan nan 0 8
-0.5727849 0.07221739 -0.36712387 47 7
-0.69116604 0.19110949 -0.51951599 90 6
-0.57058918 0.069874987 -0.45713273 90 5
-0.36447847 0.10109001 -0.32822907 40 4
-0.24724783 0.03097523 -0.22742899 90 3
-0.23130533 0.064110175 -0.2423263 58 2
-0.28431436 0.03392192 -0.33012149 7 1
-0.32052597 0.091016904 -0.4197908 37 0
-1.703773 0.2244145 0.44922933 59 31
-1.6419637 0.44379145 0.38553864 69 30
-1.7039272 0.22592266 0.3248865 65 29
-1.6433278 0.44356528 0.26078278 73 28
-1.6998502 0.22687286 0.20509103 69 27
-1.6530991 0.44622901 0.16032912 80 26
-1.7056173 0.2282339 0.11729994 70 25
-1.6490701 0.44514221 0.078027233 78 24
-1.701695 0.22831318 0.039052162 73 23
-1.6483346 0.44525144 0 80 22
-1.7065701 0.22956653 -0.039168216 74 21
-1.6465046 0.44506308 -0.077910781 78 20
-1.6980815 0.22844306 -0.1161935 72 19
-1.6463655 0.44594443 -0.14999503 80 18
-1.7134007 0.23048778 -0.19389845 66 17
-1.6587962 0.44994423 -0.23394962 65 16
-1.7042083 0.22867745 -0.29370472 63 15
-1.6568587 0.45185721 -0.4814845 61 13
-1.6987306 0.22766712 -0.38454834 59 14
-1.6470399 0.4509882 -0.57859182 58 12
-0.70074463 0.093861505 -0.27182442 52 11
-1.6485401 0.45717788 -0.88994491 63 9
-0.69853151 0.092872091 -0.31460917 103 10
nan nan nan 0 8
-0.57458383 0.074472606 -0.36852512 47 7
-0.69814771 0.19569516 -0.52557451 90 6
-0.58360189 0.073468588 -0.46843988 90 5
-0.34502572 0.096845798 -0.30922633 41 4
-0.25224742 0.032431968 -0.23288728 90 3
-0.22643065 0.063551418 -0.23660207 65 2
-0.28569993 0.035081714 -0.33211017 7 1
-0.31048939 0.089245826 -0.40552607 73 0
-1.7053735 0.23068072 0.44987386 58 31
-1.6380566 0.44887349 0.38497499 74 30
-1.7031281 0.23186909 0.3248865 65 29
-1.6417694 0.44929889 0.26078278 74 28
-1.6941297 0.23213834 0.20448515 70 27
-1.6515313 0.45199671 0.16032912 80 26
-1.7048101 0.23418625 0.11729994 70 25
-1.6499141 0.45155817 0.078143694 78 24
-1.6984111 0.23391432 0.038994133 73 23
-1.6467702 0.45100248 0 80 22
-1.7057583 0.23552218 -0.039168216 72 21
-1.6449411 0.45080775 -0.077910781 78 20
-1.6972737 0.23436908 -0.1161935 72 19
-1.647199 0.45235109 -0.15021856 80 18
-1.7101249 0.23613104 -0.19361414 69 17
-1.6524421 0.45441246 -0.23326153 66 16
-1.7009593 0.23429228 -0.29327536 63 15
-1.6599028 0.45892507 -0.48286018 59 13
-1.6979256 0.23359542 -0.38454834 61 14
-1.650007 0.45800465 -0.58022624 61 12
-0.70500708 0.096921638 -0.27369905 51 11
-1.6469343 0.46292955 -0.88994491 66 9
-0.70268929 0.095905267 -0.31673488 104 10
nan nan nan 0 8
-0.56610608 0.07542409 -0.36292017 47 7
-0.69172639 0.19648027 -0.5210306 90 6
-0.5833419 0.075505294 -0.46843988 97 5
-0.35162312 0.10007957 -0.31613642 40 4
-0.24702555 0.032700576 -0.22742899 90 3
-0.22775565 0.06480208 -0.23851015 56 2
-0.28858587 0.036424406 -0.33608752 7 1
-0.31849608 0.092834756 -0.41775298 36 0
-1.7045579 0.23663218 0.44987386 58 31
-1.6435174 0.45655358 0.38666594 73 30
-1.7023083 0.23781268 0.3248865 65 29
-1.6354326 0.45370021 0.26001009 76 28
-1.6957668 0.2383925 0.20478809 72 27
-1.6499435 0.45775887 0.16032912 80 26
-1.7064525 0.24048023 0.11747347 73 25
-1.6483278 0.45731473 0.078143694 78 24
-1.6975842 0.23984146 0.038994133 73 23
-1.6500021 0.4580918 0 78 22
-1.6999756 0.24078101 -0.039052162 76 21
-1.6433574 0.45654693 -0.077910781 78 20
-1.6915054 0.23959976 -0.1158482 73 19
-1.648008 0.45876893 -0.15044211 78 18
-1.7142097 0.24278869 -0.19418277 69 17
-1.6532303 0.4608458 -0.23360558 69 16
-1.6976919 0.23988728 -0.29284593 65 15
-1.6513501 0.46276155 -0.48079664 61 13
-1.6970998 0.23952086 -0.38454834 59 14
-1.6438513 0.46247563 -0.57859182 58 12
-0.71384883 0.10064334 -0.27744839 50 11
-1.6495537 0.46989134 -0.89228994 73 9
-0.70907646 0.099274121 -0.31992349 105 10
-0.96755457 0.27635866 -0.5871132 96 8
-0.56994462 0.077940911 -0.36572263 45 7
-0.69485509 0.20000745 -0.52405989 90 6
-0.59443074 0.078993797 -0.47813177 100 5
-0.35820207 0.10336056 -0.32304651 44 4
-0.25371653 0.034402024 -0.23470671 90 3
-0.22443485 0.064664565 -0.23469399 59 2
-0.28845698 0.037431534 -0.33608752 7 1
-0.3098588 0.091411263 -0.40552607 11 0
-1.7013295 0.24224377 0.44922933 58 31
-1.6395701 0.46162459 0.38610229 74 30
-1.6990376 0.24340883 0.32441291 66 29
-1.6409695 0.46142122 0.26116911 74 28
-1.6949246 0.24431038 0.20478809 70 27
-1.6483356 0.46351546 0.16032912 83 26
-1.7056026 0.2464354 0.11747347 73 25
-1.6419151 0.46170738 0.077910781 80 24
-1.6967367 0.24576569 0.038994133 74 23
-1.6459873 0.46316832 0 81 22
-1.7015986 0.24706915 -0.039110187 76 21
-1.6417538 0.46228051 -0.077910781 80 20
-1.6980648 0.24656732 -0.11636614 74 19
-1.648792 0.46519801 -0.15066564 80 18
-1.7084347 0.2480641 -0.19361414 69 17
-1.6516117 0.46661386 -0.23360558 67 16
-1.7017201 0.246511 -0.29370472 63 15
-1.6474137 0.46786341 -0.48010883 61 13
-1.693841 0.24509789 -0.3839902 59 14
-1.6490406 0.47016343 -0.58104342 56 12
-0.70431328 0.10184112 -0.27369905 48 11
-1.6479033 0.4756465 -0.89228994 74 9
-0.70648462 0.1014353 -0.31886062 105 10
-0.92345524 0.26713902 -0.55995595 91 8
-0.57172072 0.080207676 -0.36712387 47 7
-0.6865229 0.20017749 -0.51800138 90 6
-0.58847594 0.080322072 -0.47328579 103 5
-0.37514713 0.10980624 -0.34032169 45 4
-0.24849214 0.034640111 -0.22924842 90 3
-0.22884269 0.066861987 -0.24041823 58 2
-0.28381306 0.037888262 -0.33012149 7 1
-0.3095378 0.092492312 -0.40552607 10 0
-1.7004735 0.24818102 0.44922933 58 31
-1.6379488 0.46734494 0.38610229 72 30
-1.6981776 0.24933809 0.32441291 65 29
-1.6369743 0.46646649 0.26078278 78 28
-1.6916058 0.24986617 0.20448515 72 27
-1.6467894 0.468979 0.16032912 83 26
-1.6997968 0.25166407 0.11712643 70 25
-1.645095 0.46881098 0.078143694 77 24
-1.6958685 0.25168687 0.038994133 74 23
-1.6467638 0.46959972 0 81 22
-1.70077 0.25271049 -0.039110187 76 21
-1.6353291 0.46663183 -0.077677861 78 20
-1.6897916 0.25140277 -0.1158482 76 19
-1.6472403 0.47066304 -0.15066564 78 18
-1.7075583 0.25402614 -0.19361414 69 17
-1.6476753 0.47140402 -0.23326153 69 16
-1.6959759 0.25173342 -0.29284593 65 15
-1.6503882 0.47494653 -0.4814845 63 13
-1.69543 0.25106698 -0.38454834 61 14
-1.6451204 0.47525805 -0.58022624 59 12
-0.7108534 0.10516904 -0.27651104 45 11
-1.6505541 0.48235315 -0.89463496 74 9
-0.71060604 0.10454313 -0.32098636 105 10
-0.91846079 0.26898661 -0.55736953 90 8
-0.5673359 0.081633024 -0.36432141 43 7
-0.69538313 0.2053024 -0.52557451 90 6
-0.59577024 0.083293088 -0.47974709 104 5
-0.38342631 0.11367634 -0.34895933 50 4
-0.25347647 0.036128204 -0.23470671 90 3
-0.23170651 0.068573654 -0.24423438 61 2
-0.28819552 0.039394118 -0.33608752 7 1
-0.30508244 0.092222668 -0.3994126 10 0
-1.6972519 0.25346535 0.44858482 58 31
-1.638729 0.4734531 0.38666594 73 30
-1.6997694 0.25532919 0.3248865 65 29
-1.6354187 0.4718923 0.26078278 77 28
-1.6883138 0.25510716 0.20418221 72 27
-1.6475326 0.47541755 0.160567 83 26
-1.7038857 0.25803927 0.11747347 73 25
-1.6411328 0.47356823 0.078027233 80 24
-1.6925082 0.25723305 0.038936108 74 23
-1.6427964 0.47436136 0 81 22
-1.6998775 0.25864574 -0.039110187 77 21
-1.6360884 0.47303402 -0.077794321 80 20
-1.6914148 0.25737658 -0.11602084 74 19
-1.6431966 0.47571462 -0.15044211 81 18
-1.7091172 0.26035562 -0.19389845 69 17
-1.6507745 0.47853759 -0.23394962 70 16
-1.6950868 0.25765198 -0.29284593 65 15
-1.6418006 0.47867721 -0.47942099 58 13
-1.6945434 0.25698361 -0.38454834 61 14
-1.6411848 0.480331 -0.579409 58 12
-0.71963364 0.1091312 -0.28026035 43 11
-1.646744 0.48748204 -0.89346248 74 9
-0.70799804 0.10669397 -0.31992349 104 10
-0.90312219 0.2680524 -0.54831713 90 8
-0.56704748 0.083612897 -0.36432141 41 7
-0.69272256 0.20727286 -0.52405989 90 6
-0.58601081 0.084166497 -0.47167051 104 5
-0.38646138 0.11614424 -0.35241437 50 4
-0.24994363 0.0366017 -0.23106785 90 3
-0.22684054 0.067936137 -0.23851015 59 2
-0.28354162 0.039868712 -0.33012149 7 1
-0.30612311 0.093777165 -0.40145043 7 0
-1.6963115 0.25968438 0.44858482 59 31
-1.6369827 0.47945616 0.38666594 74 30
-1.6963954 0.26118743 0.32441291 65 29
-1.633678 0.47788322 0.26078278 78 28
-1.6947261 0.26242208 0.20509103 70 27
-1.6433914 0.48075104 0.16032912 83 26
-1.7004634 0.26390362 0.11729994 73 25
-1.6393861 0.47958013 0.078027233 80 24
-1.69407 0.26352006 0.038994133 74 23
-1.6410468 0.48037931 0 81 22
-1.6964482 0.26449287 -0.039052162 77 21
-1.6368229 0.47944725 -0.077910781 80 20
-1.6879952 0.26319349 -0.1158482 76 19
-1.6414418 0.48173404 -0.15044211 78 18
-1.7057433 0.26594087 -0.19361414 70 17
-1.6442598 0.48318234 -0.23326153 70 16
-1.6917431 0.2631923 -0.29241657 65 15
-1.6470324 0.48645675 -0.4814845 62 13
-1.6935902 0.26319271 -0.38454834 59 14
-1.6417625 0.48673147 -0.58022624 59 12
-0.72841418 0.11303199 -0.28400964 34 11
-1.6470602 0.49415177 -0.89463496 74 9
-0.71209645 0.10983832 -0.32204923 103 10
-0.88784951 0.26685449 -0.53926474 90 8
-0.57289815 0.086489454 -0.36852512 39 7
-0.69199485 0.20968965 -0.52405989 90 6
-0.59138077 0.087017119 -0.47651646 101 5
-0.39467993 0.12018098 -0.36105198 51 4
-0.24641722 0.037006788 -0.22742899 90 3
-0.22966994 0.069742329 -0.2423263 55 2
-0.28940809 0.04165443 -0.3380762 7 1
-0.30027717 0.093078174 -0.39329916 7 0
-1.6953946 0.26560405 0.44858482 58 31
-1.6352991 0.48516738 0.38666594 73 30
-1.6978987 0.26748586 0.3248865 65 29
-1.632 0.48358297 0.26078278 77 28
-1.6888965 0.26756662 0.20448515 72 27
-1.6464736 0.48790497 0.16080487 80 26
-1.6995319 0.26983771 0.11729994 73 25
-1.6377021 0.48529977 0.078027233 80 24
-1.6931399 0.26943186 0.038994133 74 23
-1.6369641 0.4853909 0 81 22
-1.6905771 0.26963276 -0.038936108 77 21
-1.6351393 0.48515794 -0.077910781 80 20
-1.6919932 0.26986271 -0.1161935 74 19
-1.6397502 0.48746079 -0.15044211 77 18
-1.7072579 0.27228108 -0.19389845 69 17
-1.6496805 0.49104747 -0.23429367 70 16
-1.6932468 0.26947954 -0.29284593 65 15
-1.6430224 0.49151111 -0.48079664 59 13
-1.6950684 0.26948196 -0.38510644 61 14
-1.6400535 0.49245933 -0.58022624 58 12
-0.74404675 0.1180615 -0.29057091 21 11
-1.6411018 0.49860847 -0.89228994 74 9
-0.71618158 0.11301257 -0.32417497 104 10
-0.87464154 0.26618168 -0.53150558 90 8
-0.56849754 0.087875947 -0.36572263 36 7
-0.69125867 0.21210389 -0.52405989 90 6
-0.58729708 0.088530645 -0.47328579 98 5
-0.39253467 0.12101424 -0.35932446 52 4
-0.24798426 0.038106225 -0.22924842 90 3
-0.23250157 0.071529575 -0.24614246 56 2
-0.28926089 0.042664401 -0.3380762 7 1
-0.29995042 0.094125777 -0.39329916 7 0
-1.6920714 0.27114177 0.44794029 59 31
-1.6289321 0.48946476 0.38553864 77 30
-1.6945307 0.27302405 0.32441291 65 29
-1.6326668 0.48998976 0.26116911 77 28
-1.6879523 0.27346033 0.20448515 72 27
-1.6400809 0.49192604 0.16032912 83 26
-1.6985795 0.27576855 0.11729994 73 25
-1.64078 0.4924553 0.078260154 78 24
-1.6921891 0.27534038 0.038994133 74 23
-1.6400466 0.49254635 0 81 22
-1.6921411 0.27563569 -0.038994133 76 21
-1.6358266 0.49158448 -0.078027233 83 20
-1.6861168 0.27497143 -0.1158482 72 19
-1.6405083 0.49361622 -0.15066564 81 18
-1.6989413 0.27705014 -0.19304553 70 17
-1.6527832 0.49795002 -0.23498175 72 16
-1.6947272 0.2757805 -0.29327536 63 15
-1.6412967 0.49724331 -0.48079664 61 13
-1.6893533 0.27432731 -0.3839902 62 14
-1.6360649 0.49749079 -0.579409 59 12
-0.74822921 0.1212541 -0.29244557 18 11
-1.6373298 0.50339603 -0.89111745 77 9
-0.71578276 0.11551182 -0.32417497 104 10
-0.88396943 0.27225649 -0.53797156 90 8
-0.5763734 0.091113947 -0.37132758 34 7
-0.69055152 0.214395 -0.52405989 90 6
-0.58700025 0.09047772 -0.47328579 92 5
-0.38524491 0.12011758 -0.35241437 51 4
-0.25125042 0.039418634 -0.23288728 90 3
-0.22611669 0.070307836 -0.23851015 59 2
-0.28461647 0.042995572 -0.33211017 7 1
-0.29550824 0.093766563 -0.38718569 7 0
-1.6959318 0.27752459 0.44922933 58 31
-1.6296295 0.49557552 0.38610229 72 30
-1.6887704 0.27785179 0.3234657 66 29
-1.6333954 0.49612215 0.26155546 78 28
-1.691934 0.27985922 0.20509103 70 27
-1.6383538 0.49764803 0.16032912 83 26
-1.6976558 0.28139976 0.11729994 73 25
-1.6367494 0.49716479 0.078143694 80 24
-1.6862857 0.28043258 0.03887808 74 23
-1.6384044 0.49798226 0 85 22
-1.6911687 0.28154072 -0.038994133 77 21
-1.6341007 0.49729154 -0.078027233 80 20
-1.6876564 0.28096732 -0.11602084 74 19
-1.6411562 0.50006855 -0.15088919 80 18
-1.697964 0.28297886 -0.19304553 69 17
-1.6439321 0.50153935 -0.23394962 76 16
-1.6888942 0.28089342 -0.29241657 65 15
-1.6441448 0.50438535 -0.48217231 62 13
-1.6907902 0.2806181 -0.38454834 61 14
-1.6365755 0.50389701 -0.58022624 59 12
-0.7523551 0.12473837 -0.29432023 22 11
-1.6376699 0.50976741 -0.89228994 74 9
-0.71760905 0.11836988 -0.32523784 104 10
-0.87888408 0.27420923 -0.53538513 87 8
-0.56991565 0.092163302 -0.36712387 33 7
-0.68407547 0.21511443 -0.51951599 90 6
-0.58289242 0.092051998 -0.47005519 90 5
-0.3848021 0.12152875 -0.35241437 50 4
-0.24940822 0.040087894 -0.23106785 90 3
-0.22893961 0.072103605 -0.2423263 55 2
-0.28595668 0.044253223 -0.33409885 7 1
-0.29241359 0.093936697 -0.38311005 4 0
-1.6901374 0.28294793 0.44794029 59 31
-1.6301287 0.50226527 0.38666594 73 30
-1.6877408 0.28403959 0.3234657 66 29
-1.6268464 0.50064635 0.26078278 77 28
-1.6811073 0.28441685 0.20387927 72 27
-1.6412741 0.50511968 0.16080487 84 26
-1.6941535 0.28720677 0.11712643 73 25
-1.6373019 0.50389802 0.078260154 80 24
-1.6877612 0.28673223 0.038936108 74 23
-1.6389563 0.50472283 0 81 22
-1.6925899 0.28815323 -0.039052162 77 21
-1.6299692 0.50225419 -0.077910781 80 20
-1.6866152 0.28715101 -0.11602084 76 19
-1.6393124 0.50608033 -0.15088919 83 18
-1.6969658 0.28890413 -0.19304553 69 17
-1.6444479 0.5082956 -0.23429367 76 16
-1.6879035 0.28678709 -0.29241657 66 15
-1.6377854 0.50868952 -0.48079664 61 13
-1.684944 0.28600466 -0.38343209 62 14
-1.6348068 0.5096066 -0.58022624 59 12
-0.74276966 0.12584652 -0.29057091 28 11
-1.6400003 0.51710016 -0.89463496 73 9
-0.72835493 0.12271415 -0.33055216 104 10
-0.87384462 0.27597591 -0.53279871 90 8
-0.57981187 0.095791146 -0.37413004 32 7
-0.68899965 0.21933097 -0.52405989 90 6
-0.58822298 0.094970725 -0.47490111 90 5
-0.38265795 0.12230951 -0.35068685 51 4
-0.24757165 0.040700976 -0.22924842 90 3
-0.22714078 0.072433151 -0.24041823 55 2
-0.28430155 0.045031127 -0.33211017 7 1
-0.29482967 0.095878758 -0.38718569 7 0
-1.6867579 0.28844225 0.44729578 58 31
-1.6283656 0.50795245 0.38666594 73 30
-1.6915787 0.29075384 0.32441291 66 29
-1.6274461 0.50705993 0.26116911 77 28
-1.6825501 0.29070225 0.20418221 72 27
-1.6371258 0.51010239 0.160567 83 26
-1.6955987 0.2935406 0.11729994 73 25
-1.6379163 0.51035619 0.078376614 78 24
-1.6867499 0.29262185 0.038936108 74 23
-1.634799 0.50969356 0 81 22
-1.6891106 0.29363516 -0.038994133 77 21
-1.6305891 0.50868756 -0.078027233 80 20
-1.6856025 0.29303664 -0.11602084 74 19
-1.6375358 0.51179951 -0.15088919 80 18
-1.7008423 0.2956697 -0.19361414 69 17
-1.6450257 0.51477522 -0.23463769 74 16
-1.6868922 0.29267719 -0.29241657 67 15
-1.6405835 0.51585126 -0.48217231 61 13
-1.6839353 0.29188448 -0.38343209 62 14
-1.6352699 0.51602405 -0.58104342 59 12
-0.74689585 0.12921311 -0.29244557 33 11
-1.6381853 0.52282172 -0.89463496 73 9
-0.72345942 0.12450423 -0.32842645 104 10
-0.87898463 0.28099516 -0.53667837 90 8
-0.57538766 0.097144604 -0.37132758 29 7
-0.68822986 0.22173467 -0.52405989 90 6
-0.58788794 0.097023435 -0.47490111 90 5
-0.37879741 0.12250905 -0.34723181 51 4
-0.25251073 0.042354479 -0.23470671 90 3
-0.22382414 0.072196752 -0.23660207 55 2
-0.28564075 0.046248481 -0.33409885 7 1
-0.29175064 0.095975816 -0.38311005 7 0
-1.6881208 0.29474032 0.44794029 59 31
-1.6242611 0.51289696 0.38610229 74 30
-1.6905534 0.29665679 0.32441291 66 29
-1.6303754 0.51422971 0.26194182 78 28
-1.6839696 0.29700115 0.20448515 72 27
-1.6377978 0.51627976 0.16080487 83 26
-1.6921073 0.29902709 0.11712643 77 25
-1.6337442 0.51531619 0.078260154 78 24
-1.6881797 0.29894018 0.038994133 74 23
-1.6353928 0.5161525 0 84 22
-1.6856662 0.29880211 -0.038936108 78 21
-1.6311841 0.51513141 -0.078143694 83 20
-1.6821132 0.2984865 -0.1158482 76 19
-1.6382027 0.51798064 -0.15111272 81 18
-1.6924613 0.30031359 -0.19276121 70 17
-1.6456695 0.52097791 -0.23498175 74 16
-1.6834342 0.29813775 -0.29198715 65 15
-1.6364836 0.52084291 -0.4814845 61 13
-1.6853584 0.29788762 -0.3839902 62 14
-1.6312091 0.52100718 -0.58022624 61 12
-0.757882 0.13366361 -0.29713219 43 11
-1.6364424 0.52825123 -0.89463496 73 9
-0.72079033 0.12664522 -0.32736358 105 10
-0.878048 0.28390846 -0.53667837 87 8
-0.57912898 0.099836633 -0.37413004 29 7
-0.68937969 0.22463858 -0.52557451 90 6
-0.58944613 0.099280104 -0.47651646 90 5
-0.37153411 0.12147088 -0.34032169 51 4
-0.25236887 0.043191597 -0.23470671 90 3
-0.22358352 0.072938584 -0.23660207 58 2
-0.28698319 0.04742565 -0.33608752 7 1
-0.29417023 0.097883366 -0.38718569 7 0
-1.6871341 0.30033675 0.44794029 58 31
-1.6225513 0.51828033 0.38610229 77 30
-1.6823094 0.30097485 0.32299212 66 29
-1.6286612 0.51963341 0.26194182 77 28
-1.6780894 0.30171257 0.20387927 73 27
-1.6383556 0.52275306 0.16104275 81 26
-1.6911063 0.30463669 0.11712643 76 25
-1.6320264 0.52073109 0.078260154 81 24
-1.6871792 0.30453673 0.038994133 77 23
-1.6312916 0.52080941 0 81 22
-1.6821527 0.30424306 -0.03887808 78 21
-1.6294668 0.52053773 -0.078143694 83 20
-1.6811141 0.30406293 -0.1158482 76 19
-1.6340141 0.5229339 -0.15088919 80 18
-1.6963456 0.30680144 -0.19332983 70 17
-1.6461979 0.5274778 -0.23532578 74 16
-1.6872851 0.30458662 -0.29284593 66 15
-1.6347475 0.52626681 -0.4814845 61 13
-1.6795107 0.30291077 -0.38287395 63 14
-1.6294724 0.52641368 -0.58022624 59 12
-0.74828148 0.1346969 -0.29338288 47 11
-1.6366864 0.53464878 -0.89580756 73 9
-0.72482395 0.12981674 -0.32948929 108 10
-0.87298816 0.28563023 -0.53409195 90 8
-0.59103948 0.10384958 -0.38253748 26 7
-0.68293113 0.22515523 -0.5210306 90 6
-0.58909595 0.10133706 -0.47651646 90 5
-0.37624303 0.12450519 -0.34550428 54 4
-0.24713939 0.043248124 -0.22924842 90 3
-0.22332755 0.073718593 -0.23660207 54 2
-0.28831246 0.048662543 -0.3380762 7 1
-0.29656288 0.099859752 -0.39126134 7 0
