# .PCD v0.7 - Point Cloud Data file format
VERSION 0.7
FIELDS x y z intensity ring
SIZE 4 4 4 4 2
TYPE F F F F U
COUNT 1 1 1 1 1
WIDTH 1253
HEIGHT 1
VIEWPOINT 0 0 0 1 0 0 0
POINTS 1253
DATA ascii
-1.3786669 0.95469952 -0.56796795 10 12
-1.5813488 0.80203408 -0.70299417 54 11
-1.08843 0.75835973 -0.6859259 55 9
-1.5737385 0.79616654 -0.81203175 58 10
-1.4641222 1.0248687 -1.0591314 7 8
-0.73590755 0.37001747 -0.533871 85 7
-0.62768853 0.4404842 -0.55738157 74 6
-0.55348289 0.27657241 -0.49428487 62 5
-0.22562833 0.15762779 -0.22976033 90 4
-0.22563204 0.11358556 -0.23106785 69 3
-0.2475415 0.17476785 -0.31674147 7 2
-0.30561084 0.15097095 -0.40171409 4 1
-0.26442167 0.18811548 -0.40756389 7 0
-1.568645 0.80242342 0.46083066 59 31
-1.5101372 1.0464554 0.4171032 56 30
-1.5754545 0.80760121 0.33483198 63 29
-1.5090468 1.04494 0.28164542 65 28
-1.5784028 0.81081897 0.2123616 63 27
-1.5222771 1.0541397 0.17365023 67 26
-1.5836352 0.81418914 0.12146445 66 25
-1.5151399 1.0491923 0.084316 66 24
-1.5798761 0.81330156 0.040444806 63 23
-1.5186241 1.0520036 0 65 22
-1.5819577 0.8147186 -0.040502835 67 21
-1.5125397 1.0485604 -0.08419954 63 20
-1.5786663 0.81303608 -0.12050975 63 19
-1.5180646 1.0531781 -0.16273677 65 18
-1.5787852 0.81345236 -0.19930032 62 17
-1.5216651 1.0564625 -0.25252795 61 16
-1.5725776 0.80959129 -0.30229262 58 15
-1.4171619 0.98697609 -0.48423582 2 13
-1.5739448 0.80961889 -0.39738521 55 14
-1.3809654 0.96381062 -0.57041961 7 12
-1.5804632 0.80887759 -0.70393151 54 11
-1.0785565 0.75706714 -0.68123585 51 9
-1.5748435 0.80398095 -0.81415743 59 10
nan nan nan 0 8
-0.73269695 0.37178162 -0.53246975 89 7
-0.62444973 0.44162795 -0.55586696 70 6
-0.55075771 0.27774805 -0.49266955 55 5
-0.22358173 0.15739891 -0.22803281 90 4
-0.22367623 0.113654 -0.22924842 62 3
-0.24562249 0.17468235 -0.3148334 7 2
-0.31186655 0.15540472 -0.41165751 7 1
-0.25788423 0.18481088 -0.39737478 4 0
-1.5699894 0.81037718 0.46211973 58 31
-1.5102819 1.0547774 0.4182305 61 30
-1.5681199 0.81112069 0.33388481 65 29
-1.5092542 1.0532959 0.2824181 65 28
-1.5776253 0.81773758 0.21266456 63 27
-1.5163642 1.0582855 0.17341235 66 26
-1.5828557 0.82113338 0.12163796 66 25
-1.5133303 1.0561702 0.08443246 65 24
-1.5748079 0.81766284 0.040386781 66 23
-1.5127099 1.056129 0 66 22
-1.5811803 0.8216607 -0.04056086 67 21
-1.5150074 1.0581309 -0.084548913 63 20
-1.5778904 0.81996369 -0.1206824 65 19
-1.5162332 1.0601642 -0.16296032 65 18
-1.5759361 0.8189584 -0.19930032 65 17
-1.5279186 1.0691431 -0.25424817 59 16
-1.569742 0.8150757 -0.30229262 58 15
-1.4097767 0.98915076 -0.48286018 2 13
-1.570967 0.8153823 -0.39738521 56 14
-1.3814543 0.97134846 -0.57205403 4 12
-1.5755692 0.81332934 -0.70299417 54 11
-1.079375 0.76357198 -0.68358088 47 9
-1.5780673 0.81257206 -0.8173461 59 10
nan nan nan 0 8
-0.72585613 0.37152582 -0.52826607 88 7
-0.62936836 0.44844306 -0.56192541 63 6
-0.54978484 0.27966887 -0.49266955 55 5
-0.22449458 0.15923829 -0.22976033 90 4
-0.22788414 0.11672353 -0.23470671 62 3
-0.2397646 0.17176811 -0.30720106 7 2
-0.31540191 0.15849543 -0.41762355 7 1
-0.25840381 0.18656848 -0.3994126 4 0
-1.5692952 0.81696481 0.46276423 56 31
-1.508581 1.0614468 0.41879416 59 30
-1.569635 0.81885415 0.33483198 65 29
-1.5055684 1.0585577 0.2824181 63 28
-1.5769619 0.82438618 0.21296749 63 27
-1.5189494 1.0676085 0.17412598 66 26
-1.5777686 0.82550043 0.12146445 66 25
-1.5137168 1.0643239 0.084665373 65 24
-1.5763755 0.82546765 0.040502835 66 23
-1.5171865 1.0671659 0 65 22
-1.5762315 0.82574278 -0.040502835 67 21
-1.5133451 1.0648521 -0.084665373 63 20
-1.572808 0.82431191 -0.12050975 65 19
-1.5167776 1.0680585 -0.1634074 63 18
-1.5730677 0.82445443 -0.19930032 65 17
-1.5182973 1.0699176 -0.25321606 61 16
-1.5668874 0.8205502 -0.30229262 58 15
-1.4082763 0.99545568 -0.48354799 2 13
-1.5725758 0.82284075 -0.39850146 56 14
-1.3819076 0.97890127 -0.57368851 4 12
-1.5728633 0.81854969 -0.70299417 54 11
-1.073245 0.76457834 -0.68123585 44 9
-1.5732116 0.81703562 -0.81628317 61 10
nan nan nan 0 8
-0.73008353 0.37688774 -0.53246975 87 7
-0.63110214 0.45285738 -0.5649547 67 6
-0.54885441 0.28149045 -0.49266955 55 5
-0.22250517 0.15891714 -0.22803281 90 4
-0.22902863 0.11824682 -0.23652615 63 3
-0.23659202 0.17064695 -0.3033849 7 2
-0.32030529 0.16222921 -0.42557827 7 1
-0.25196671 0.18311217 -0.38922352 4 0
-1.5665774 0.8221643 0.46276423 58 31
-1.5070386 1.0678542 0.41935784 59 30
-1.566911 0.82405472 0.33483198 65 29
-1.5040641 1.0649744 0.28280443 65 28
-1.5720227 0.82845712 0.21266456 65 27
-1.5131843 1.0714636 0.17388812 66 26
-1.5750225 0.83072799 0.12146445 66 25
-1.5122154 1.0707833 0.084781833 65 24
-1.5758414 0.83185434 0.04056086 66 23
-1.5116011 1.0707437 0 65 22
-1.5755509 0.83240432 -0.04056086 67 21
-1.5098057 1.0698647 -0.084665373 63 20
-1.5744795 0.83184701 -0.12085505 65 19
-1.5150692 1.0747895 -0.16363093 65 18
-1.5725229 0.8308236 -0.19958463 63 17
-1.5206058 1.0795184 -0.25424817 61 16
-1.5663371 0.82688832 -0.30272198 58 15
-1.4108361 1.0043094 -0.4856115 2 13
-1.569694 0.82832509 -0.39850146 56 14
-1.3767321 0.98210371 -0.57287127 4 12
-1.5782113 0.82833141 -0.70674348 52 11
-1.0813186 0.77606386 -0.68827099 37 9
-1.574506 0.8243413 -0.81840891 58 10
nan nan nan 0 8
-0.72515023 0.37740752 -0.52966726 83 7
-0.62630141 0.45271659 -0.56192541 69 6
-0.54786843 0.28340462 -0.49266955 52 5
-0.22340551 0.16076268 -0.22976033 90 4
-0.22402415 0.1167248 -0.23106785 63 3
-0.22950758 0.16666086 -0.29384449 7 2
-0.31702641 0.16199246 -0.42160091 7 1
-0.24552411 0.1796581 -0.37903443 4 0
-1.5658345 0.82875466 0.46340877 58 31
-1.5052825 1.0745256 0.41992149 58 30
-1.5683653 0.83181357 0.33577919 63 29
-1.5043554 1.0730916 0.28357711 63 28
-1.5713139 0.83510107 0.21296749 63 27
-1.5175321 1.0825297 0.17483962 66 26
-1.5743163 0.83738887 0.12163796 66 25
-1.5084684 1.0760553 0.084781833 65 24
-1.5749894 0.83879626 0.040618889 66 23
-1.5098875 1.0774682 0 65 22
-1.5726357 0.83789897 -0.04056086 67 21
-1.5058743 1.0753914 -0.084665373 62 20
-1.573769 0.83850759 -0.12102769 65 19
-1.5133325 1.0815219 -0.16385446 63 18
-1.5738542 0.83891225 -0.20015325 65 17
-1.5168284 1.0848198 -0.25424817 59 16
-1.5676466 0.8349331 -0.30358076 56 15
-1.4071457 1.0094736 -0.4856115 3 13
-1.5689459 0.83494109 -0.39905956 58 14
-1.378873 0.99128836 -0.57532293 4 12
-1.5710653 0.83194703 -0.70486885 54 11
nan nan nan 0 9
-1.5754788 0.83221447 -0.82053465 58 10
nan nan nan 0 8
-0.72376209 0.38006282 -0.52966726 77 7
-0.62784553 0.45736182 -0.5649547 70 6
-0.54343462 0.28366107 -0.48943892 52 5
-0.22136229 0.16050525 -0.22803281 90 4
-0.22359484 0.11754511 -0.23106785 63 3
-0.22892442 0.16746098 -0.29384449 7 2
-0.3353703 0.17269975 -0.44944251 8 1
-0.23792082 0.17533232 -0.36680749 4 0
-1.5649188 0.83562285 0.46405327 56 31
-1.501334 1.0800356 0.41992149 61 30
-1.5653061 0.83755624 0.33577919 63 29
-1.5024163 1.0800424 0.28396347 63 28
-1.57262 0.84319377 0.21357337 63 27
-1.5135543 1.0880843 0.17483962 66 26
-1.5712367 0.84315336 0.12163796 66 25
-1.5085663 1.0844972 0.085014746 62 24
-1.5720519 0.84428889 0.040618889 66 23
-1.5120121 1.0873811 0 65 22
-1.5695541 0.84365731 -0.04056086 70 21
-1.5081878 1.0850236 -0.085014746 63 20
-1.5706849 0.84427011 -0.12102769 65 19
-1.511377 1.0885189 -0.16407801 63 18
-1.5731055 0.84557384 -0.20043755 63 17
-1.5188632 1.0947225 -0.25528032 59 16
-1.5647228 0.84040016 -0.30358076 55 15
-1.4036134 1.0143794 -0.4856115 2 13
-1.5680238 0.84183562 -0.3996177 56 14
-1.3696692 0.99193019 -0.57287127 4 12
-1.5701976 0.83851475 -0.70580614 54 11
nan nan nan 0 9
-1.5725644 0.83770883 -0.82053465 58 10
nan nan nan 0 8
-0.71876514 0.38066146 -0.52686483 69 7
-0.62304586 0.4571867 -0.56192541 76 6
-0.53905588 0.28379476 -0.48620832 51 5
-0.22080068 0.16127698 -0.22803281 90 4
-0.22318316 0.11832488 -0.23106785 63 3
-0.22572801 0.16635603 -0.29002833 7 2
-0.33611587 0.17455596 -0.45143119 8 1
-0.22345757 0.16566443 -0.34235367 4 0
-1.5641208 0.84222251 0.46469781 56 31
-1.4995254 1.0867013 0.42048514 56 30
-1.5623729 0.84301507 0.33577919 63 29
-1.498637 1.0852802 0.28396347 63 28
-1.5652978 0.84632367 0.21296749 65 27
-1.5097469 1.0933611 0.17483962 66 26
-1.5682839 0.84863287 0.12163796 66 25
-1.5067923 1.0912237 0.085131206 58 24
-1.5734938 0.85214573 0.040734943 65 23
-1.5082072 1.0926524 0 65 22
-1.5687985 0.85031897 -0.040618889 67 21
-1.5064114 1.0917494 -0.085131206 62 20
-1.5699227 0.85093319 -0.12120035 65 19
-1.5115956 1.0967172 -0.16452509 63 18
-1.5723298 0.8522405 -0.20072186 63 17
-1.5170346 1.101475 -0.25562435 58 16
-1.5661139 0.84819663 -0.30443954 55 15
-1.4097704 1.0263585 -0.48905066 2 13
-1.5693649 0.84961826 -0.40073395 55 14
-1.3738257 1.0022855 -0.57614011 3 12
-1.5693033 0.84508657 -0.70674348 54 11
nan nan nan 0 9
-1.5676357 0.84212524 -0.81947184 59 10
-1.0427849 0.76801479 -0.76169527 3 8
-0.71743196 0.38316807 -0.52686483 69 7
-0.62304175 0.46054628 -0.56344008 63 6
-0.53975159 0.28656137 -0.48782364 51 5
-0.22312625 0.16421729 -0.23148786 90 4
-0.21820341 0.11673373 -0.22560956 69 3
-0.22128448 0.16421512 -0.28430408 7 2
-0.33280841 0.17434554 -0.44745383 8 1
-0.22402902 0.16732223 -0.34439147 4 0
-1.5632957 0.84882683 0.46534228 56 31
-1.4996539 1.0948061 0.42161244 56 30
-1.5658944 0.85197425 0.33719999 62 29
-1.5008204 1.0948788 0.28512248 62 28
-1.5688757 0.85533708 0.21387632 63 27
-1.516158 1.1057054 0.176029 66 26
-1.565312 0.85410208 0.12163796 66 25
-1.5049899 1.0979508 0.085247666 62 24
-1.5683146 0.85643804 0.040676914 63 23
-1.5064015 1.0993865 0 65 22
-1.5659701 0.85551655 -0.040618889 67 21
-1.5025913 1.0970012 -0.085131206 62 20
-1.5669429 0.85640812 -0.12120035 63 19
-1.5099593 1.1031951 -0.16474862 62 18
-1.5693452 0.85772371 -0.20072186 63 17
-1.5113766 1.1050358 -0.25528032 56 16
-1.5631437 0.8536582 -0.30443954 55 15
-1.4061791 1.0312732 -0.48905066 3 13
-1.5665389 0.85481787 -0.40073395 55 14
-1.362711 1.0014681 -0.57287127 3 12
-1.5685306 0.85138857 -0.70768076 52 11
nan nan nan 0 9
-1.5666776 0.84866691 -0.82053465 58 10
-1.0144907 0.75230241 -0.74229723 3 8
-0.70878541 0.38176805 -0.52125984 62 7
-0.62469423 0.46499547 -0.56646937 63 6
-0.53373849 0.2856729 -0.48297769 50 5
-0.22113913 0.16386625 -0.22976033 90 4
-0.22389175 0.12063617 -0.23288728 63 3
-0.22202262 0.16592823 -0.28621218 7 2
-0.33222845 0.17544821 -0.44745383 8 1
-0.22462109 0.16894683 -0.34642929 4 0
-1.5604722 0.85400623 0.46534228 58 31
-1.4979758 1.1012181 0.42217609 56 30
-1.5609064 0.85598493 0.33672637 63 29
-1.4971814 1.0998498 0.28512248 62 28
-1.568207 0.86172694 0.21417925 63 27
-1.5082812 1.1080394 0.17555325 65 26
-1.5668451 0.86168575 0.121985 66 25
-1.5053623 1.1058973 0.085480578 63 24
-1.5676571 0.8628363 0.040734943 65 23
-1.5047604 1.1058587 0 63 22
-1.5651649 0.86218047 -0.040676914 67 21
-1.5029659 1.1049411 -0.085364126 61 20
-1.5684665 0.86400032 -0.12154565 65 19
-1.5121101 1.1128939 -0.16541924 62 18
-1.5664922 0.86292315 -0.20072186 63 17
-1.5134863 1.1147171 -0.25631246 55 16
-1.5646229 0.86120635 -0.30529833 54 15
-1.4085463 1.0402216 -0.49111417 2 13
-1.5678189 0.86262435 -0.40185019 56 14
-1.3688688 1.0130215 -0.57695735 3 12
-1.5655491 0.85685861 -0.70768076 54 11
-1.3205329 0.98382157 -0.85594171 3 9
-1.5658426 0.85493904 -0.82159758 58 10
-1.0169935 0.75969028 -0.7461769 3 8
-0.70751554 0.38411638 -0.52125984 72 7
-0.61989242 0.46477652 -0.56344008 69 6
-0.53947192 0.29112679 -0.48943892 50 5
-0.21912827 0.16354206 -0.22803281 90 4
-0.2219529 0.12061679 -0.23106785 66 3
-0.21888112 0.16473287 -0.28239602 4 2
-0.33161396 0.17660683 -0.44745383 8 1
-0.21257921 0.16086373 -0.32605109 4 0
-1.5574818 0.85944808 0.46534228 56 31
-1.4999896 1.1107959 0.42386705 56 30
-1.5600588 0.86261308 0.33719999 63 29
-1.4973005 1.1080126 0.2858952 62 28
-1.5673618 0.86839551 0.2144822 63 27
-1.5104004 1.1177459 0.17626688 65 26
-1.5638276 0.86714983 0.121985 66 25
-1.5014929 1.1111453 0.085480578 63 24
-1.5690098 0.87072271 0.040850997 66 23
-1.5049062 1.1140842 0 61 22
-1.5643326 0.86884934 -0.040734943 67 21
-1.4990997 1.1101807 -0.085364126 59 20
-1.5676231 0.87067795 -0.12171829 63 19
-1.5062177 1.1166801 -0.1651957 62 18
-1.5634706 0.86838597 -0.20072186 63 17
-1.509586 1.1199933 -0.25631246 56 16
-1.5572969 0.86427838 -0.30443954 54 15
-1.3991269 1.0408208 -0.48905066 2 13
-1.5690633 0.8704502 -0.40296647 55 14
-1.3634319 1.016379 -0.57614011 3 12
-1.5645795 0.86343509 -0.70861816 54 11
-1.3188547 0.98975301 -0.85711432 2 9
-1.5648323 0.86148804 -0.82266039 59 10
-0.95458561 0.71809632 -0.70091486 4 8
-0.70798987 0.38757163 -0.52266109 87 7
-0.61668307 0.46573359 -0.56192541 62 6
-0.54013276 0.29391214 -0.49105424 47 5
-0.21998973 0.16540608 -0.22976033 90 4
-0.21698982 0.11897444 -0.22560956 74 3
-0.22085883 0.1674742 -0.28621218 7 2
-0.32697293 0.17564784 -0.44148776 8 1
-0.21430035 0.16338602 -0.33012676 4 0
-1.5543213 0.86515081 0.46534228 58 31
-1.4998088 1.119204 0.42499435 56 30
-1.5568869 0.86832517 0.33719999 63 29
-1.4971859 1.1164505 0.28666788 62 28
-1.5641686 0.87413436 0.2144822 63 27
-1.5062935 1.1232742 0.17626688 63 26
-1.5628172 0.87409014 0.12215853 65 25
-1.5014105 1.1196314 0.085713498 62 24
-1.5658079 0.87646759 0.040850997 66 23
-1.5008126 1.1195925 0 61 22
-1.5589553 0.87335837 -0.040676914 69 21
-1.5010196 1.1201555 -0.085713498 59 20
-1.5644213 0.8764177 -0.12171829 65 19
-1.5080938 1.1266711 -0.16586632 62 18
-1.5646144 0.87653244 -0.20129047 63 17
-1.5074525 1.1270039 -0.2566565 52 16
-1.5562696 0.87118042 -0.30486897 54 15
-1.402988 1.0517184 -0.49180201 2 13
-1.5637342 0.87500829 -0.40240833 56 14
-1.3634717 1.0242125 -0.57777458 4 12
-1.5614043 0.86916381 -0.70861816 54 11
-1.3240141 1.0012518 -0.86297685 3 9
-1.5676041 0.87050462 -0.825849 58 10
-0.95194721 0.72159016 -0.70091486 4 8
-0.7083804 0.39115849 -0.52406234 76 7
-0.61655074 0.4692004 -0.56344008 65 6
-0.53905195 0.29588985 -0.49105424 45 5
-0.22224131 0.16842198 -0.23321539 90 4
-0.21353106 0.11814695 -0.22197071 70 3
-0.22024351 0.16828255 -0.28621218 7 2
-0.32231215 0.17471486 -0.43552172 7 1
-0.19661948 0.15074857 -0.29955944 3 0
-1.5555081 0.87292939 0.46663132 56 31
-1.4900572 1.1200352 0.4233034 58 30
-1.558129 0.8761549 0.33814716 62 29
-1.4952528 1.1231558 0.28705424 62 28
-1.5632713 0.88080412 0.21478513 63 27
-1.5105135 1.1342498 0.17721839 63 26
-1.5619307 0.8807621 0.12233204 65 25
-1.5054729 1.1308744 0.086179331 59 24
-1.5649172 0.88315332 0.040909022 66 23
-1.5008891 1.127833 0 63 22
-1.5582289 0.87974912 -0.040734943 67 21
-1.4971004 1.1253883 -0.085713498 59 20
-1.5678722 0.88554388 -0.12223624 67 19
-1.5043492 1.1316658 -0.16586632 61 18
-1.5615451 0.88198864 -0.20129047 63 17
-1.5056833 1.1334881 -0.25700054 52 16
-1.557512 0.87902248 -0.30572775 54 15
-1.397392 1.0551586 -0.49111417 3 13
-1.5565755 0.87780088 -0.40129209 58 14
-1.3542421 1.0246812 -0.57532293 3 12
-1.5585134 0.87433684 -0.70861816 54 11
-1.3206866 1.0056369 -0.86297685 3 9
-1.5645559 0.87597126 -0.825849 58 10
-0.9274739 0.70782244 -0.68410325 4 8
-0.70882314 0.39462975 -0.52546358 83 7
-0.61341661 0.47002745 -0.56192541 62 6
-0.53806776 0.29767579 -0.49105424 50 5
-0.21882963 0.16693784 -0.22976033 90 4
-0.22067767 0.12293442 -0.23106785 67 3
-0.21968426 0.16901197 -0.28621218 7 2
-0.32306692 0.17649722 -0.4375104 7 1
-0.19384705 0.14960265 -0.2954838 3 0
-1.5568132 0.88045514 0.46792036 56 31
-1.4940962 1.130859 0.425558 56 30
-1.5573523 0.88252419 0.33862075 62 29
-1.4934884 1.1296003 0.28744057 61 28
-1.5603418 0.88598329 0.21478513 63 27
-1.5045621 1.1380118 0.17698051 63 26
-1.5611714 0.88716602 0.12250557 65 25
-1.4997246 1.1343517 0.086062878 62 24
-1.5619799 0.88833797 0.040909022 65 23
-1.5051082 1.1388471 0 62 22
-1.5573221 0.88641638 -0.040792968 67 21
-1.4953498 1.1318561 -0.085829958 61 20
-1.5627577 0.88950747 -0.12206359 63 19
-1.5023729 1.1384163 -0.16608986 61 18
-1.5629324 0.88961351 -0.20185909 62 17
-1.5036891 1.1402355 -0.25734457 51 16
-1.5545884 0.88418257 -0.30572775 54 15
-1.3996196 1.0641582 -0.49317768 2 13
-1.5619824 0.88803488 -0.40352461 55 14
-1.3545914 1.0320352 -0.57695735 3 12
-1.55949 0.88204783 -0.71049279 54 11
-1.3259186 1.0169722 -0.8688395 3 9
-1.5576977 0.87893653 -0.82372332 55 10
-0.90806222 0.69798064 -0.67117125 4 8
-0.70027435 0.39295048 -0.5198586 69 7
-0.61648381 0.47582707 -0.56646937 62 6
-0.53368384 0.29770911 -0.48782364 50 5
-0.21540143 0.16547059 -0.22630529 90 4
-0.21874215 0.12288272 -0.22924842 73 3
-0.21655975 0.16777287 -0.28239602 7 2
-0.31844863 0.17546637 -0.4315443 7 1
-0.18992588 0.14757083 -0.28937036 4 0
-1.5537304 0.88588411 0.46792036 56 31
-1.4920748 1.1375467 0.42612165 56 30
-1.5542622 0.88795495 0.33862075 62 29
-1.4934621 1.1378051 0.28821328 61 28
-1.5572397 0.89142454 0.21478513 63 27
-1.5005804 1.1432569 0.17698051 62 26
-1.5602307 0.89384693 0.12267908 65 25
-1.4997251 1.1426113 0.086295791 61 24
-1.5587136 0.89405692 0.040909022 63 23
-1.5011238 1.144094 0 62 22
-1.5585575 0.89432895 -0.040909022 66 21
-1.495159 1.1403629 -0.086062878 61 20
-1.5618082 0.89619547 -0.12223624 63 19
-1.5003675 1.1451666 -0.16631341 62 18
-1.5618169 0.89656961 -0.2021434 62 17
-1.5016656 1.1469828 -0.25768861 48 16
-1.5577514 0.89354187 -0.3070159 52 15
-1.3938037 1.0678167 -0.49248984 2 13
-1.560989 0.89469069 -0.40408272 56 14
-1.3526719 1.0384343 -0.57777458 3 12
-1.560276 0.89004868 -0.71236742 54 11
-1.3188699 1.0188894 -0.86649448 2 9
-1.5603707 0.88798875 -0.82691187 55 10
-0.89198792 0.69079453 -0.66082561 4 8
-0.70063478 0.39652801 -0.52125984 54 7
-0.60847145 0.47317868 -0.5604108 66 6
-0.53258914 0.29966313 -0.48782364 47 5
-0.21621148 0.16737922 -0.22803281 89 4
-0.21528621 0.12203008 -0.22560956 73 3
-0.21470967 0.16752088 -0.28048792 4 2
-0.32445717 0.1802526 -0.44148776 7 1
-0.18599592 0.14554599 -0.28325692 4 0
-1.5546644 0.89397514 0.4692094 58 31
-1.4878955 1.1430078 0.42612165 56 30
-1.5552546 0.89609081 0.33956796 61 29
-1.4951543 1.1477903 0.2893723 59 28
-1.5604146 0.90083945 0.21569397 63 27
-1.4983524 1.1502669 0.17721839 62 26
-1.5591053 0.90080416 0.12285261 65 25
-1.4975063 1.1496234 0.086412251 61 24
-1.5599138 0.90198869 0.041025076 62 23
-1.5008824 1.1526382 0 63 22
-1.5552691 0.90003532 -0.040909022 66 21
-1.4931477 1.1470985 -0.086179331 59 20
-1.558513 0.90191376 -0.12223624 63 19
-1.4981321 1.1521784 -0.16653694 59 18
-1.5586779 0.90201586 -0.2021434 62 17
-1.4974515 1.1524791 -0.25768861 48 16
-1.5546229 0.898974 -0.3070159 52 15
-1.4014734 1.0815003 -0.49661684 3 13
-1.5555879 0.89918935 -0.40352461 55 14
-1.350906 1.0445975 -0.57859182 3 12
-1.5551488 0.89433712 -0.71143007 54 11
-1.3203478 1.0277929 -0.87001199 3 9
-1.5592259 0.8945533 -0.82797474 58 10
nan nan nan 0 8
-0.69744456 0.39795142 -0.5198586 50 7
-0.61150134 0.4789947 -0.5649547 69 6
-0.53320396 0.30245388 -0.48943892 47 5
-0.21845403 0.17038332 -0.23148786 90 4
-0.21935636 0.12527685 -0.23106785 78 3
-0.22039126 0.17336422 -0.29002833 7 2
-0.33976457 0.19012825 -0.46535197 7 1
-0.17873015 0.14073074 -0.27102998 4 0
-1.5494429 0.89818805 0.4685649 56 31
-1.48967 1.1526729 0.42781261 56 30
-1.5542415 0.90274423 0.34004155 61 29
-1.4891865 1.1514893 0.28898597 61 28
-1.5572604 0.90628076 0.21569397 62 27
-1.4984643 1.1582778 0.17769414 63 26
-1.5559514 0.90624094 0.12285261 65 25
-1.4934841 1.1548436 0.086412251 62 24
-1.5653996 0.91245109 0.041257184 65 23
-1.4968498 1.1578702 0 61 22
-1.5565975 0.9077 -0.041025076 66 21
-1.4950542 1.1568956 -0.086528711 61 20
-1.5596672 0.90985608 -0.12258155 63 19
-1.4962701 1.1586668 -0.16676049 61 18
-1.559814 0.90994847 -0.20271201 61 17
-1.4975326 1.1604764 -0.25837672 47 16
-1.5557344 0.90687001 -0.30787471 52 15
-1.3957942 1.0849085 -0.49592903 2 13
-1.5568124 0.90679008 -0.40464085 55 14
-1.3546996 1.0551237 -0.58186066 4 12
-1.5581955 0.90296686 -0.7142421 54 11
-1.3186681 1.0335302 -0.87118453 3 9
-1.5600146 0.90225059 -0.83010048 55 10
-0.84527135 0.66372097 -0.62849557 7 8
-0.70324415 0.40448797 -0.52546358 43 7
-0.60835189 0.47978306 -0.56344008 70 6
-0.52721494 0.30140337 -0.484593 45 5
-0.21788782 0.1711068 -0.23148786 90 4
-0.21893971 0.12600358 -0.23106785 73 3
-0.21730307 0.17206277 -0.28621218 7 2
-0.33250326 0.1875885 -0.45540854 8 1
-0.17489325 0.13857968 -0.26491651 3 0
-1.5527182 0.90696746 0.47049844 55 31
-1.4858395 1.1576065 0.42781261 56 30
-1.549119 0.90665627 0.33956796 62 29
-1.4873068 1.1579409 0.2893723 61 28
-1.5521041 0.91018748 0.21539101 65 27
-1.496374 1.1650326 0.17793202 62 26
-1.5550902 0.91265506 0.12302613 65 25
-1.4935839 1.1628629 0.086645171 62 24
-1.5602087 0.91637439 0.041199159 65 23
-1.4949725 1.164366 0 61 22
-1.5534194 0.91312796 -0.041025076 66 21
-1.4892415 1.1603098 -0.086412251 59 20
-1.5566415 0.91502315 -0.12258155 63 19
-1.4961396 1.1669501 -0.16720757 61 18
-1.5567878 0.91511601 -0.20271201 62 17
-1.4954231 1.1672227 -0.25872076 47 16
-1.5548438 0.91326845 -0.3083041 52 15
-1.3959705 1.0924985 -0.49730471 3 13
-1.5536375 0.91221893 -0.40464085 55 14
-1.3474789 1.0566894 -0.58022624 4 12
-1.5530311 0.90723425 -0.71330476 52 11
-1.3150524 1.0381269 -0.87118453 3 9
-1.5570141 0.90741885 -0.83010048 56 10
nan nan nan 0 8
-0.70548856 0.40888193 -0.52826607 37 7
-0.61133337 0.48563036 -0.56798398 63 6
-0.52781737 0.30418664 -0.48620832 44 5
-0.22010198 0.17413594 -0.23494291 89 4
-0.21551166 0.12508266 -0.22742899 73 3
-0.21920612 0.17486036 -0.29002833 7 2
-0.33846253 0.19243655 -0.46535197 10 1
-0.16432954 0.13092515 -0.24657615 3 0
-1.5495427 0.91238189 0.47049844 56 31
-1.4875326 1.1673037 0.42950359 55 30
-1.5544086 0.91703576 0.34146234 61 29
-1.4871395 1.1661782 0.29014498 61 28
-1.5531936 0.91811961 0.21599689 63 27
-1.5020806 1.1779387 0.1791214 62 26
-1.5561913 0.92061162 0.12337317 63 25
-1.4895155 1.1680694 0.086645171 62 24
-1.5589916 0.92335737 0.041257184 65 23
-1.4948294 1.1726681 0 59 22
-1.5480708 0.91727376 -0.040967051 66 21
-1.4889039 1.1688491 -0.086645171 59 20
-1.5598801 0.9242565 -0.12309949 63 19
-1.4959695 1.1752465 -0.16765465 62 18
-1.5598384 0.92460656 -0.20356494 61 17
-1.4913396 1.1724356 -0.25872076 45 16
-1.553607 0.92021328 -0.30873349 52 15
-1.3919569 1.0976076 -0.49730471 2 13
-1.5504439 0.91763657 -0.40464085 55 14
-1.3454485 1.0630883 -0.58104342 4 12
-1.5556912 0.91644073 -0.71611673 54 11
-1.3183259 1.0482174 -0.87587464 3 9
-1.5536778 0.91311944 -0.83010048 55 10
-0.81043613 0.645684 -0.60521799 8 8
-0.70577627 0.41250357 -0.52966726 33 7
-0.60335428 0.48287609 -0.56192541 62 6
-0.52008182 0.30231568 -0.47974709 44 5
-0.21525563 0.17152163 -0.22976033 89 4
-0.21803245 0.12756704 -0.23106785 70 3
-0.22234115 0.17869771 -0.29575258 7 2
-0.34303701 0.19664599 -0.47330669 10 1
-0.16049907 0.12875956 -0.24046269 3 0
-1.548267 0.91928548 0.47114298 56 31
-1.485153 1.1742607 0.43006721 56 30
-1.551037 0.92272675 0.34146234 61 29
-1.4828553 1.1716211 0.29014498 61 28
-1.549818 0.92380613 0.21599689 62 27
-1.4938514 1.1803458 0.17864564 62 26
-1.5528067 0.92630911 0.12337317 63 25
-1.4891397 1.1766218 0.086878091 61 24
-1.555759 0.92879367 0.041257184 62 23
-1.4905212 1.1781391 0 61 22
-1.548993 0.92549968 -0.041083105 65 21
-1.4867717 1.1755903 -0.086761624 59 20
-1.5564821 0.92996764 -0.12309949 63 19
-1.4955531 1.183817 -0.16810173 59 18
-1.5608692 0.93258792 -0.20413356 61 17
-1.485093 1.1763539 -0.25837672 44 16
-1.5503854 0.92563081 -0.30873349 54 15
-1.3956381 1.1084487 -0.50005603 2 13
-1.5512588 0.92580503 -0.4057571 55 14
-1.345423 1.0707257 -0.5826779 3 12
-1.5524827 0.92186552 -0.71611673 55 11
-1.3058689 1.0461277 -0.87001199 3 9
-1.554378 0.9208383 -0.83222622 56 10
-0.78485966 0.62970734 -0.5871132 8 8
-0.70254463 0.41391978 -0.52826607 32 7
-0.60166508 0.48497924 -0.56192541 63 6
-0.52232534 0.30604255 -0.48297769 47 5
-0.21885026 0.17570648 -0.23494291 89 4
-0.21758583 0.12832734 -0.23106785 74 3
-0.22915564 0.18568534 -0.30720106 7 2
-0.33839473 0.19560073 -0.46734065 10 1
-0.15782209 0.12746656 -0.23638706 3 0
-1.547123 0.92592192 0.47178748 56 31
-1.4829487 1.1809573 0.43063089 56 30
-1.5499138 0.92939478 0.34193593 61 29
-1.4845493 1.181411 0.29130402 59 28
-1.5487128 0.93048549 0.21629985 62 27
-1.4938204 1.1883965 0.1791214 62 26
-1.551703 0.93300611 0.12354669 63 25
-1.488928 1.1849275 0.087111004 61 24
-1.5546507 0.93550432 0.041315213 63 23
-1.4922618 1.1880128 0 59 22
-1.5437721 0.92934495 -0.041025076 66 21
-1.4846108 1.1823311 -0.086878091 59 20
-1.5553647 0.93667895 -0.12327214 63 19
-1.4935646 1.1903241 -0.16832526 59 18
-1.5512159 0.93419522 -0.20328063 62 17
-1.4850521 1.1843646 -0.25906479 43 16
-1.5492567 0.93230397 -0.30916288 52 15
-1.3880103 1.1103059 -0.49868038 3 13
-1.5544505 0.93470281 -0.40743145 58 14
-1.3379941 1.0724553 -0.58104342 4 12
-1.5514077 0.92819577 -0.71705401 54 11
-1.3041093 1.0518409 -0.87118453 3 9
-1.5511543 0.9262585 -0.83222622 52 10
-0.79439485 0.64174604 -0.5961656 10 8
-0.70466298 0.41847184 -0.5310685 32 7
-0.60005355 0.48697177 -0.56192541 67 6
-0.51801199 0.30584875 -0.47974709 47 5
-0.21547754 0.17413232 -0.23148786 90 4
-0.21567455 0.12819038 -0.22924842 74 3
-0.23474731 0.19160976 -0.31674147 7 2
-0.34169054 0.19897638 -0.47330669 10 1
-0.15406793 0.12519945 -0.2302736 3 0
-1.5419739 0.92980283 0.47114298 56 31
-1.4809227 1.1873943 0.43119451 55 30
-1.5510286 0.93706232 0.34288311 61 29
-1.4844748 1.1894207 0.29207671 62 28
-1.5434941 0.93433386 0.21599689 63 27
-1.4935439 1.1967204 0.17959715 62 26
-1.5507352 0.9394359 0.12372021 63 25
-1.4888844 1.1929859 0.087343924 62 24
-1.5515399 0.94065452 0.041315213 62 23
-1.490263 1.1945207 0 61 22
-1.5469345 0.938609 -0.041199159 65 21
-1.4826285 1.1888121 -0.086994544 59 20
-1.554384 0.94312233 -0.1234448 62 19
-1.4874606 1.1939695 -0.16810173 61 18
-1.5523601 0.9419052 -0.20384926 62 17
-1.4866953 1.1942 -0.26009694 41 16
-1.5482643 0.93871033 -0.30959228 52 15
-1.3824508 1.1133927 -0.49799252 3 13
-1.5490925 0.93886292 -0.40687335 58 14
-1.3399403 1.0813451 -0.58349514 4 12
-1.5501449 0.93479967 -0.71799135 54 11
-1.3004297 1.0563867 -0.87118453 3 9
-1.5519552 0.93372464 -0.83435196 58 10
-0.77889884 0.63368076 -0.58581996 8 8
-0.71217251 0.4260914 -0.53807467 39 7
-0.59527838 0.48653579 -0.55889618 67 6
-0.52023005 0.30959079 -0.48297769 45 5
-0.21069723 0.17142043 -0.22630529 90 4
-0.21374422 0.12807947 -0.22742899 73 3
-0.24150579 0.19865263 -0.32818994 7 2
-0.33574268 0.19714345 -0.46535197 8 1
-0.15252301 0.1248027 -0.22823578 3 0
-1.5449165 0.93893462 0.47307652 56 31
-1.4824482 1.1971537 0.4328855 56 30
-1.5456499 0.94119686 0.34240955 61 29
-1.4822341 1.1961486 0.29246306 62 28
-1.5423435 0.94100559 0.21629985 63 27
-1.4893574 1.2019266 0.17959715 62 26
-1.5559679 0.95003039 0.12441429 62 25
-1.4866526 1.1997464 0.087460376 61 24
-1.5503813 0.94736505 0.041373238 63 23
-1.4880276 1.2012879 0 61 22
-1.5457826 0.9453041 -0.041257184 65 21
-1.4842927 1.198694 -0.087343924 61 20
-1.5510823 0.94854248 -0.1234448 63 19
-1.4910219 1.205425 -0.16899589 62 18
-1.5490627 0.9473182 -0.20384926 62 17
-1.4844408 1.2009419 -0.26044098 41 16
-1.5449781 0.94410908 -0.30959228 52 15
-1.3860146 1.1242775 -0.50074387 3 13
-1.5499686 0.9467994 -0.40798959 61 14
-1.3361577 1.0860158 -0.58349514 4 12
-1.5448899 0.93900394 -0.71705401 52 11
-1.2967342 1.0609196 -0.87118453 3 9
-1.5467499 0.93796569 -0.83328909 54 10
-0.77833372 0.63775593 -0.5871132 10 8
-0.71245736 0.42963803 -0.53947592 41 7
-0.59510785 0.48987991 -0.5604108 63 6
-0.51422316 0.30848408 -0.47813177 47 5
-0.21148393 0.17331403 -0.22803281 90 4
-0.21625288 0.13056105 -0.23106785 73 3
-0.24327989 0.20157796 -0.33200613 8 2
-0.33243221 0.19679284 -0.46137458 7 1
-0.14546436 0.11970846 -0.21600886 3 0
-1.5455874 0.9471091 0.47436553 56 31
-1.4780505 1.2025793 0.4328855 56 30
-1.5442835 0.94813716 0.34288311 61 29
-1.4759256 1.2000128 0.29207671 61 28
-1.5409995 0.94794959 0.21660277 62 27
-1.4909409 1.2118336 0.18031079 63 26
-1.5482242 0.95311779 0.12406725 63 25
-1.4841812 1.2067648 0.087576836 62 24
-1.5468986 0.9530412 0.041373238 62 23
-1.4855524 1.2083136 0 62 22
-1.5467323 0.95331115 -0.041373238 66 21
-1.4837599 1.2072829 -0.087576836 59 20
-1.5518448 0.9568333 -0.1237901 65 19
-1.4868052 1.2106223 -0.16899589 58 18
-1.5476961 0.95429009 -0.20413356 62 17
-1.4840754 1.209249 -0.26112905 41 16
-1.543606 0.95105445 -0.31002167 54 15
-1.383744 1.1308733 -0.5014317 3 13
-1.5487311 0.95347887 -0.4085477 63 14
-1.341298 1.0984024 -0.58758122 4 12
-1.5356688 0.94076735 -0.7142421 32 11
-1.2947252 1.0668463 -0.87235713 4 9
-1.5490985 0.94716144 -0.8364777 56 10
-0.76786846 0.63363981 -0.58064717 10 8
-0.71619576 0.43545559 -0.54367965 41 7
-0.59034026 0.48940527 -0.55738157 67 6
-0.51478082 0.31125647 -0.47974709 45 5
-0.20949537 0.17288719 -0.22630529 90 4
-0.2113694 0.12869528 -0.22560956 74 3
-0.24872902 0.2076562 -0.34154654 8 2
-0.33174324 0.19795205 -0.46137458 7 1
-0.13954361 0.11550803 -0.20581977 3 0
-1.5383239 0.94969714 0.47307652 56 31
-1.4778191 1.2105653 0.4340128 56 30
-1.5453098 0.95582986 0.34383032 61 29
-1.4738474 1.2064673 0.29246306 61 28
-1.5378475 0.95305461 0.21660277 63 27
-1.4886256 1.2186091 0.18054867 63 26
-1.5471764 0.95955825 0.12424077 61 25
-1.4821018 1.213264 0.087693296 62 24
-1.5478126 0.96106613 0.041489292 63 23
-1.485402 1.2164055 0 61 22
-1.5412703 0.95738846 -0.041315213 65 21
-1.4795367 1.2124549 -0.087576836 59 20
-1.5465429 0.96066093 -0.12361745 62 19
-1.4883407 1.2205483 -0.1696665 61 18
-1.5485783 0.96230292 -0.20470218 62 17
-1.48367 1.2175683 -0.26181713 41 16
-1.5444649 0.95902956 -0.31088045 58 15
-1.3834956 1.1387563 -0.50280738 2 13
-1.5453933 0.95887917 -0.4085477 63 14
-1.3319933 1.0985606 -0.58512956 4 12
-1.4868183 0.91844231 -0.69268358 11 11
-1.2859019 1.0671217 -0.8688395 4 9
-1.5438547 0.95137876 -0.83541483 56 10
-0.76061535 0.63233453 -0.57676756 11 8
-0.72174692 0.4422566 -0.54928458 36 7
-0.59006482 0.49284574 -0.55889618 63 6
-0.51853853 0.31609705 -0.484593 45 5
-0.21161634 0.17599198 -0.22976033 90 4
-0.21678534 0.13298388 -0.23288728 72 3
-0.24922985 0.20957352 -0.3434546 8 2
-0.32318747 0.19454637 -0.44944251 8 1
-0.1336346 0.11129111 -0.19563067 3 0
-1.5389377 0.95787615 0.47436553 55 31
-1.4733722 1.2159736 0.4340128 56 30
-1.5417961 0.96148723 0.34383032 61 29
-1.4732229 1.2150087 0.29323575 61 28
-1.5385568 0.96130884 0.21720867 62 27
-1.4899036 1.2288141 0.1812623 62 26
-1.5394162 0.96258378 0.12389373 63 25
-1.4795698 1.2202793 0.087809756 61 24
-1.5444484 0.96646309 0.041489292 65 23
-1.4847869 1.225028 0 61 22
-1.5398711 0.96435481 -0.041373238 65 21
-1.4791437 1.2207955 -0.087809756 59 20
-1.5451272 0.96764386 -0.1237901 65 19
-1.4857751 1.2275833 -0.16989005 59 18
-1.5494236 0.97033364 -0.2052708 61 17
-1.4791974 1.222998 -0.26181713 40 16
-1.5452868 0.96702212 -0.31173924 59 15
-1.3739667 1.1389698 -0.50074387 3 13
-1.5460039 0.96711588 -0.40966395 63 14
-1.3299662 1.1047156 -0.5859468 4 12
-1.4836034 0.92362672 -0.69268358 11 11
-1.2836741 1.0732462 -0.87001199 4 9
-1.5424484 0.9579531 -0.8364777 55 10
-0.76495171 0.6404959 -0.58194041 11 8
-0.73255461 0.45234793 -0.55909324 34 7
-0.59289432 0.49875861 -0.56344008 70 6
-0.51254034 0.31493217 -0.47974709 44 5
-0.20825286 0.17438188 -0.22630529 89 4
-0.21338144 0.13197215 -0.22924842 77 3
-0.25335336 0.21470493 -0.35108691 8 2
-0.32901627 0.19954628 -0.4593859 7 1
-0.1332453 0.11175691 -0.19563067 3 0
-1.5396807 0.96580368 0.47565457 59 31
-1.4709902 1.2226684 0.43457645 58 30
-1.5405108 0.96816665 0.34430391 61 29
-1.4689729 1.2201438 0.29323575 62 28
-1.5372936 0.96799302 0.21751161 62 27
-1.4836926 1.2324151 0.18102442 62 26
-1.5444938 0.9732585 0.12458781 62 25
-1.4772204 1.2270342 0.087926209 62 24
-1.5410653 0.97184837 0.041489292 63 23
-1.4824227 1.2318033 0 61 22
-1.5407259 0.97238618 -0.041489292 63 21
-1.4729546 1.2243528 -0.087693296 59 20
-1.5417399 0.9730314 -0.1237901 63 19
-1.4833931 1.234357 -0.17011358 58 18
-1.5418226 0.97309059 -0.20470218 62 17
-1.4787215 1.2313273 -0.26250523 41 16
-1.5398171 0.97109938 -0.31130984 58 15
-1.3736687 1.1468443 -0.50211954 2 13
-1.5426188 0.97250664 -0.40966395 55 14
-1.327912 1.1108695 -0.58676398 4 12
-1.4666151 0.9201979 -0.6861223 11 11
-1.276546 1.0748714 -0.86766696 4 9
-1.5141376 0.94776034 -0.82266039 55 10
-0.75781453 0.63901234 -0.57806075 12 8
-0.74153906 0.46143168 -0.56750065 39 7
-0.59114975 0.50082517 -0.56344008 66 6
-0.51631916 0.31970939 -0.484593 45 5
-0.2090127 0.1762864 -0.22803281 90 4
-0.21585166 0.13449407 -0.23288728 74 3
-0.25870061 0.22088349 -0.36062735 8 2
-0.31792364 0.19446047 -0.44347647 7 1
-0.12631249 0.10650241 -0.18340375 3 0
-1.5383435 0.97246015 0.47629911 55 31
-1.4685789 1.2293612 0.4351401 58 30
-1.5412728 0.97615927 0.34525111 61 29
-1.4684901 1.2284381 0.29400843 61 28
-1.5339053 0.97335321 0.21751161 63 27
-1.4853195 1.2421244 0.18173805 62 26
-1.5431943 0.97997802 0.12476134 62 25
-1.4710146 1.2305788 0.087809756 62 24
-1.539775 0.97855955 0.041547321 63 23
-1.4800292 1.2385771 0 61 22
-1.5417151 0.98016644 -0.04160535 66 21
-1.478237 1.2375131 -0.088275589 61 20
-1.5425466 0.98107851 -0.1241354 62 19
-1.4831054 1.2424717 -0.17056066 61 18
-1.5447092 0.9824571 -0.20555511 61 17
-1.4784216 1.2394102 -0.26319331 40 16
-1.536418 0.97646844 -0.31130984 44 15
-1.3659818 1.1485341 -0.50074387 3 13
-1.5352675 0.97500956 -0.4085477 15 14
-1.3204166 1.1124487 -0.58512956 4 12
-1.4557116 0.92011487 -0.68237299 12 11
-1.2813857 1.0862495 -0.87352961 4 9
-1.5223136 0.96026665 -0.82903761 41 10
-0.75243598 0.63874447 -0.57547438 12 8
-0.74519646 0.4673005 -0.57170439 41 7
-0.58646762 0.50019133 -0.5604108 67 6
-0.5103848 0.31841359 -0.47974709 43 5
-0.20842698 0.17697854 -0.22803281 90 4
-0.21394134 0.13431531 -0.23106785 80 3
-0.26161507 0.22492956 -0.36635157 8 2
-0.32505706 0.2002143 -0.45540854 7 1
-0.12269719 0.1040504 -0.17729029 3 0
-1.5391889 0.98014545 0.47758815 56 31
-1.4663548 1.2357961 0.43570378 59 30
-1.5400984 0.98258251 0.3457247 59 29
-1.4662957 1.2348943 0.29439479 61 28
-1.5327619 0.97976828 0.21781455 63 27
-1.4809744 1.2473016 0.18173805 62 26
-1.5420388 0.98643106 0.12493485 62 25
-1.4707423 1.2386719 0.088042676 62 24
-1.5363498 0.98392838 0.041547321 63 23
-1.4797338 1.2467041 0 61 22
-1.5403905 0.9868874 -0.041663375 65 21
-1.4700936 1.2394418 -0.088042676 59 20
-1.5392847 0.98618829 -0.1241354 62 19
-1.4844632 1.2524647 -0.17123127 61 18
-1.5433633 0.98918062 -0.20583941 61 17
-1.479757 1.2493621 -0.26422545 41 16
-1.5267727 0.97784919 -0.31002167 11 15
-1.3674612 1.1579618 -0.50280738 2 13
-1.5030938 0.96201175 -0.40073395 15 14
-1.3237234 1.1231749 -0.58839846 4 12
-1.4249399 0.90804875 -0.66925043 11 11
-1.2775862 1.0907158 -0.87352961 4 9
nan nan nan 0 10
-0.75008982 0.64149803 -0.57547438 15 8
-0.7453143 0.47099933 -0.57310557 41 7
-0.58011758 0.49843389 -0.55586696 69 6
-0.51083446 0.32129014 -0.48136237 44 5
-0.2077769 0.17774126 -0.22803281 90 4
-0.21782717 0.13779603 -0.23652615 81 3
-0.26567793 0.2301109 -0.37398389 10 2
-0.31785211 0.19746342 -0.44546515 7 1
nan nan nan 0 0
-1.5376205 0.98708236 0.47823265 58 31
-1.4618156 1.2411623 0.43570378 59 30
-1.5364867 0.98822063 0.3457247 59 29
-1.4674045 1.2450607 0.2955538 63 28
-1.5312482 0.98672086 0.21811749 61 27
-1.4801846 1.2559459 0.1822138 62 26
-1.5405108 0.99342525 0.12510838 62 25
-1.4680948 1.245672 0.088159129 61 24
-1.5371093 0.99199009 0.041663375 63 23
-1.4770586 1.2537392 0 61 22
-1.5388644 0.9938798 -0.041721404 65 21
-1.46766 1.2461843 -0.088159129 59 20
-1.5356598 0.99182338 -0.1241354 63 19
-1.481758 1.2595119 -0.1714548 61 18
-1.539901 0.99456179 -0.20583941 61 17
-1.4789366 1.2579904 -0.26491353 40 16
-1.5067811 0.97251105 -0.30658653 3 15
-1.3688912 1.1674139 -0.50487089 3 13
-1.4872606 0.95960462 -0.39738521 3 14
-1.3180007 1.1262516 -0.58758122 4 12
-1.4256656 0.91551584 -0.67112511 10 11
-1.2668921 1.0896225 -0.8688395 4 9
nan nan nan 0 10
-0.7462284 0.64271218 -0.5741812 19 8
-0.74191588 0.47249153 -0.57170439 43 7
-0.58287334 0.50437522 -0.5604108 69 6
-0.50486016 0.32003033 -0.47651646 44 5
-0.21122748 0.18204428 -0.23321539 90 4
-0.21443142 0.13674705 -0.23288728 78 3
-0.26483276 0.23108312 -0.37398389 10 2
-0.31845191 0.19936442 -0.44745383 8 1
nan nan nan 0 0
-1.5341655 0.99244368 0.47823265 58 31
-1.4648714 1.2525977 0.43795839 61 30
-1.5371513 0.9962424 0.34667188 59 29
-1.4668013 1.2533888 0.29632649 62 28
-1.5319608 0.99475729 0.21872337 61 27
-1.4757915 1.2611049 0.1822138 62 26
-1.5412197 1.0015087 0.12545542 62 25
-1.4694278 1.2556624 0.088508509 61 24
-1.5378314 1.000069 0.041779429 63 23
-1.4764702 1.2621408 0 61 22
-1.533289 0.99788493 -0.041663375 63 21
-1.4670931 1.2545501 -0.088392049 59 20
-1.5342804 0.99853545 -0.12430805 65 19
-1.4792423 1.2662981 -0.17167835 62 18
-1.5405872 1.0026352 -0.20640802 59 17
-1.4745363 1.2631451 -0.26491353 37 16
-1.4909786 0.96972525 -0.30401018 7 15
-1.3611652 1.1690484 -0.50349522 3 13
-1.4654976 0.95286119 -0.39236206 4 14
-1.3194276 1.1354758 -0.59003288 4 12
-1.4146703 0.91546214 -0.6673758 7 11
-1.2630808 1.0940381 -0.8688395 3 9
-1.2191283 0.78758937 -0.6653558 14 10
-0.74720591 0.64812493 -0.57676756 26 8
-0.74200797 0.47619107 -0.57310557 44 7
-0.58110917 0.50640672 -0.5604108 66 6
-0.50374001 0.32179067 -0.47651646 41 5
-0.20653099 0.17918749 -0.22803281 90 4
-0.21540633 0.13840404 -0.23470671 77 3
-0.2628198 0.23093013 -0.37207583 10 2
-0.31775406 0.20047483 -0.44745383 8 1
nan nan nan 0 0
-1.5327173 0.99910915 0.47887719 59 31
-1.4623338 1.2592949 0.43852201 59 30
-1.5357215 1.0029415 0.3471455 59 29
-1.4624171 1.2585014 0.29632649 63 28
-1.5305575 1.0014547 0.21902631 62 27
-1.4734861 1.2676171 0.18245168 63 26
-1.5377144 1.0068824 0.12545542 62 25
-1.4669266 1.2624152 0.088624962 61 24
-1.532239 1.004064 0.041721404 65 23
-1.4739484 1.2689202 0 61 22
-1.5362477 1.0070664 -0.041837458 65 21
-1.466486 1.2629272 -0.088624962 59 20
-1.5370477 1.0079798 -0.124826 65 19
-1.475035 1.2711964 -0.17167835 58 18
-1.5433143 1.0120847 -0.20726095 58 17
-1.4778329 1.2745051 -0.26628971 36 16
-1.4649051 0.96010536 -0.29928684 3 15
-1.3552604 1.1722181 -0.50280738 3 13
-1.4521273 0.95105463 -0.38957146 4 14
-1.3172395 1.1416243 -0.59085011 4 12
-1.4019092 0.91383523 -0.66268915 8 11
-1.2577839 1.0967671 -0.86766696 3 9
-1.2011828 0.78199136 -0.6568529 23 10
-0.74022824 0.64636546 -0.57288796 32 8
-0.73859924 0.47765952 -0.57170439 41 7
-0.57793587 0.50701433 -0.55889618 69 6
-0.50267011 0.32345936 -0.47651646 40 5
-0.21133271 0.18467999 -0.23494291 90 4
-0.2163967 0.14003175 -0.23652615 78 3
-0.26805839 0.23720048 -0.38161623 10 2
-0.3170875 0.20152743 -0.44745383 8 1
nan nan nan 0 0
-1.5314167 1.0055094 0.47952172 59 31
-1.4581498 1.2641371 0.43852201 59 30
-1.5344399 1.009375 0.34761906 59 29
-1.4601008 1.2649634 0.29671285 62 28
-1.529302 1.0078875 0.21932925 62 27
-1.4709314 1.2743846 0.18268956 63 26
-1.5385345 1.0147169 0.12580246 61 25
-1.4665034 1.2705475 0.088857882 61 24
-1.5330763 1.0118876 0.041837458 63 23
-1.473507 1.2770799 0 61 22
-1.5368977 1.0151721 -0.041953512 65 21
-1.4622899 1.2677833 -0.088624962 59 20
-1.5336968 1.0130712 -0.124826 65 19
-1.474346 1.2796057 -0.17212543 62 18
-1.5378754 1.0158306 -0.20697664 61 17
-1.4715073 1.2780302 -0.26594567 33 16
-1.459656 0.96360409 -0.29885745 3 15
-1.3549869 1.1798671 -0.50418305 3 13
-1.4386194 0.94942111 -0.38678083 3 14
-1.3152246 1.1475416 -0.59166729 4 12
-1.3987107 0.91872329 -0.66268915 7 11
-1.2539477 1.1011509 -0.86766696 3 9
-1.1872158 0.77854609 -0.65047568 28 10
-0.7411738 0.65177906 -0.57547438 34 8
-0.7387495 0.48123071 -0.57310557 43 7
-0.57319021 0.50638503 -0.55586696 65 6
-0.4999319 0.32418177 -0.47490111 41 5
-0.20530653 0.18058914 -0.22803281 90 4
-0.21445926 0.13986707 -0.23470671 77 3
-0.26722875 0.23813474 -0.38161623 10 2
-0.32023054 0.2050509 -0.45341986 8 1
nan nan nan 0 0
-1.5319302 1.0135089 0.48081076 56 31
-1.457394 1.2724273 0.43964931 58 30
-1.5329552 1.0160785 0.34809268 58 29
-1.4593949 1.2733043 0.29748553 63 28
-1.5278437 1.0145897 0.21963219 62 27
-1.4702207 1.2827878 0.18316531 63 26
-1.537062 1.0214587 0.12597598 61 25
-1.4658191 1.2789468 0.089090794 61 24
-1.5293573 1.0174998 0.041837458 62 23
-1.4690402 1.2822156 0 61 22
-1.5312622 1.0191487 -0.041895483 65 21
-1.4632704 1.278069 -0.088974342 61 20
-1.5301511 1.0184186 -0.124826 65 19
-1.4698702 1.2847445 -0.17212543 61 18
-1.5362111 1.0228343 -0.20726095 61 17
-1.4707612 1.2864237 -0.26663375 30 16
-1.4561144 0.96894753 -0.29885745 4 15
-1.3542632 1.1880002 -0.50555873 3 13
-1.4332654 0.95309055 -0.38622272 7 14
-1.3110098 1.1523545 -0.59166729 4 12
-1.3837276 0.91618472 -0.65706521 4 11
-1.2517483 1.1069863 -0.8688395 3 9
-1.1862444 0.78413653 -0.65153849 26 10
-0.73718196 0.65306848 -0.5741812 41 8
-0.73698074 0.48393512 -0.57310557 44 7
-0.56984901 0.50715518 -0.55435234 65 6
-0.49553585 0.32393962 -0.47167051 40 5
-0.20866516 0.18497574 -0.23321539 90 4
-0.21394518 0.14065215 -0.23470671 78 3
-0.27355745 0.24559635 -0.39306471 10 2
-0.31563732 0.20379128 -0.44745383 8 1
nan nan nan 0 0
-1.5322282 1.0217918 0.4820998 55 31
-1.4545474 1.2793711 0.44021299 61 30
-1.5312635 1.023051 0.34856626 59 29
-1.4565716 1.2802776 0.29787189 62 28
-1.5261788 1.0215602 0.21993513 62 27
-1.4673766 1.2898129 0.18340319 62 26
-1.5353818 1.0284709 0.12614951 61 25
-1.4629956 1.2859614 0.089207254 61 24
-1.529952 1.0256099 0.041953512 62 23
-1.4662063 1.2892442 0 62 22
-1.5295939 1.0261439 -0.041953512 65 21
-1.4569267 1.2815175 -0.088857882 59 20
-1.5264081 1.0240201 -0.124826 65 19
-1.4688854 1.2934185 -0.17257251 62 18
-1.5367604 1.0309525 -0.20782958 59 17
-1.4716043 1.2967231 -0.26766589 26 16
-1.4568182 0.97676158 -0.29971623 4 15
-1.3519071 1.1943135 -0.50624651 3 13
-1.4297625 0.95833737 -0.38622272 10 14
-1.3052124 1.1553556 -0.59085011 4 12
-1.3843811 0.92357564 -0.65893984 8 11
-1.2493291 1.1130378 -0.87001199 3 9
-1.1797286 0.78577071 -0.64941275 28 10
-0.74126977 0.66135091 -0.57935399 43 8
-0.7387476 0.48877877 -0.57590812 40 7
-0.57693535 0.5171358 -0.56344008 72 6
-0.50239521 0.33087605 -0.47974709 39 5
-0.20400901 0.18205364 -0.22803281 90 4
-0.20913081 0.13860948 -0.22924842 80 3
-0.27741385 0.25096831 -0.40069702 10 2
-0.32003206 0.20815225 -0.45540854 7 1
nan nan nan 0 0
-1.5286521 1.0271341 0.4820998 58 31
-1.4537156 1.2876749 0.4413403 59 30
-1.5317595 1.031126 0.34951344 58 29
-1.455789 1.2886325 0.29864457 62 28
-1.5226036 1.0268813 0.21993513 62 27
-1.4668151 1.2979746 0.18387894 62 26
-1.5338515 1.0352163 0.12632301 61 25
-1.462234 1.2943752 0.089440174 61 24
-1.5284356 1.0323404 0.042011537 62 23
-1.4635669 1.296014 0 61 22
-1.5282555 1.032607 -0.042011537 63 21
-1.4599144 1.2932273 -0.089323714 59 20
-1.5248923 1.0307359 -0.12499864 63 19
-1.4645882 1.2982824 -0.17257251 62 18
-1.5331522 1.0363103 -0.20782958 59 17
-1.4672962 1.301596 -0.26766589 23 16
-1.4472716 0.97771358 -0.29842806 3 15
-1.34773 1.1990254 -0.50624651 3 13
-1.4225332 0.96035218 -0.38510644 10 14
-1.3046947 1.1630535 -0.59248453 4 12
-1.3755338 0.92429256 -0.65612793 10 11
-1.2374233 1.1097919 -0.86414939 3 9
-1.1769786 0.78988385 -0.64941275 28 10
-0.73430789 0.65950471 -0.57547438 41 8
-0.73013175 0.48678234 -0.57030308 43 7
-0.57080054 0.5150342 -0.55889618 69 6
-0.49970007 0.3314932 -0.47813177 39 5
-0.20340417 0.18272915 -0.22803281 90 4
-0.21298283 0.14210516 -0.23470671 81 3
-0.27420813 0.24969348 -0.39688087 8 2
-0.32061428 0.2100317 -0.45739722 7 1
nan nan nan 0 0
-1.5252377 1.0321976 0.4820998 58 31
-1.4567015 1.298981 0.4435949 59 30
-1.5242643 1.0334502 0.34856626 56 29
-1.4551919 1.2967438 0.29941726 62 28
-1.525354 1.0360997 0.22084396 61 27
-1.4622754 1.3030866 0.18387894 62 26
-1.534539 1.0430956 0.12667006 61 25
-1.4579335 1.2992171 0.089440174 61 24
-1.5250038 1.0374031 0.042011537 62 23
-1.4611255 1.3025259 0 62 22
-1.5246416 1.0379353 -0.042011537 62 21
-1.45748 1.2997258 -0.089440174 59 20
-1.5235294 1.0371877 -0.1251713 61 19
-1.4619032 1.3050472 -0.17279606 63 18
-1.5338174 1.0441788 -0.20839819 59 17
-1.4645886 1.3083616 -0.26800993 19 16
-1.4521742 0.98803771 -0.30014563 3 15
-1.3437464 1.2034879 -0.50624651 3 13
-1.4111046 0.95984131 -0.38287395 10 14
-1.3008306 1.1673735 -0.59248453 7 12
-1.372299 0.92908847 -0.65612793 10 11
-1.2384511 1.1185514 -0.86766696 3 9
-1.1781069 0.79631007 -0.65153849 26 10
-0.73516774 0.66494209 -0.57806075 48 8
-0.7336809 0.49264711 -0.57450682 40 7
-0.56899929 0.5170235 -0.55889618 65 6
-0.50331438 0.33639324 -0.48297769 39 5
-0.20143703 0.18221253 -0.22630529 90 4
-0.20961682 0.1409691 -0.23106785 81 3
-0.26151356 0.23964098 -0.37780005 8 2
-0.3198792 0.21114957 -0.45739722 8 1
nan nan nan 0 0
-1.5216252 1.0375153 0.4820998 58 31
-1.4539685 1.3056872 0.44415855 59 30
-1.5287629 1.0442921 0.35046065 58 29
-1.4561659 1.3067707 0.3005763 62 28
-1.5237778 1.0428168 0.2211469 61 27
-1.4632689 1.3131759 0.18459257 62 26
-1.5308886 1.0484459 0.12667006 61 25
-1.4571031 1.3076383 0.089673094 59 24
-1.5253177 1.0458068 0.042127591 62 23
-1.4584281 1.3092903 0 62 22
-1.5251352 1.046073 -0.042127591 65 21
-1.4545624 1.30673 -0.089556634 61 20
-1.524017 1.0453155 -0.12551659 63 19
-1.4628882 1.3151425 -0.17346667 62 18
-1.5299799 1.0497936 -0.20839819 59 17
-1.4600127 1.3134661 -0.26800993 17 16
-1.4424437 0.9891836 -0.29885745 3 15
-1.341109 1.2100174 -0.5069344 3 13
-1.4117696 0.96751046 -0.3839902 8 14
-1.2965432 1.1721336 -0.59248453 7 12
-1.3688846 0.93411189 -0.65612793 10 11
-1.2361704 1.1243554 -0.8688395 3 9
-1.1789254 0.80316389 -0.65366429 23 10
-0.72956979 0.66474241 -0.57547438 48 8
-0.72843391 0.4930228 -0.57170439 41 7
-0.56271249 0.51506209 -0.55435234 73 6
-0.49890277 0.33611888 -0.47974709 39 5
-0.20209141 0.18417999 -0.22803281 90 4
-0.21339141 0.14457016 -0.23652615 78 3
-0.25242749 0.23281786 -0.36444351 7 2
-0.31910312 0.21232057 -0.45739722 8 1
nan nan nan 0 0
-1.519805 1.0444508 0.48274431 58 31
-1.4509777 1.3126436 0.44472221 61 30
-1.526949 1.0512778 0.35093424 59 29
-1.453197 1.3137575 0.30096266 62 28
-1.5219901 1.049801 0.22144984 61 27
-1.4621342 1.3218722 0.18506832 62 26
-1.5270356 1.0540498 0.12667006 61 25
-1.4597028 1.3196774 0.090138927 61 24
-1.5216578 1.0511247 0.042127591 63 23
-1.455472 1.316306 0 62 22
-1.5233487 1.0530742 -0.042185616 62 21
-1.4555421 1.3168318 -0.089906007 59 20
-1.5201755 1.0508943 -0.12551659 63 19
-1.4580581 1.3204954 -0.17346667 59 18
-1.5283511 1.0565374 -0.20868249 59 17
-1.4588546 1.3221383 -0.26869801 14 16
-1.4430385 0.99700677 -0.29971623 4 15
-1.3333234 1.2114543 -0.50555873 3 13
-1.4082141 0.9726783 -0.3839902 8 14
-1.2976787 1.1814307 -0.59493619 7 12
-1.3617916 0.93626434 -0.65425324 10 11
-1.2304152 1.1273848 -0.86766696 3 9
-1.1705105 0.80344278 -0.65047568 21 10
-0.73039073 0.6701858 -0.57806075 50 8
-0.73013687 0.49788457 -0.57450682 40 7
-0.56236911 0.51837611 -0.55586696 67 6
-0.50247818 0.34105021 -0.484593 39 5
-0.1988087 0.18241434 -0.22457777 90 4
-0.20717514 0.14151591 -0.22924842 77 3
-0.24217868 0.22486752 -0.34917885 7 2
-0.31836006 0.21343315 -0.45739722 8 1
nan nan nan 0 0
-1.5241009 1.0552387 0.48532236 55 31
-1.4517826 1.3226275 0.44641316 62 30
-1.5252888 1.0579977 0.35140783 59 29
-1.4522512 1.3221519 0.30173534 61 28
-1.5183163 1.0551074 0.22144984 61 27
-1.4593495 1.3286455 0.18530621 61 26
-1.5233469 1.0593739 0.12667006 61 25
-1.4550874 1.3247646 0.090138927 61 24
-1.5220861 1.0592799 0.042243645 63 23
-1.4527148 1.3230639 0 62 22
-1.5237691 1.0612367 -0.04230167 63 21
-1.4527808 1.3235887 -0.090022467 58 20
-1.5205948 1.0590396 -0.1258619 63 19
-1.4607913 1.3322967 -0.17436083 61 18
-1.5307739 1.0661163 -0.20953542 59 17
-1.459712 1.3322365 -0.26973015 14 16
-1.4375262 1.0006337 -0.29928684 3 15
-1.3344001 1.220975 -0.50762218 3 13
-1.4088148 0.98036611 -0.38510644 7 14
-1.2935469 1.1859533 -0.59493619 7 12
-1.3623297 0.94364566 -0.65612793 8 11
-1.2232313 1.1286737 -0.86532193 3 9
-1.1751529 0.81265825 -0.65472716 14 10
-0.72491121 0.66981953 -0.57547438 43 8
