# .PCD v0.7 - Point Cloud Data file format
VERSION 0.7
FIELDS x y z intensity ring
SIZE 4 4 4 4 2
TYPE F F F F U
COUNT 1 1 1 1 1
WIDTH 1224
HEIGHT 1
VIEWPOINT 0 0 0 1 0 0 0
POINTS 1224
DATA ascii
-1.6566718 0.42727625 -0.11602084 76 19
-1.6050644 0.64708334 -0.15223041 81 18
-1.6668394 0.42988932 -0.19304553 74 17
-1.6145082 0.65155363 -0.237046 76 16
-1.657986 0.42702138 -0.29241657 69 15
-1.6095134 0.65210074 -0.48698717 59 13
-1.6551024 0.42599407 -0.38343209 62 14
-1.5995563 0.64997041 -0.58512956 59 12
-1.6417615 0.41870108 -0.67112511 10 11
-1.6032288 0.65756243 -0.90167016 72 9
-0.66506869 0.17049925 -0.30610618 21 10
-1.6088176 0.66308886 -1.030681 67 8
-0.80489528 0.2022056 -0.53807467 37 7
-0.66455925 0.27468321 -0.5210306 81 6
-0.6338293 0.15740637 -0.52336043 90 5
-0.30283409 0.12505776 -0.27985847 47 4
-0.25163588 0.06326557 -0.23834558 90 3
-0.22325318 0.092456892 -0.24423438 43 2
-0.28543735 0.070041567 -0.34006488 8 1
-0.28444326 0.11963899 -0.38514787 4 0
-1.6590453 0.42917639 0.44794029 61 31
-1.5981911 0.64979136 0.39117518 70 30
-1.6589396 0.43066838 0.32393929 67 29
-1.5976063 0.64892232 0.26425987 76 28
-1.6571286 0.43171921 0.20478809 77 27
-1.6094404 0.65376008 0.16270788 80 26
-1.662675 0.43376908 0.11712643 74 25
-1.605654 0.65222299 0.079191819 78 24
-1.6563483 0.43273917 0.038936108 80 23
-1.6049341 0.65225607 0 83 22
-1.6586158 0.43394643 -0.038994133 81 21
-1.6008017 0.65089625 -0.078958906 80 20
-1.6599977 0.43431213 -0.11636614 76 19
-1.6097107 0.65550822 -0.15290102 81 18
-1.6653287 0.4357051 -0.19304553 73 17
-1.6168076 0.6590606 -0.23773409 76 16
-1.6564853 0.43280622 -0.29241657 70 15
-1.6094506 0.65862811 -0.48767498 59 13
-1.6606816 0.43360552 -0.38510644 62 14
-1.5994624 0.65644991 -0.5859468 58 12
-1.6492686 0.42673796 -0.67487442 8 11
-1.6029624 0.66400254 -0.90284264 72 9
-0.66227746 0.17225853 -0.30504331 15 10
-1.6104413 0.67035061 -1.0332675 70 8
-0.81422424 0.20753759 -0.54508084 40 7
-0.65626544 0.27391061 -0.51497209 83 6
-0.63142371 0.15915985 -0.52174515 90 5
-0.2940852 0.12256762 -0.27122086 47 4
-0.24974726 0.063739523 -0.23652615 90 3
-0.22292906 0.093235634 -0.24423438 41 2
-0.28666511 0.071387306 -0.34205356 8 1
-0.28933382 0.12294658 -0.39329916 4 0
-1.6598744 0.43557462 0.44858482 59 31
-1.5959132 0.65536612 0.39117518 72 30
-1.6621755 0.43769988 0.3248865 69 29
-1.6021832 0.65731639 0.26541892 76 28
-1.648411 0.4356094 0.20387927 74 27
-1.6049623 0.6581465 0.16247001 81 26
-1.6611509 0.43957022 0.11712643 80 25
-1.6033674 0.65782374 0.079191819 77 24
-1.6548277 0.43851826 0.038936108 77 23
-1.6026475 0.65785432 0 83 22
-1.6595848 0.44008145 -0.039052162 80 21
-1.5939023 0.65457684 -0.078725986 80 20
-1.6536486 0.43883151 -0.11602084 76 19
-1.6029245 0.65894324 -0.15245394 81 18
-1.6661991 0.4421491 -0.19332983 72 17
-1.6146132 0.66441852 -0.23773409 76 16
-1.657346 0.43921325 -0.29284593 69 15
-1.6071417 0.66424215 -0.48767498 59 13
-1.6521643 0.43725002 -0.38343209 62 14
-1.5971612 0.66202909 -0.5859468 59 12
-1.6500871 0.43278939 -0.67581177 8 11
-1.5987158 0.66845995 -0.90167016 70 9
-0.66605234 0.17570697 -0.30716905 23 10
-1.6042668 0.67402428 -1.030681 70 8
-0.80547029 0.20833158 -0.53947592 40 7
-0.66450435 0.27997905 -0.52254522 83 6
-0.63089246 0.16125286 -0.52174515 90 5
-0.2853784 0.11996819 -0.26258326 45 4
-0.24620472 0.063748248 -0.23288728 89 3
-0.22409934 0.094620034 -0.24614246 40 2
-0.29379117 0.074110985 -0.35199699 8 1
-0.28759897 0.12332211 -0.39126134 4 0
-1.6560856 0.44045913 0.44794029 61 31
-1.593731 0.66065472 0.39117518 73 30
-1.6559697 0.44195038 0.32393929 70 29
-1.5999947 0.66262585 0.26541892 76 28
-1.6541516 0.44298884 0.20478809 73 27
-1.6095493 0.66661036 0.16318363 80 26
-1.6620938 0.44571891 0.11729994 74 25
-1.6034832 0.66409564 0.079308279 77 24
-1.6557014 0.4449372 0.038994133 77 23
-1.6027654 0.6641252 0 83 22
-1.6580384 0.44587177 -0.039052162 81 21
-1.6008298 0.66397536 -0.079191819 78 20
-1.6521842 0.44431275 -0.11602084 78 19
-1.602913 0.66549224 -0.15267749 81 18
-1.6646454 0.44796252 -0.19332983 73 17
-1.6099987 0.6690973 -0.23739004 76 16
-1.6558027 0.44499579 -0.29284593 65 15
-1.6070303 0.67077678 -0.48836285 61 13
-1.6529826 0.44364271 -0.3839902 63 14
-1.5948405 0.66760021 -0.5859468 59 12
-1.641768 0.43705592 -0.67299974 12 11
-1.6004385 0.67575979 -0.90401524 66 9
-0.67418748 0.18033685 -0.31142053 37 10
-1.6057223 0.68157721 -1.0332675 69 8
-0.80473816 0.21114194 -0.53947592 40 7
-0.65616447 0.27927095 -0.5164867 80 6
-0.63214624 0.16403505 -0.52336043 90 5
-0.27830836 0.11812984 -0.25567317 47 4
-0.24929619 0.065481521 -0.23652615 90 3
-0.22524607 0.096052527 -0.24805054 39 2
-0.29057446 0.074467108 -0.34801963 8 1
-0.28582162 0.12378728 -0.38922352 4 0
-1.6544601 0.44652602 0.44794029 61 31
-1.5980347 0.66932315 0.39286613 72 30
-1.6590794 0.44929329 0.3248865 70 29
-1.5975554 0.66848564 0.26541892 77 28
-1.6525168 0.4490487 0.20478809 73 27
-1.6048007 0.67154157 0.16294576 80 26
-1.660449 0.45180777 0.11729994 76 25
-1.6010385 0.66996825 0.079308279 78 24
-1.6541382 0.45071396 0.038994133 78 23
-1.6026254 0.67096359 0 81 22
-1.6563931 0.45194578 -0.039052162 80 21
-1.5985024 0.6695593 -0.079191819 78 20
-1.6529518 0.45101842 -0.1161935 76 19
-1.6073478 0.67426103 -0.1533481 80 18
-1.6654689 0.45442086 -0.19361414 73 17
-1.6120994 0.6769169 -0.23807815 74 16
-1.6589936 0.45206106 -0.29370472 62 15
-1.604679 0.6763823 -0.48836285 61 13
-1.6536977 0.45033514 -0.38454834 62 14
-1.5968505 0.67500871 -0.58758122 61 12
-1.642471 0.44338471 -0.67393708 25 11
-1.5979509 0.68162113 -0.90401524 67 9
nan nan nan 0 10
-1.6092293 0.68971485 -1.037147 70 8
-0.79798859 0.21237251 -0.53527224 39 7
-0.65883476 0.28314331 -0.51951599 81 6
-0.62787497 0.16528581 -0.5201298 90 5
-0.27458513 0.11764729 -0.25221813 45 4
-0.24906611 0.066351324 -0.23652615 90 3
-0.21898849 0.094252512 -0.24041823 39 2
-0.2932533 0.076211393 -0.35199699 8 1
-0.28274509 0.12359877 -0.38514787 4 0
-1.6528914 0.45229843 0.44794029 59 31
-1.5956888 0.67489725 0.39286613 72 30
-1.6551329 0.45443535 0.32441291 70 29
-1.5952121 0.67405814 0.26541892 77 28
-1.6533327 0.45546994 0.20509103 73 27
-1.6047379 0.6781109 0.16318363 81 26
-1.6564567 0.45694134 0.11712643 77 25
-1.6009891 0.6765278 0.079424739 78 24
-1.6501448 0.45582321 0.038936108 78 23
-1.6025749 0.67753005 0 81 22
-1.6596248 0.45905069 -0.039168216 80 21
-1.5961554 0.67513508 -0.079191819 78 20
-1.6513673 0.45678556 -0.1161935 77 19
-1.607276 0.68084174 -0.15357165 81 18
-1.6614776 0.45957291 -0.19332983 73 17
-1.6074481 0.68157053 -0.23773409 73 16
-1.650281 0.45589218 -0.29241657 62 15
-1.6045185 0.68292367 -0.48905066 59 13
-1.6521157 0.4561049 -0.38454834 62 14
-1.5944844 0.68057865 -0.58758122 62 12
-1.645386 0.45033219 -0.67581177 40 11
-1.5955619 0.68719488 -0.90401524 69 9
nan nan nan 0 10
-1.6028873 0.69362301 -1.0345607 69 8
-0.80324453 0.21675487 -0.53947592 40 7
-0.66148591 0.2870377 -0.52254522 76 6
-0.63098562 0.16844425 -0.52336043 90 5
-0.27086875 0.1171402 -0.24876307 41 4
-0.24551207 0.066365808 -0.23288728 88 3
-0.22455297 0.097661875 -0.24805054 36 2
-0.29151648 0.076864228 -0.35000831 8 1
-0.27307701 0.12040361 -0.37088314 4 0
-1.6536311 0.45870763 0.44858482 59 31
-1.5933231 0.68046314 0.39286613 69 30
-1.6559023 0.46086484 0.3248865 69 29
-1.5973907 0.68156677 0.2661916 74 28
-1.6445594 0.45924634 0.20418221 73 27
-1.6001925 0.68244952 0.16294576 80 26
-1.6572543 0.4633888 0.11729994 74 25
-1.5986178 0.68211216 0.079424739 77 24
-1.6509514 0.46225095 0.038994133 77 23
-1.5956042 0.68115103 0 83 22
-1.655686 0.46388081 -0.039110187 80 21
-1.593789 0.68070257 -0.079191819 76 20
-1.6497627 0.46254712 -0.1161935 77 19
-1.6004328 0.68420446 -0.15312457 80 18
-1.6598632 0.46536976 -0.19332983 73 17
-1.6097296 0.68885142 -0.23842219 74 16
-1.6486795 0.46164995 -0.29241657 58 15
-1.6021249 0.68852031 -0.48905066 61 13
-1.6529419 0.46223387 -0.38510644 62 14
-1.5920991 0.6861403 -0.58758122 58 12
-1.6394148 0.45455432 -0.67393708 48 11
-1.5912504 0.69159925 -0.90284264 70 9
nan nan nan 0 10
-1.5986187 0.69807559 -1.0332675 69 8
-0.7964865 0.2179383 -0.53527224 39 7
-0.65325403 0.28601286 -0.5164867 73 6
-0.62120306 0.1680858 -0.51528388 90 5
-0.26223081 0.11434829 -0.24012548 41 4
-0.24860869 0.06804511 -0.23652615 88 3
-0.22275639 0.097739726 -0.24614246 34 2
-0.29125997 0.077830508 -0.35000831 8 1
-0.27399352 0.12191021 -0.37292096 4 0
-1.6497743 0.46353877 0.44794029 59 31
-1.5888225 0.68477619 0.39230248 70 30
-1.6567285 0.46701607 0.32536009 70 29
-1.590587 0.68490064 0.26541892 76 28
-1.6501942 0.46671319 0.20509103 73 27
-1.6023697 0.69000536 0.16342153 80 26
-1.6557086 0.46888193 0.11729994 76 25
-1.596347 0.68740958 0.079424739 77 24
-1.6469225 0.46733218 0.038936108 77 23
-1.597926 0.68842268 0 78 22
-1.6516515 0.4689782 -0.039052162 80 21
-1.5914031 0.68626177 -0.079191819 78 20
-1.6482198 0.4680154 -0.1161935 76 19
-1.5980347 0.68978685 -0.15312457 80 18
-1.6582288 0.47116092 -0.19332983 73 17
-1.6095873 0.6954512 -0.23876624 76 16
-1.6517985 0.46873993 -0.29327536 59 15
-1.5997118 0.69410861 -0.48905066 61 13
-1.6513183 0.46800092 -0.38510644 62 14
-1.5875292 0.6907481 -0.58676398 56 12
-1.642202 0.46180812 -0.67581177 52 11
-1.5928681 0.69892943 -0.90518773 70 9
nan nan nan 0 10
-1.6019185 0.70652854 -1.037147 69 8
-0.793724 0.22017056 -0.533871 37 7
-0.65946591 0.29164875 -0.52254522 74 6
-0.6242674 0.17135499 -0.51851451 90 5
-0.26180995 0.11530864 -0.24012548 41 4
-0.25001508 0.069394693 -0.23834558 90 3
-0.22094469 0.097845294 -0.24423438 36 2
-0.28803998 0.07813631 -0.34603095 8 1
-0.27222979 0.12230709 -0.37088314 4 0
-1.6527125 0.4708994 0.44922933 58 31
-1.5929977 0.69352013 0.39399344 70 30
-1.6526445 0.47241387 0.3248865 69 29
-1.5903298 0.69171387 0.26580524 77 28
-1.646086 0.47207761 0.20478809 73 27
-1.5975488 0.6948781 0.16318363 80 26
-1.6563771 0.47563222 0.11747347 74 25
-1.5961058 0.69425493 0.079541199 77 24
-1.65249 0.47513989 0.039110187 77 23
-1.6022655 0.69727623 0 78 22
-1.6499214 0.4750286 -0.039052162 81 21
-1.5981517 0.69581175 -0.079657651 78 20
-1.648891 0.47473988 -0.11636614 74 19
-1.6000582 0.69763547 -0.15357165 80 18
-1.6565739 0.47694632 -0.19332983 74 17
-1.6047591 0.70035267 -0.23842219 76 16
-1.6477844 0.47382578 -0.29284593 56 15
-1.5972792 0.69968843 -0.48905066 61 13
-1.6449057 0.47271082 -0.3839902 62 14
-1.589432 0.69819146 -0.58839846 62 12
-1.6450397 0.46880129 -0.67768639 56 11
-1.5943305 0.70655769 -0.90753275 73 9
-1.626968 0.46188417 -0.77801991 59 10
-1.5955359 0.71037006 -1.0345607 69 8
-0.79295063 0.22293983 -0.533871 36 7
-0.65481728 0.29231447 -0.51951599 74 6
-0.62550604 0.17403619 -0.5201298 90 5
-0.25318447 0.1124734 -0.23148786 40 4
-0.24314775 0.068488486 -0.23106785 90 3
-0.22205128 0.099331222 -0.24614246 33 2
-0.2877655 0.079141282 -0.34603095 8 1
-0.27442712 0.12447886 -0.37495875 4 0
-1.6464152 0.47533232 0.44794029 61 31
-1.5905672 0.69907653 0.39399344 62 30
-1.6533442 0.47885925 0.32536009 69 29
-1.5901659 0.69825697 0.2661916 76 28
-1.6468121 0.47850963 0.20509103 73 27
-1.5996684 0.70245743 0.16365939 78 26
-1.6523108 0.48071781 0.11729994 76 25
-1.5959578 0.70082909 0.079657651 76 24
-1.6460202 0.479514 0.038994133 78 23
-1.5952466 0.70084798 0 81 22
-1.6458527 0.48008853 -0.038994133 81 21
-1.5911433 0.69937056 -0.079424739 78 20
-1.6424332 0.47910273 -0.11602084 77 19
-1.5953356 0.70221037 -0.1533481 78 18
-1.6572845 0.48341811 -0.19361414 72 17
-1.6045697 0.70695132 -0.23876624 73 16
-1.6484858 0.48026019 -0.29327536 59 15
-1.5948269 0.70525968 -0.48905066 61 13
-1.647927 0.47980538 -0.38510644 66 14
-1.5869853 0.70373541 -0.58839846 59 12
-1.6456208 0.47518027 -0.67862368 56 11
-1.5878259 0.7103098 -0.90518773 70 9
-1.6427506 0.4725382 -0.78652287 66 10
-1.5969471 0.71769476 -1.037147 70 8
-0.80013984 0.22794878 -0.53947592 37 7
-0.65741378 0.29624555 -0.52254522 76 6
-0.62121719 0.17519937 -0.51689917 90 5
-0.25607362 0.11486734 -0.23494291 40 4
-0.2429072 0.069336817 -0.23106785 90 3
-0.22316751 0.1007876 -0.24805054 32 2
-0.28748748 0.080145285 -0.34603095 8 1
-0.27136928 0.12420462 -0.37088314 4 0
-1.6424267 0.48040181 0.44729578 59 31
-1.5903423 0.70561504 0.39455709 69 30
-1.6516626 0.48462763 0.32536009 69 29
-1.5899756 0.70480716 0.26657793 76 28
-1.6451318 0.48425519 0.20509103 73 27
-1.5950562 0.70674717 0.16342153 78 26
-1.6482296 0.48578092 0.11712643 74 25
-1.5935017 0.70639569 0.079657651 76 24
-1.6467346 0.48596081 0.039052162 77 23
-1.5927905 0.70641214 0 81 22
-1.6490477 0.4869526 -0.039110187 80 21
-1.5909737 0.70593619 -0.079541199 78 20
-1.6407509 0.48483297 -0.11602084 76 19
-1.5952727 0.7085104 -0.15357165 78 18
-1.6579698 0.48990059 -0.19389845 72 17
-1.599955 0.7112596 -0.23842219 74 16
-1.6515256 0.48739898 -0.29413414 59 15
-1.5967424 0.71278745 -0.49042633 59 13
-1.6463269 0.48526752 -0.38510644 65 14
-1.5888294 0.71120697 -0.59003288 59 12
-1.6440359 0.48063478 -0.67862368 56 11
-1.5854616 0.71557128 -0.90518773 69 9
-1.6497848 0.48078877 -0.79077435 63 10
-1.5965058 0.72387266 -1.0384402 67 8
-0.79137492 0.22847019 -0.533871 36 7
-0.65100467 0.29593533 -0.51800138 74 6
-0.62063277 0.17725845 -0.51689917 90 5
-0.24913475 0.11267243 -0.22803281 40 4
-0.24598157 0.071053714 -0.23470671 90 3
-0.22575617 0.10290059 -0.2518667 32 2
-0.29160732 0.082285218 -0.35199699 8 1
-0.27226469 0.12572387 -0.37292096 4 0
-1.6454587 0.48721045 0.44858482 61 31
-1.5835501 0.70888889 0.39342979 69 30
-1.6453382 0.48871103 0.32441291 69 29
-1.589883 0.71108723 0.26696429 76 28
-1.6435169 0.48970801 0.20509103 73 27
-1.5925794 0.71231073 0.16342153 80 26
-1.6513915 0.49266315 0.11747347 74 25
-1.5911504 0.71167612 0.079657651 77 24
-1.6450282 0.49170598 0.039052162 77 23
-1.5927197 0.71271414 0 80 22
-1.6497334 0.49341863 -0.039168216 80 21
-1.5907776 0.7125091 -0.079657651 76 20
-1.6463056 0.49240509 -0.11653879 77 19
-1.5927896 0.71407467 -0.15357165 78 18
-1.6514887 0.49426749 -0.19332983 73 17
-1.6019782 0.71887338 -0.23911026 74 16
-1.6450928 0.49175695 -0.29327536 59 15
-1.5920546 0.71736664 -0.48973849 59 13
-1.644623 0.49101129 -0.38510644 62 14
-1.5863372 0.71674871 -0.59003288 59 12
-1.6422633 0.48665723 -0.67862368 58 11
-1.5849624 0.72201937 -0.90636027 73 9
-1.6502676 0.48718199 -0.79183722 65 10
-1.595786 0.73061264 -1.0397335 66 8
-0.80051804 0.23410369 -0.54087716 36 7
-0.65172029 0.29915556 -0.51951599 76 6
-0.62364924 0.18057685 -0.5201298 90 5
-0.25035647 0.11435166 -0.22976033 41 4
-0.24571951 0.071954802 -0.23470671 90 3
-0.21955702 0.10092063 -0.24423438 29 2
-0.2942256 0.084155537 -0.35597438 8 1
-0.27310854 0.12734577 -0.37495875 4 0
-1.643662 0.49323809 0.44858482 59 31
-1.5853775 0.71670043 0.39455709 69 30
-1.648239 0.49614653 0.32536009 69 29
-1.5827667 0.71487051 0.2661916 76 28
-1.6393343 0.49501452 0.20478809 72 27
-1.5944915 0.72019756 0.16389728 78 26
-1.6471864 0.4979941 0.11729994 73 25
-1.5930805 0.7195648 0.079890572 77 24
-1.6433018 0.49744526 0.039052162 77 23
-1.5900968 0.71854699 0 81 22
-1.6455209 0.49874035 -0.039110187 80 21
-1.5837322 0.7159943 -0.079424739 76 20
-1.6421019 0.49771568 -0.11636614 74 19
-1.5901617 0.7199077 -0.15357165 80 18
-1.6545093 0.50146335 -0.19389845 72 17
-1.5970786 0.72371531 -0.23876624 73 16
-1.6457245 0.49820662 -0.29370472 62 15
-1.5917275 0.72391742 -0.49042633 61 13
-1.6404788 0.49633354 -0.38454834 62 14
-1.5859741 0.72326493 -0.59085011 59 12
-1.6383338 0.4917239 -0.67768639 56 11
-1.5883193 0.7306 -0.90987778 70 9
-1.6485569 0.49293947 -0.79183722 65 10
-1.593226 0.73617858 -1.0397335 66 8
-0.79770893 0.23631519 -0.53947592 34 7
-0.65607721 0.30395603 -0.52405989 76 6
-0.62301511 0.18275267 -0.5201298 90 5
-0.24668849 0.11367974 -0.22630529 41 4
-0.24711636 0.073279791 -0.23652615 90 3
-0.22355697 0.10381624 -0.24995862 32 2
-0.29830858 0.086400457 -0.36194041 8 1
-0.27787948 0.13081589 -0.38311005 4 0
-1.6419302 0.49897254 0.44858482 59 31
-1.5850806 0.72324401 0.39512074 70 30
-1.6417991 0.50047219 0.32441291 66 29
-1.5870003 0.72347331 0.26735064 74 28
-1.6399705 0.50145608 0.20509103 72 27
-1.5919678 0.72575903 0.16389728 78 26
-1.645438 0.50374079 0.11729994 74 25
-1.5951011 0.7271989 0.080123484 76 24
-1.6415555 0.50317836 0.039052162 77 23
-1.5921254 0.7261737 0 81 22
-1.6461604 0.50521117 -0.039168216 80 21
-1.5880353 0.72463703 -0.079774112 76 20
-1.6427399 0.50417304 -0.11653879 74 19
-1.5966929 0.72960496 -0.15446581 77 18
-1.6503733 0.50651032 -0.19361414 72 17
-1.6012942 0.73238397 -0.23979835 73 16
-1.6463312 0.50466669 -0.29413414 67 15
-1.5891907 0.72946918 -0.49042633 59 13
-1.6433983 0.50347769 -0.38566458 62 14
-1.5834398 0.72879654 -0.59085011 61 12
-1.6410444 0.49878109 -0.67956102 56 11
-1.5857594 0.73613983 -0.90987778 70 9
-1.642493 0.49738604 -0.78971148 66 10
-1.5925844 0.7426424 -1.0410267 65 8
-0.79886419 0.23968664 -0.54087716 34 7
-0.65141469 0.30454683 -0.5210306 74 6
-0.6187104 0.18385586 -0.51689917 90 5
-0.2446592 0.11376187 -0.22457777 41 4
-0.24191543 0.072721571 -0.23106785 88 3
-0.21882923 0.10248914 -0.24423438 30 2
-0.2936309 0.086207554 -0.35597438 8 1
-0.27351493 0.12988324 -0.37699658 4 0
-1.6447978 0.50611496 0.44987386 59 31
-1.5869683 0.73081577 0.39624804 69 30
-1.6423886 0.50692058 0.3248865 66 29
-1.5822225 0.72797328 0.26696429 74 28
-1.6382102 0.50717759 0.20509103 72 27
-1.5940717 0.73311955 0.16437303 77 26
-1.646053 0.51021641 0.11747347 74 25
-1.5880183 0.73066902 0.079890572 77 24
-1.6397891 0.50890541 0.039052162 77 23
-1.5873114 0.73067862 0 76 22
-1.6444761 0.51066726 -0.039168216 80 21
-1.5854963 0.73017579 -0.079774112 76 20
-1.64097 0.50990421 -0.11653879 74 19
-1.5897446 0.73280531 -0.15401873 77 18
-1.6509682 0.51300174 -0.19389845 72 17
-1.5943625 0.73560959 -0.23911026 73 16
-1.6422063 0.50968373 -0.29370472 67 15
-1.5866348 0.73501205 -0.49042633 61 13
-1.6393911 0.50820649 -0.38510644 63 14
-1.5830275 0.73531735 -0.59166729 61 12
-1.6415975 0.50489819 -0.68049836 56 11
-1.5833095 0.74139434 -0.90987778 72 9
-1.6450756 0.50443649 -0.79183722 63 10
-1.5939825 0.74974614 -1.0436131 65 8
-0.79207373 0.24068783 -0.53667343 32 7
-0.65040118 0.30670536 -0.5210306 70 6
-0.61809731 0.18590656 -0.51689917 90 5
-0.24265228 0.11378889 -0.22285026 41 4
-0.24496554 0.074481227 -0.23470671 84 3
-0.21703584 0.10250716 -0.2423263 28 2
-0.2962569 0.088012904 -0.35995173 10 1
-0.27438268 0.13142779 -0.37903443 4 0
-1.6431104 0.51156652 0.44987386 58 31
-1.5779134 0.73298752 0.39455709 69 30
-1.6430428 0.51309252 0.32536009 69 29
-1.5797998 0.73321611 0.26696429 74 28
-1.6388885 0.51334572 0.20539397 73 27
-1.5915029 0.73867941 0.16437303 77 26
-1.644352 0.51567209 0.11747347 74 25
-1.5901144 0.73803955 0.080123484 76 24
-1.640388 0.51537198 0.039110187 77 23
-1.5848796 0.73593831 0 76 22
-1.6426834 0.51640439 -0.039168216 76 21
-1.5784112 0.73359507 -0.079541199 78 20
-1.6345094 0.51385391 -0.1161935 76 19
-1.5894333 0.73940313 -0.15424226 77 18
-1.6491673 0.51876158 -0.19389845 72 17
-1.591785 0.74117047 -0.23911026 73 16
-1.6404172 0.51541299 -0.29370472 67 15
-1.5862354 0.74156666 -0.49111417 61 13
-1.6399332 0.51465219 -0.38566458 62 14
-1.582589 0.74184436 -0.59248453 59 12
-1.6353085 0.50953937 -0.67862368 56 11
-1.5827069 0.74786264 -0.91105038 72 9
-1.6476289 0.51151103 -0.79396296 63 10
-1.587361 0.75374258 -1.0410267 67 8
-0.78528613 0.24164456 -0.53246975 32 7
-0.64389426 0.3065033 -0.5164867 73 6
-0.62106723 0.18926674 -0.5201298 90 5
-0.24548453 0.11625677 -0.22630529 41 4
-0.2397573 0.073923729 -0.22924842 88 3
-0.22102624 0.1054006 -0.24805054 29 2
-0.29593232 0.089098148 -0.35995173 10 1
-0.28038722 0.13564765 -0.38922352 4 0
-1.6412244 0.51758534 0.44987386 58 31
-1.5796239 0.74083996 0.39568439 67 30
-1.6458343 0.52058506 0.3263073 69 29
-1.5838076 0.74215412 0.26812333 74 28
-1.6346295 0.51860201 0.20509103 73 27
-1.5887848 0.74450755 0.16437303 78 26
-1.6448287 0.52244705 0.11764698 73 25
-1.5873985 0.74386257 0.080123484 76 24
-1.6361963 0.5203408 0.039052162 77 23
-1.5889583 0.74493438 0 76 22
-1.6383971 0.52166682 -0.039110187 80 21
-1.5826195 0.74229002 -0.079890572 74 20
-1.6373703 0.52134782 -0.11653879 74 19
-1.5867126 0.7452237 -0.15424226 76 18
-1.6473466 0.52451503 -0.19389845 72 17
-1.593537 0.74911225 -0.23979835 72 16
-1.6433041 0.52262211 -0.29456353 66 15
-1.5814648 0.74607086 -0.49042633 62 13
-1.6333891 0.51918983 -0.38454834 62 14
-1.5821244 0.74837708 -0.59330177 59 12
-1.6379426 0.5166322 -0.68049836 56 11
-1.5779637 0.75270516 -0.90987778 66 9
-1.6436735 0.51658404 -0.79290009 65 10
-1.5866483 0.76020598 -1.0423198 67 8
-0.79235291 0.24682076 -0.53807467 33 7
-0.64282048 0.30874905 -0.5164867 72 6
-0.61492544 0.1897704 -0.51528388 90 5
-0.24507722 0.11711296 -0.22630529 45 4
-0.23949781 0.074760184 -0.22924842 87 3
-0.21629676 0.1040576 -0.2423263 28 2
-0.29271209 0.089277662 -0.35597438 10 1
-0.28379816 0.13856819 -0.39533696 7 0
-1.6348034 0.52184886 0.44858482 59 31
-1.5792284 0.74739414 0.39624804 70 30
-1.6346513 0.52334654 0.32441291 66 29
-1.5745125 0.74450207 0.26696429 74 28
-1.6328093 0.52430481 0.20509103 73 27
-1.5884248 0.75111568 0.16461091 77 26
-1.6429951 0.52818543 0.11764698 74 25
-1.5870485 0.75046951 0.080239952 76 24
-1.63437 0.52604902 0.039052162 77 23
-1.5840899 0.74940437 0 77 22
-1.6413261 0.52890909 -0.039226241 78 21
-1.5867865 0.75102347 -0.080239952 76 20
-1.6379153 0.52782178 -0.11671145 74 19
-1.5930966 0.75503486 -0.15513644 76 18
-1.6455057 0.53026223 -0.19389845 70 17
-1.5931486 0.75573432 -0.24014241 73 16
-1.6414698 0.52835506 -0.29456353 67 15
-1.5831885 0.75365841 -0.49180201 59 13
-1.6385295 0.52711701 -0.38622272 62 14
-1.5816334 0.75491571 -0.59411901 59 12
-1.6383381 0.5230481 -0.6814357 55 11
-1.5793031 0.76012927 -0.91222286 70 9
-1.6440177 0.52300113 -0.79396296 63 10
-1.5878351 0.76760763 -1.0449063 65 8
-0.78753322 0.24835302 -0.53527224 34 7
-0.63995212 0.31011724 -0.51497209 76 6
-0.6142593 0.19191574 -0.51528388 90 5
-0.24628684 0.11876868 -0.22803281 44 4
-0.24579981 0.077581406 -0.23652615 83 3
-0.22171107 0.10770202 -0.24995862 26 2
-0.29530305 0.091161959 -0.35995173 10 1
-0.29882991 0.14738269 -0.4197908 7 0
-1.6352714 0.52829134 0.44922933 59 31
-1.5788065 0.75395453 0.39681172 69 30
-1.6421598 0.53206235 0.3263073 69 29
-1.5785879 0.75319302 0.26812333 74 28
-1.6333305 0.5307647 0.20539397 72 27
-1.5904152 0.75852722 0.16508666 77 26
-1.6435142 0.53468555 0.11782051 73 25
-1.5844194 0.75600475 0.080239952 76 24
-1.6349012 0.53252149 0.039110187 77 23
-1.5814643 0.7549293 0 76 22
-1.6371857 0.53357792 -0.039168216 80 21
-1.5773988 0.75332063 -0.079890572 74 20
-1.6313183 0.53199613 -0.11636614 74 19
-1.5860938 0.75816023 -0.15468936 76 18
-1.6460072 0.53676957 -0.19418277 72 17
-1.5906337 0.76101315 -0.24014241 74 16
-1.6396154 0.53408164 -0.29456353 67 15
-1.5783828 0.75813669 -0.49111417 61 13
-1.634454 0.53179705 -0.38566458 61 14
-1.5789887 0.76043206 -0.59411901 58 12
-1.6321815 0.52706039 -0.67956102 56 11
-1.578759 0.76632917 -0.9133954 65 9
-1.6421821 0.52873665 -0.79396296 63 10
-1.5852809 0.77286881 -1.0449063 65 8
-0.78863609 0.25172344 -0.53667343 34 7
-0.64248788 0.31399709 -0.51800138 70 6
-0.61908537 0.19565199 -0.5201298 90 5
-0.24427438 0.11877842 -0.22630529 43 4
-0.24226227 0.07739237 -0.23288728 84 3
-0.21558344 0.10552746 -0.2423263 25 2
-0.29064682 0.090831652 -0.3539857 10 1
-0.29317582 0.14574747 -0.41163954 7 0
-1.6381048 0.53520483 0.45051837 56 31
-1.5741045 0.7581262 0.39624804 67 30
-1.6403863 0.53750497 0.3263073 67 29
-1.5760815 0.75842369 0.26812333 74 28
-1.6315613 0.53617811 0.20539397 72 27
-1.5832754 0.76191026 0.16461091 77 26
-1.641732 0.5401327 0.11782051 73 25
-1.5819037 0.76125479 0.080239952 76 24
-1.6330324 0.53822517 0.039110187 77 23
-1.5812032 0.76125675 0 76 22
-1.6329385 0.53851014 -0.039110187 77 21
-1.5770081 0.75990909 -0.080007032 74 20
-1.6342846 0.53895831 -0.11671145 74 19
-1.5834376 0.76369208 -0.15468936 76 18
-1.6464831 0.5432868 -0.19446707 70 17
-1.5857388 0.76548153 -0.23979835 72 16
-1.6354012 0.53903413 -0.29413414 67 15
-1.5822115 0.76679468 -0.49317768 58 13
-1.6349036 0.5382579 -0.38622272 63 14
-1.572077 0.76386845 -0.59248453 61 12
-1.6324427 0.53375608 -0.68049836 55 11
-1.5760744 0.77183539 -0.9133954 67 9
-1.6381738 0.53376794 -0.79290009 63 10
-1.5805191 0.77772665 -1.0436131 69 8
-0.7936694 0.2563642 -0.54087716 33 7
-0.64667451 0.31900847 -0.52254522 74 6
-0.60926473 0.19505246 -0.51205325 90 5
-0.24060884 0.11804842 -0.22285026 45 4
-0.23870181 0.077264056 -0.22924842 78 3
-0.21665354 0.10701166 -0.24423438 32 2
-0.29465944 0.093221322 -0.35995173 10 1
-0.29779375 0.14946532 -0.4197908 7 0
-1.6384265 0.54196048 0.4511629 58 31
-1.5735044 0.76495826 0.39681172 69 30
-1.6384052 0.54351372 0.3263073 65 29
-1.5755113 0.76527715 0.26850969 74 28
-1.6342967 0.54371452 0.20599985 72 27
-1.5849466 0.76988852 0.16508666 76 26
-1.6373739 0.54536158 0.11764698 73 25
-1.5858376 0.77032948 0.080589324 76 24
-1.6335158 0.54470944 0.039168216 77 23
-1.5828968 0.76923811 0 74 22
-1.6380692 0.54685581 -0.039284267 76 21
-1.5765904 0.76650405 -0.080123484 74 20
-1.6322982 0.5449447 -0.11671145 74 19
-1.5783904 0.76839781 -0.15446581 76 18
-1.6445767 0.54903084 -0.19446707 70 17
-1.5851473 0.77237594 -0.24014241 73 16
-1.635847 0.54551524 -0.29456353 67 15
-1.5752095 0.77019584 -0.49180201 58 13
-1.6329198 0.54424644 -0.38622272 61 14
-1.5715213 0.77039403 -0.59330177 58 12
-1.6305696 0.53945112 -0.68049836 55 11
-1.577191 0.77956897 -0.91574043 67 9
-1.6363008 0.53948301 -0.79290009 62 10
-1.5816249 0.78514695 -1.0461996 66 8
-0.79276967 0.25913307 -0.54087716 33 7
-0.63844705 0.31769413 -0.5164867 74 6
-0.61039805 0.19775781 -0.51366854 90 5
-0.24341819 0.12052336 -0.22630529 47 4
-0.24170229 0.079123959 -0.23288728 78 3
-0.219134 0.10928023 -0.24805054 30 2
-0.29577985 0.094696037 -0.36194041 10 1
-0.28698057 0.14517938 -0.40348825 7 0
-1.634233 0.54691303 0.45051837 59 31
-1.5730098 0.77152139 0.39737535 69 30
-1.6364981 0.5492295 0.3263073 67 29
-1.5750471 0.77186185 0.26889601 74 28
-1.6276828 0.54783946 0.20539397 73 27
-1.5844828 0.77651429 0.16532454 77 26
-1.6378249 0.55186677 0.11782051 74 25
-1.5808979 0.77475864 0.080472864 73 24
-1.6339738 0.55120373 0.039226241 76 23
-1.5802021 0.77475876 0 76 22
-1.6337812 0.55177402 -0.039226241 78 21
-1.5739051 0.7720027 -0.080123484 74 20
-1.630386 0.55063915 -0.11671145 74 19
-1.5801657 0.77610379 -0.15491289 74 18
-1.6426501 0.55476815 -0.19446707 70 17
-1.5824414 0.77790439 -0.24014241 73 16
-1.6339327 0.55122203 -0.29456353 67 15
-1.578974 0.77888793 -0.49386552 58 13
-1.6310101 0.54994309 -0.38622272 62 14
-1.5751718 0.7790255 -0.59575343 56 12
-1.6330743 0.54660416 -0.68237299 55 11
-1.5764346 0.78605747 -0.91691291 65 9
-1.63226 0.54447865 -0.79183722 65 10
-1.5788746 0.79066306 -1.0461996 65 8
-0.79579598 0.26318592 -0.54367965 32 7
-0.64443159 0.3235153 -0.52254522 77 6
-0.61333567 0.20105958 -0.51689917 90 5
-0.23977883 0.1197253 -0.22285026 44 4
-0.24142462 0.079967178 -0.23288728 80 3
-0.2201857 0.1107871 -0.24995862 29 2
-0.29255542 0.094824366 -0.35796306 10 1
-0.29289141 0.14953052 -0.41367733 7 0
-1.6300249 0.55184311 0.44987386 59 31
-1.5703073 0.77700758 0.39737535 69 30
-1.6322453 0.55415279 0.32583368 65 29
-1.5723431 0.77735502 0.26889601 74 28
-1.6257606 0.55351788 0.20539397 72 27
-1.5818992 0.78176433 0.16532454 76 26
-1.6358886 0.55758047 0.11782051 73 25
-1.5781839 0.78027231 0.080472864 74 24
-1.6320398 0.55690396 0.039226241 76 23
-1.5774879 0.78026998 0 76 22
-1.6343091 0.55799299 -0.039284267 76 21
-1.5734377 0.77860236 -0.080239952 74 20
-1.6308153 0.5571298 -0.1168841 74 19
-1.5842733 0.78466326 -0.15558352 74 18
-1.6407037 0.56049871 -0.19446707 70 17
-1.5842875 0.78535289 -0.2408305 72 16
-1.6366628 0.55850631 -0.29542232 66 15
-1.5719447 0.7822476 -0.49248984 58 13
-1.6314851 0.5561316 -0.38678083 61 14
-1.5745556 0.78557664 -0.59657061 58 12
-1.6312528 0.55201668 -0.68237299 55 11
-1.5738193 0.79128087 -0.91691291 65 9
-1.6346396 0.55161357 -0.79396296 62 10
-1.580061 0.7978285 -1.0487858 66 8
-0.78897572 0.26401088 -0.53947592 33 7
-0.63449836 0.32112798 -0.51497209 74 6
-0.61266553 0.20309235 -0.51689917 90 5
-0.24259216 0.12217744 -0.22630529 47 4
-0.2427904 0.081292026 -0.23470671 83 3
-0.2198171 0.11151665 -0.24995862 25 2
-0.29368392 0.096250564 -0.35995173 10 1
-0.28726739 0.14780372 -0.40552607 7 0
-1.632759 0.55880308 0.4511629 58 31
-1.5699002 0.78330082 0.39793903 67 30
-1.6303988 0.55956244 0.32583368 66 29
-1.5719658 0.78366959 0.26928237 73 28
-1.6262637 0.5597102 0.20569691 73 27
-1.5813866 0.78839463 0.16556242 76 26
-1.6363896 0.56381124 0.11799403 73 25
-1.5800548 0.7877354 0.080705784 74 24
-1.6300859 0.56259745 0.039226241 76 23
-1.5771277 0.78661549 0 74 22
-1.6299877 0.56288195 -0.039226241 80 21
-1.5707103 0.78408992 -0.080239952 73 20
-1.6266003 0.56172395 -0.11671145 74 19
-1.5792985 0.78907293 -0.15535997 74 18
-1.641086 0.56703019 -0.19475138 70 17
-1.5793231 0.78976786 -0.24048644 73 16
-1.6323742 0.56341583 -0.29499292 66 15
-1.5713513 0.78881103 -0.49317768 58 13
-1.629534 0.56182319 -0.38678083 63 14
-1.573913 0.79213297 -0.59738785 56 12
-1.6248312 0.55649656 -0.68049836 56 11
-1.5749834 0.79877245 -0.919258 65 9
-1.6305617 0.55658841 -0.79290009 63 10
-1.5752212 0.80264032 -1.0474926 63 8
-0.78412271 0.26544872 -0.53667343 33 7
-0.64038932 0.32709536 -0.5210306 80 6
-0.61191702 0.20533653 -0.51689917 90 5
-0.23573159 0.11972692 -0.21939522 45 4
-0.23923013 0.081119999 -0.23106785 80 3
-0.21942651 0.11228328 -0.24995862 25 2
-0.29044345 0.0964026 -0.35597438 10 1
-0.29184037 0.1515716 -0.41367733 7 0
-1.6329834 0.56557077 0.45180741 58 31
-1.5648445 0.78795135 0.39737535 67 30
-1.6283368 0.56553441 0.32583368 66 29
-1.5712881 0.79053879 0.26966873 73 28
-1.6242014 0.56566703 0.20569691 73 27
-1.5762645 0.79306406 0.16532454 77 26
-1.6319562 0.56898749 0.11782051 73 25
-1.5749277 0.79239613 0.080589324 74 24
-1.630473 0.56910437 0.039284267 76 23
-1.5786973 0.79464424 0 74 22
-1.6326348 0.57049459 -0.039342295 76 21
-1.5724218 0.79181987 -0.080472864 74 20
-1.626886 0.56850135 -0.1168841 74 19
-1.5786178 0.79597998 -0.15558352 74 18
-1.6344049 0.57112324 -0.19418277 70 17
-1.5786272 0.7966696 -0.2408305 72 16
-1.628071 0.56830204 -0.29456353 67 15
-1.570731 0.79537988 -0.49386552 56 13
-1.6251618 0.56699252 -0.38622272 59 14
-1.5690329 0.79654986 -0.59657061 58 12
-1.6272609 0.5636754 -0.68237299 55 11
-1.5720451 0.80453968 -0.919258 65 9
-1.6286088 0.56227672 -0.79290009 66 10
-1.5743114 0.80911458 -1.0487858 66 8
-0.78319132 0.26818421 -0.53667343 34 7
-0.63571393 0.32749441 -0.51800138 81 6
-0.60938698 0.20686615 -0.51528388 90 5
-0.24331152 0.12475055 -0.22803281 51 4
-0.23406002 0.080345482 -0.22560956 81 3
-0.2147336 0.11081398 -0.24423438 23 2
-0.29442888 0.098816536 -0.36194041 10 1
-0.28875595 0.1512225 -0.40960172 7 0
-1.6309992 0.57126755 0.45180741 56 31
-1.5729353 0.79893762 0.40019363 67 30
-1.6333046 0.57364529 0.32725447 67 29
-1.5729213 0.79825991 0.27044141 74 28
-1.6269007 0.57297516 0.20630279 70 27
-1.58014 0.80194855 0.16603817 76 26
-1.6299599 0.57468063 0.11782051 73 25
-1.5810541 0.80242074 0.081055157 73 24
-1.6261185 0.57396382 0.039226241 76 23
-1.5825971 0.80355388 0 73 22
-1.6329913 0.57701951 -0.039400321 74 21
-1.5718734 0.7984376 -0.080589324 73 20
-1.6295972 0.57583201 -0.11722939 73 19
-1.5802658 0.80374867 -0.1560306 74 18
-1.6370875 0.57847327 -0.19475138 69 17
-1.5758365 0.80217516 -0.2408305 72 16
-1.6330481 0.57643092 -0.29585171 66 15
-1.5722233 0.80304992 -0.49524119 56 13
-1.6277711 0.5742768 -0.38733897 61 14
-1.5704461 0.80418116 -0.59820509 56 12
-1.6252832 0.56935221 -0.68237299 55 11
-1.5692272 0.81002223 -0.919258 65 9
-1.6266361 0.56795818 -0.79290009 62 10
-1.5733757 0.81559235 -1.0500791 65 8
-0.79008508 0.27360031 -0.54227841 34 7
-0.62928194 0.32694155 -0.51345748 80 6
-0.60685372 0.20838061 -0.51366854 90 5
-0.24447152 0.126445 -0.22976033 51 4
-0.23215154 0.080619968 -0.22379012 78 3
-0.21576945 0.11232544 -0.24614246 22 2
-0.29264256 0.099371761 -0.35995173 10 1
-0.28567752 0.15085368 -0.40552607 7 0
-1.6267173 0.57615417 0.4511629 58 31
-1.5679708 0.80330998 0.39962995 67 30
-1.6289777 0.57852483 0.32678086 65 29
-1.5657308 0.80148906 0.26966873 73 28
-1.6248906 0.57865059 0.20630279 70 27
-1.577472 0.80718404 0.16603817 76 26
-1.6326447 0.58203501 0.11816755 72 25
-1.5760218 0.80679393 0.080938697 74 24
-1.6217501 0.57879972 0.039168216 76 23
-1.575335 0.80678856 0 73 22
-1.6310689 0.5824315 -0.039400321 76 21
-1.5690769 0.80391961 -0.080589324 73 20
-1.6275771 0.58151686 -0.11722939 73 19
-1.5798059 0.81012356 -0.15625413 74 18
-1.632718 0.58335185 -0.19446707 70 17
-1.5753694 0.80852973 -0.24117453 70 16
-1.631026 0.58212781 -0.29585171 66 15
-1.5715457 0.80963659 -0.49592903 55 13
-1.6281543 0.5804866 -0.38789707 59 14
-1.5676293 0.80965817 -0.59820509 58 12
-1.6233863 0.57473868 -0.68237299 55 11
-1.5724043 0.81828731 -0.92277557 62 9
-1.6289134 0.57513303 -0.79502583 62 10
-1.5725572 0.82179892 -1.0513723 61 8
-0.7852127 0.27500096 -0.53947592 34 7
-0.62995291 0.32995567 -0.51497209 87 6
-0.60977012 0.21162671 -0.51689917 90 5
-0.24086265 0.12555265 -0.22630529 51 4
-0.24000691 0.084126554 -0.23288728 72 3
-0.21539578 0.11304034 -0.24614246 21 2
-0.29374942 0.10081835 -0.36194041 8 1
-0.29026413 0.15456875 -0.41367733 7 0
-1.6247978 0.58154541 0.4511629 58 31
-1.5674608 0.80962569 0.40019363 66 30
-1.6316737 0.58557534 0.32772809 67 29
-1.5630643 0.80667681 0.26966873 73 28
-1.6182904 0.58236188 0.20569691 72 27
-1.5746447 0.81268555 0.16603817 76 26
-1.6307057 0.58744586 0.11816755 73 25
-1.57112 0.81086779 0.080822244 74 24
-1.6267762 0.58699208 0.039342295 76 23
-1.572651 0.81200814 0 76 22
-1.6266736 0.58727604 -0.039342295 76 21
-1.568478 0.81054103 -0.080705784 74 20
-1.6256397 0.5869109 -0.11722939 73 19
-1.5747582 0.81448644 -0.1560306 72 18
-1.6353463 0.59072864 -0.19503568 69 17
-1.5725375 0.81402385 -0.24117453 70 16
-1.6289841 0.58781761 -0.29585171 66 15
-1.5665786 0.81400645 -0.49524119 58 13
-1.6238246 0.58534336 -0.38733897 61 14
-1.5668875 0.81621951 -0.59902233 56 12
-1.6234521 0.58146304 -0.68331033 54 11
-1.5695382 0.823771 -0.92277557 62 9
-1.6247638 0.58005792 -0.79396296 63 10
-1.5752082 0.8305586 -1.0552518 62 8
-0.78620178 0.2784248 -0.54087716 32 7
-0.63049442 0.33319792 -0.5164867 84 6
-0.60899043 0.21386021 -0.51689917 90 5
-0.23880988 0.1255776 -0.22457777 50 4
-0.2364514 0.08389888 -0.22924842 77 3
-0.21499988 0.11379152 -0.24614246 21 2
-0.29050541 0.10093039 -0.35796306 10 1
-0.28207833 0.15145083 -0.40145043 7 0
-1.6249276 0.58831573 0.45180741 56 31
-1.5644828 0.81536525 0.40019363 66 30
-1.6225907 0.5890488 0.3263073 65 29
-1.5644758 0.81468749 0.27044141 73 28
-1.6184782 0.58913475 0.20599985 70 27
-1.5738612 0.81960368 0.16627604 76 26
-1.630886 0.59426922 0.11834107 73 25
-1.5703509 0.81777698 0.080938697 73 24
-1.6247172 0.59266704 0.039342295 76 23
-1.5718799 0.81892455 0 73 22
-1.6245103 0.59323418 -0.039342295 76 21
-1.5678524 0.81716806 -0.080822244 73 20
-1.6187899 0.59116083 -0.1168841 74 19
-1.5695562 0.819098 -0.15580705 72 18
-1.63094 0.59558481 -0.19475138 70 17
-1.5695434 0.81978202 -0.24117453 70 16
-1.6222925 0.59181881 -0.29499292 66 15
-1.5679826 0.82170659 -0.49661684 55 13
-1.6239588 0.59212244 -0.38789707 59 14
-1.5640289 0.821684 -0.59902233 56 12
-1.6257733 0.58869809 -0.68518502 55 11
-1.5704083 0.83159 -0.92512059 62 9
-1.6205995 0.58496088 -0.79290009 63 10
-1.568524 0.83403778 -1.0526655 62 8
-0.78327364 0.280476 -0.53947592 32 7
-0.6258238 0.33351329 -0.51345748 83 6
-0.60824025 0.21598469 -0.51689917 90 5
-0.23995805 0.12727301 -0.22630529 51 4
-0.23777793 0.085282788 -0.23106785 76 3
-0.21174955 0.11302388 -0.2423263 21 2
-0.29588962 0.10389172 -0.36591777 10 1
-0.28534928 0.1545382 -0.40756389 7 0
-1.6228641 0.59398419 0.45180741 58 31
-1.561627 0.8208214 0.40019363 67 30
-1.6228302 0.59555143 0.32678086 65 29
-1.5616225 0.82014352 0.27044141 73 28
-1.6164118 0.59478068 0.20599985 70 27
-1.5731928 0.82625246 0.16651392 74 26
-1.6264603 0.59909981 0.11816755 72 25
-1.5674869 0.82325345 0.080938697 73 24
-1.6202925 0.59747344 0.039284267 73 23
-1.5734352 0.82673758 0 73 22
-1.6247756 0.59976333 -0.039400321 76 21
-1.5649904 0.82263595 -0.080822244 72 20
-1.6167165 0.59680784 -0.1168841 74 19
-1.5732936 0.8280592 -0.15647767 73 18
-1.6335137 0.60298789 -0.19532 69 17
-1.5688617 0.82641256 -0.24151857 70 16
-1.6225288 0.59832686 -0.29542232 66 15
-1.5651047 0.8271749 -0.49661684 56 13
-1.6218821 0.5977875 -0.38789707 59 14
-1.5632374 0.82824731 -0.59983951 56 12
-1.6215308 0.59357607 -0.68424767 55 11
-1.5655496 0.83602393 -0.92394805 63 9
-1.6185477 0.59061426 -0.79290009 63 10
-1.5674872 0.84052157 -1.0539587 62 8
-0.78423887 0.2839067 -0.54087716 36 7
-0.62465584 0.3356958 -0.51345748 80 6
-0.60748261 0.21810652 -0.51689917 90 5
-0.23951232 0.12810983 -0.22630529 52 4
-0.23100328 0.083853453 -0.22379012 76 3
-0.21418011 0.1153271 -0.24614246 19 2
-0.2983909 0.10590788 -0.36989516 10 1
-0.28607276 0.15623896 -0.40960172 7 0
-1.6230477 0.60048032 0.45245194 58 31
-1.5587524 0.82626748 0.40019363 69 30
-1.625347 0.60291344 0.32772809 65 29
-1.5565689 0.82443082 0.27005506 73 28
-1.6189802 0.60214299 0.20660573 72 27
-1.5704441 0.83146477 0.16651392 74 26
-1.6266975 0.60564035 0.11834107 72 25
-1.5646036 0.82871997 0.080938697 73 24
-1.6205401 0.60399514 0.039342295 76 23
-1.5683321 0.83105171 0 73 22
-1.6227777 0.60514802 -0.039400321 74 21
-1.5643141 0.82926613 -0.080938697 73 20
-1.6216371 0.60505313 -0.11740204 73 19
-1.572737 0.83444154 -0.15670121 73 18
-1.631399 0.60868621 -0.19532 70 17
-1.5661125 0.83161056 -0.24151857 70 16
-1.6227393 0.60484374 -0.29585171 66 15
-1.5643275 0.83376628 -0.49730471 56 13
-1.6198908 0.60316253 -0.38789707 59 14
-1.5624192 0.83481508 -0.60065675 59 12
-1.6217284 0.59975064 -0.68518502 54 11
-1.5666541 0.84330916 -0.92629313 62 9
-1.6249731 0.5993799 -0.79715157 61 10
-1.5722146 0.84979463 -1.0591314 62 8
-0.78324312 0.28664246 -0.54087716 33 7
-0.62353921 0.3377654 -0.51345748 80 6
-0.6013661 0.21819206 -0.51205325 90 5
-0.23592204 0.12715669 -0.22285026 56 4
-0.23719193 0.086899303 -0.23106785 72 3
-0.21520709 0.11682376 -0.24805054 17 2
-0.29660684 0.10640008 -0.36790645 11 1
-0.2792415 0.1536376 -0.3994126 7 0
-1.6187835 0.60501683 0.45180741 58 31
-1.5581505 0.83258247 0.40075725 67 30
-1.6210388 0.6074419 0.32725447 65 29
-1.5603586 0.83308619 0.2712141 73 28
-1.6146501 0.60663897 0.20630279 72 27
-1.5675321 0.8369416 0.16651392 76 26
-1.6270158 0.61190605 0.11851459 72 25
-1.5640484 0.83508289 0.081055157 73 24
-1.6185284 0.60936576 0.039342295 76 23
-1.5721786 0.83978963 0 72 22
-1.6229955 0.61168694 -0.039458349 74 21
-1.5571536 0.8320896 -0.080705784 72 20
-1.6172869 0.60955113 -0.11722939 73 19
-1.5698147 0.8399263 -0.15670121 73 18
-1.627046 0.61322004 -0.19503568 69 17
-1.5653816 0.83824396 -0.24186261 70 16
-1.6207246 0.61022168 -0.29585171 65 15
-1.5636698 0.84008944 -0.49799252 55 13
-1.6200576 0.60966843 -0.38845521 59 14
-1.561721 0.8411147 -0.60147393 59 12
-1.6174529 0.60459965 -0.68424767 55 11
-1.5637009 0.84877264 -0.92629313 62 9
-1.6187333 0.60319138 -0.79502583 63 10
-1.5654843 0.85322458 -1.0565451 59 8
-0.7725668 0.28568068 -0.533871 32 7
-0.62409848 0.34089959 -0.51497209 83 6
-0.60598391 0.22223642 -0.51689917 90 5
-0.24179278 0.13149489 -0.22976033 52 4
-0.23688716 0.087726727 -0.23106785 72 3
-0.21479799 0.11757427 -0.24805054 15 2
-0.30195153 0.10944165 -0.3758612 10 1
-0.28248298 0.15675408 -0.40552607 7 0
-1.6189228 0.61151409 0.45245194 59 31
-1.5595204 0.84033251 0.40188456 66 30
-1.6212056 0.61396283 0.32772809 63 29
-1.5552676 0.83735406 0.27082774 73 28
-1.614844 0.61314905 0.20660573 72 27
-1.5689807 0.84477323 0.16698968 74 26
-1.629535 0.61934721 0.11886163 72 25
-1.5611238 0.84053737 0.081055157 72 24
-1.616284 0.61529386 0.039342295 76 23
-1.5648386 0.84289587 0 72 22
-1.6185136 0.61646235 -0.039400321 76 21
-1.5606836 0.84135467 -0.081055157 73 20
-1.6174812 0.61607724 -0.11740204 73 19
-1.5712529 0.84777105 -0.15714829 70 18
-1.6271099 0.62006062 -0.19532 70 17
-1.5646235 0.84488225 -0.24220666 70 16
-1.625386 0.61877674 -0.29713988 65 15
-1.5626919 0.84696287 -0.49868038 55 13
-1.6179196 0.61531973 -0.38845521 62 14
-1.5586276 0.84683299 -0.60147393 56 12
-1.6152261 0.61052388 -0.68424767 55 11
-1.5645995 0.8563512 -0.92863816 59 9
-1.6143928 0.6083256 -0.79396296 63 10
-1.56422 0.85998994 -1.0578382 65 8
-0.77733958 0.29066625 -0.53807467 32 7
-0.62284476 0.34318474 -0.51497209 78 6
-0.6051653 0.22445598 -0.51689917 90 5
-0.23815766 0.13061093 -0.22630529 54 4
-0.23495115 0.08801274 -0.22924842 74 3
-0.2200065 0.12151088 -0.25568286 14 2
-0.30012077 0.11004066 -0.37387252 10 1
-0.27939215 0.1563507 -0.40145043 7 0
-1.6144127 0.61658502 0.45180741 58 31
-1.5564297 0.84604287 0.40188456 66 30
-1.6143569 0.61815161 0.32678086 65 29
-1.5521883 0.84304881 0.27082774 74 28
-1.6125858 0.6190635 0.20660573 70 27
-1.565874 0.85051817 0.16698968 73 26
-1.6249248 0.62442422 0.11868811 72 25
-1.5602257 0.84744811 0.081171617 73 24
-1.6164604 0.62182611 0.039400321 73 23
-1.5683241 0.85221469 0 72 22
-1.6209105 0.62418002 -0.039516374 74 21
-1.5599297 0.84799266 -0.081171617 70 20
-1.617541 0.62289447 -0.1175747 73 19
-1.5703207 0.85471743 -0.15737183 70 18
-1.6249354 0.62573653 -0.19532 69 17
-1.5636894 0.85179842 -0.2425507 69 16
-1.6209164 0.62356555 -0.29671049 65 15
-1.5618335 0.85356784 -0.49936819 58 13
-1.6156534 0.62124562 -0.38845521 59 14
-1.561874 0.85568213 -0.60392559 58 12
-1.619584 0.61862963 -0.68705964 54 11
-1.5614502 0.86208004 -0.92863816 62 9
-1.6207231 0.61716545 -0.79821444 63 10
-1.5668181 0.86856449 -1.0617179 63 8
-0.77438104 0.29265252 -0.53667343 34 7
-0.62164301 0.34535679 -0.51497209 77 6
-0.60616785 0.22722873 -0.51851451 90 5
-0.23770028 0.13144146 -0.22630529 55 4
-0.239475 0.090594098 -0.23470671 70 3
-0.22096181 0.12311848 -0.25759095 14 2
-0.30116066 0.11159956 -0.3758612 11 1
-0.28135407 0.15877146 -0.40552607 7 0
-1.619015 0.62481594 0.45374098 56 31
-1.5513326 0.85029727 0.40132093 66 30
-1.6144799 0.62466562 0.32725447 65 29
-1.5535657 0.85084021 0.27160043 73 28
-1.6173599 0.62737125 0.20751455 70 27
-1.5650767 0.85717702 0.16722755 73 26
-1.6204091 0.62919301 0.11851459 72 25
-1.5594468 0.85409153 0.081288077 70 24
-1.6142801 0.62746483 0.039400321 73 23
-1.5653398 0.85768396 0 73 22
-1.6187217 0.62983418 -0.039516374 73 21
-1.5569601 0.85343271 -0.081171617 70 20
-1.6130313 0.62763578 -0.11740204 73 19
-1.569509 0.86139429 -0.15759537 70 18
-1.6250573 0.63230211 -0.19560429 69 17
-1.5607065 0.85725158 -0.2425507 67 16
-1.6187298 0.62921983 -0.29671049 63 15
-1.5588444 0.85901451 -0.49936819 58 13
-1.6157477 0.62776071 -0.38901332 62 14
-1.5588776 0.86112881 -0.60392559 58 12
-1.6152512 0.6234479 -0.6861223 54 11
-1.5603594 0.86860174 -0.9298107 61 9
-1.6143328 0.6212002 -0.7960887 61 10
-1.5637767 0.87402844 -1.0617179 63 8
-0.77529132 0.29608598 -0.53807467 36 7
-0.62043375 0.34752461 -0.51497209 78 6
-0.6000089 0.22733954 -0.51366854 90 5
-0.23724003 0.1322704 -0.22630529 52 4
-0.23593977 0.090243734 -0.23106785 76 3
-0.21633273 0.12146825 -0.2518667 12 2
-0.30219334 0.11316703 -0.37784988 11 1
-0.27954596 0.159025 -0.40348825 7 0
-1.6145723 0.6295892 0.45309645 58 31
-1.5526158 0.85806888 0.40244824 66 30
-1.6191521 0.63296878 0.32867527 67 29
-1.5462649 0.85386449 0.27082774 74 28
-1.61516 0.63301313 0.20751455 70 27
-1.5687574 0.86597842 0.16794118 72 26
-1.6228489 0.63666064 0.11886163 69 25
-1.5542713 0.85831976 0.081171617 72 24
-1.6120799 0.63309586 0.039400321 73 23
-1.56671 0.86556607 0 72 22
-1.6189518 0.63610941 -0.039574403 74 21
-1.5561559 0.86007297 -0.081288077 70 20
-1.6154753 0.63508093 -0.11774734 73 19
-1.5688214 0.8678022 -0.1578189 69 18
-1.6251532 0.63887626 -0.19588861 69 17
-1.5643499 0.86602837 -0.24358284 69 16
-1.6165235 0.63486642 -0.29671049 62 15
-1.5579361 0.86562067 -0.50005603 55 13
-1.615927 0.63400209 -0.38957146 61 14
-1.5599875 0.86886966 -0.60556006 56 12
-1.6174963 0.63047785 -0.68799692 54 11
-1.5574704 0.87377131 -0.9298107 59 9
-1.6163751 0.62846506 -0.79821444 61 10
-1.5627325 0.8802619 -1.0630112 63 8
-0.77231908 0.29805154 -0.53667343 33 7
-0.61063528 0.34466049 -0.50739902 80 6
-0.60282201 0.23067562 -0.51689917 90 5
-0.23366694 0.13125473 -0.22285026 54 4
-0.23724601 0.091623835 -0.23288728 78 3
-0.21453209 0.12137341 -0.24995862 11 2
-0.30466107 0.11521177 -0.38182727 10 1
-0.28401604 0.16287814 -0.41163954 7 0
-1.6124758 0.63493991 0.45309645 58 31
-1.5476354 0.86202496 0.40188456 66 30
-1.6170443 0.63833457 0.32867527 65 29
-1.5498952 0.86259907 0.27198678 73 28
-1.6107433 0.6374557 0.20721161 70 27
-1.565725 0.87144917 0.16794118 74 26
-1.6184087 0.64112341 0.11868811 72 25
-1.5535971 0.86468643 0.081288077 73 24
-1.614509 0.6405561 0.039516374 72 23
-1.563831 0.87075675 0 73 22
-1.6143972 0.64083779 -0.039516374 73 21
-1.555324 0.86671805 -0.08140453 69 20
-1.6087217 0.63860071 -0.11740204 73 19
-1.5636094 0.87205756 -0.15759537 70 18
-1.6229132 0.6445452 -0.19588861 69 17
-1.5613174 0.87148368 -0.24358284 67 16
-1.6188787 0.64231539 -0.29756927 65 15
-1.5570003 0.87223089 -0.50074387 54 13
-1.6091706 0.63784945 -0.38845521 59 14
-1.5590036 0.87546915 -0.60637724 55 12
-1.6108594 0.63470924 -0.6861223 55 11
-1.5563313 0.8802923 -0.93098325 59 9
-1.6099566 0.63245511 -0.7960887 62 10
-1.5576367 0.88492423 -1.0617179 62 8
-0.77320546 0.30149129 -0.53807467 33 7
-0.60936791 0.34689623 -0.50739902 78 6
-0.59484184 0.23016205 -0.51043797 90 5
-0.23162103 0.13120371 -0.22112274 59 4
-0.23369941 0.091284603 -0.22924842 76 3
-0.21968231 0.12538725 -0.25759095 11 2
-0.30423677 0.11632763 -0.38182727 10 1
-0.27967602 0.16170903 -0.40552607 7 0
-1.6101377 0.64084566 0.45309645 58 31
-1.5423434 0.86649585 0.40132093 66 30
-1.6169751 0.64516354 0.32914886 66 29
-1.5445707 0.86706209 0.27160043 72 28
-1.6107014 0.64427352 0.20751455 70 27
-1.5603517 0.87596101 0.1677033 72 26
-1.6183646 0.64797467 0.11886163 69 25
-1.5504174 0.8703748 0.081288077 72 24
-1.6122632 0.64618784 0.039516374 72 23
-1.5649855 0.87893635 0 70 22
-1.6143584 0.64767802 -0.039574403 74 21
-1.5501134 0.87091607 -0.081288077 69 20
-1.6133183 0.64726895 -0.11792 73 19
-1.5604026 0.87778264 -0.15759537 70 18
-1.6206534 0.65020633 -0.19588861 69 17
-1.5559564 0.87598288 -0.24323879 66 16
-1.618914 0.64887542 -0.29799867 65 15
-1.5539463 0.87766051 -0.50074387 56 13
-1.6136121 0.64645213 -0.39012957 58 14
-1.5538836 0.87973917 -0.60556006 58 12
-1.608634 0.64032835 -0.6861223 55 11
-1.5530945 0.88599056 -0.93098325 61 9
-1.6119483 0.63973409 -0.79821444 62 10
-1.552683 0.88929015 -1.0604247 62 8
-0.7702195 0.30343601 -0.53667343 32 7
-0.60987478 0.35001755 -0.50891364 78 6
-0.59581506 0.23292363 -0.51205325 90 5
-0.23584192 0.13474746 -0.22630529 62 4
-0.23818678 0.093928859 -0.23470671 70 3
-0.21922126 0.12619159 -0.25759095 11 2
-0.3052474 0.1179207 -0.38381594 10 1
-0.27164304 0.15824024 -0.39329916 4 0
-1.6123756 0.64825779 0.45438549 58 31
-1.5477806 0.87668663 0.40357554 65 30
-1.6169913 0.65171826 0.32962245 62 29
-1.5479789 0.87610626 0.27275947 70 28
-1.6084425 0.64989197 0.20751455 69 27
-1.559449 0.88263083 0.16794118 74 26
-1.6160929 0.65361983 0.11886163 69 25
-1.5517135 0.87824708 0.081520997 72 24
-1.6076798 0.65087712 0.039458349 72 23
-1.5597339 0.88315928 0 72 22
-1.6120878 0.65330923 -0.039574403 74 21
-1.5492353 0.87755513 -0.08140453 69 20
-1.6087363 0.65196306 -0.11774734 73 19
-1.5594935 0.8844552 -0.1578189 69 18
-1.6206771 0.65678912 -0.19617291 69 17
-1.5571932 0.88385886 -0.24392687 67 16
-1.6166393 0.65452254 -0.29799867 65 15
-1.5550474 0.8854633 -0.50211954 55 13
-1.6113458 0.65208071 -0.39012957 58 14
-1.5549041 0.88750553 -0.60719448 56 12
