# .PCD v0.7 - Point Cloud Data file format
VERSION 0.7
FIELDS x y z intensity ring
SIZE 4 4 4 4 2
TYPE F F F F U
COUNT 1 1 1 1 1
WIDTH 951
HEIGHT 1
VIEWPOINT 0 0 0 1 0 0 0
POINTS 951
DATA ascii
0.98260647 -0.076497763 0.090869024 11 26
0.98234743 -0.079755783 0.090869024 11 26
0.99217534 -0.084051467 0.15028815 52 28
0.97710443 -0.082753122 0.090393275 44 26
0.98695606 -0.087069154 0.14951546 52 28
0.97433108 -0.085939094 0.090155393 51 26
0.98417115 -0.090454355 0.14912911 52 28
0.97896492 -0.089976288 0.09063115 52 26
0.98630774 -0.094129369 0.14951546 52 28
0.98113805 -0.093463711 0.090869024 54 26
0.97616029 -0.096406288 0.14797008 52 28
0.98328191 -0.097138152 0.091106899 54 26
0.98564416 -0.10084072 0.14951546 54 28
0.9829368 -0.10056987 0.091106899 54 26
0.97132105 -0.099361271 0.043904878 10 24
0.98281229 -0.10418671 0.14912911 52 28
0.98503584 -0.10443974 0.091344781 41 26
0.97839868 -0.10372719 0.044254255 7 24
0.98980665 -0.10844015 0.15028815 52 28
0.98468405 -0.10770566 0.091344781 47 26
0.97058517 -0.10630929 0.043904878 34 24
0.98698783 -0.11143926 0.14990181 54 28
0.98677444 -0.11142694 0.091582656 54 26
0.9702273 -0.10952729 0.043904878 48 24
0.99149835 -0.11546615 0.15067449 54 28
0.9863795 -0.11487076 0.091582656 55 26
0.97231901 -0.11320774 0.044021338 48 24
0.99108922 -0.11892642 0.15067449 54 28
0.98844266 -0.11861515 0.091820531 55 26
0.97439665 -0.11690412 0.044137795 48 24
0.99554789 -0.12317556 0.15144718 52 28
0.99047053 -0.12254822 0.092058413 54 26
0.98139483 -0.12141106 0.044487171 48 24
0.9877634 -0.12569812 0.15028815 54 28
0.99005866 -0.12583208 0.092058413 54 26
0.97601181 -0.12419447 0.044254255 50 24
0.97205436 -0.12385435 0 10 22
0.99223799 -0.12962376 0.15106083 54 28
0.98961341 -0.12928724 0.092058413 54 26
0.98054564 -0.12808833 0.044487171 22 24
0.97163832 -0.12707712 0 23 22
0.996674 -0.13375439 0.15183352 52 28
0.99162185 -0.13307732 0.092296287 54 26
0.98009253 -0.1315103 0.044487171 7 24
0.96871179 -0.13012958 0 50 22
0.99617708 -0.13740648 0.15183352 52 28
0.9886629 -0.1363654 0.092058413 52 26
0.97960395 -0.13510165 0.044487171 7 24
0.9682284 -0.1336792 0 52 22
0.99813622 -0.14123438 0.15221988 51 28
0.9980588 -0.14105785 0.093009919 51 26
0.98901385 -0.13994154 0.044953004 4 24
0.97270483 -0.13777043 0 52 22
0.99277508 -0.14382447 0.15144718 52 28
0.99756038 -0.14454088 0.093009919 51 26
0.98360306 -0.14249344 0.044720087 3 24
0.9697693 -0.14063092 0 55 22
0.99470937 -0.1476571 0.15183352 50 28
0.99458891 -0.14765126 0.092772037 34 26
0.9929772 -0.14741455 0.04518592 7 24
0.97421658 -0.14476115 0 56 22
0.97314626 -0.14494698 -0.044254255 10 20
0.9917205 -0.15092486 0.15144718 48 28
0.99158156 -0.15091574 0.092534162 8 26
0.99489832 -0.15143418 0.04530238 8 24
0.97120881 -0.14794883 0 58 22
0.97263438 -0.14834303 -0.044254255 8 20
0.99362731 -0.15477124 0.15183352 47 28
0.99842316 -0.15554146 0.093247794 4 26
1.0017637 -0.15607551 0.045651756 10 24
0.97562504 -0.15211938 0 58 22
0.95484489 -0.1490026 -0.043439046 41 20
1.0052727 -0.16020896 0.15376526 43 28
1.0077013 -0.16061378 0.0941993 4 26
1.0012127 -0.15957135 0.045651756 10 24
0.97755599 -0.15592329 0 58 22
0.96171439 -0.15353255 -0.043788418 50 20
1.0047073 -0.16371705 0.15376526 10 28
1.0071632 -0.16395454 0.0941993 7 26
1.0080414 -0.16428632 0.046001129 11 24
0.97207272 -0.15851888 0 63 22
0.95378137 -0.155665 -0.043439046 51 20
1.0164008 -0.1691242 0.095150813 7 26
0.99517828 -0.16555229 0.045418836 10 24
0.98140228 -0.16340576 0 58 22
0.96064711 -0.16007511 -0.043788418 51 20
1.0084466 -0.17140414 0.094437182 8 26
0.99705541 -0.16944888 0.045535296 11 24
0.9808259 -0.16683049 0 56 22
0.9649756 -0.16444512 -0.044021338 51 20
0.96219975 -0.16430524 -0.084497944 8 18
1.0151007 -0.17636941 0.15569697 4 28
1.0176156 -0.1768243 0.095388688 10 26
1.0013466 -0.1739677 0.045768213 40 24
0.97774577 -0.16999058 0 58 22
0.96193635 -0.16737886 -0.043904878 51 20
0.96649498 -0.16869812 -0.084945023 17 18
1.0169101 -0.18034826 0.15608333 4 28
1.0145426 -0.17993553 0.095150813 8 26
0.99335939 -0.17613788 0.045418836 54 24
0.97960699 -0.17384481 0 54 22
0.96380401 -0.17117785 -0.044021338 19 20
0.95854902 -0.17074411 -0.084274404 44 18
1.0284544 -0.18594247 0.15801504 8 28
1.0065964 -0.18195498 0.094437182 8 26
1.0050523 -0.18167862 0.046001129 56 24
0.98148417 -0.17754278 0 56 22
0.96077478 -0.17392261 -0.043904878 8 20
0.96532434 -0.17527288 -0.084945023 52 18
1.0253711 -0.18907824 0.1576287 10 28
1.0108479 -0.18638057 0.094912939 8 26
1.0019571 -0.18472771 0.045884673 58 24
0.9808585 -0.18096772 0 58 22
0.97240424 -0.17973976 -0.044487171 4 20
0.97449595 -0.18047696 -0.085839175 54 18
1.0343767 -0.19468306 0.15917408 12 28
1.0052686 -0.18915331 0.094437182 8 26
1.0037265 -0.18886591 0.046001129 55 24
0.98264444 -0.18502957 0 56 22
0.96931779 -0.18266504 -0.044370711 7 20
0.97138226 -0.18357961 -0.085615635 54 18
1.0191424 -0.19546986 0.15685602 11 28
1.007079 -0.19295946 0.094675057 34 26
1.0006095 -0.19189277 0.045884673 52 24
0.98935497 -0.18988828 0 56 22
0.97847986 -0.1879535 -0.044836547 7 20
0.97076815 -0.18679982 -0.085615635 54 18
1.023335 -0.19980533 0.1576287 12 28
0.97838497 -0.062474959 0.11542051 7 27
1.0137239 -0.19791993 0.095388688 48 26
1.0024177 -0.19569363 0.046001129 51 24
0.98136216 -0.19171387 0 55 22
0.98030102 -0.19168185 -0.044953004 7 20
0.97499502 -0.19115628 -0.086062714 54 18
1.0250527 -0.20386314 0.15801504 11 28
0.97568458 -0.065729208 0.11511756 17 27
1.0203462 -0.20292915 0.09610232 50 26
0.99683195 -0.19820689 0.045768213 52 24
0.98803961 -0.19661817 0 17 22
0.98452216 -0.19608893 -0.04518592 8 20
0.97920316 -0.19554451 -0.086509794 54 18
1.012236 -0.20496309 0.15608333 47 28
0.97792494 -0.069303803 0.11542051 33 27
1.0171936 -0.20599046 0.095864438 51 26
1.0034736 -0.20318787 0.046117589 51 24
0.97999984 -0.19856034 0 12 22
0.97645807 -0.19818963 -0.044836547 7 20
0.98095357 -0.19946291 -0.086733334 55 18
1.0114779 -0.20867175 0.15608333 51 28
0.97766441 -0.072887607 0.11542051 40 27
1.018868 -0.21022534 0.09610232 50 26
1.0002775 -0.20635459 0.046001129 48 24
0.98660731 -0.20368333 0 12 22
0.98064935 -0.20261826 -0.045069464 8 20
0.96803039 -0.2005046 -0.085615635 63 18
1.0083271 -0.21168847 0.15569697 52 28
0.977404 -0.076299846 0.11542051 40 27
1.0181652 -0.21360287 0.09610232 43 26
0.99222237 -0.20828986 0.045651756 32 24
0.98589027 -0.20712599 0 14 22
0.98237878 -0.20655933 -0.04518592 7 20
0.97710174 -0.20578779 -0.086509794 55 18
1.0148631 -0.21659316 0.15685602 51 28
0.98209333 -0.079930887 0.11602639 37 27
1.012548 -0.21610637 0.09562657 25 26
0.99640858 -0.21263197 0.045884673 14 24
0.99008542 -0.2114491 0 40 22
0.96948349 -0.20717934 -0.044603627 8 20
0.97881103 -0.20972431 -0.086733334 55 18
1.0141008 -0.22013438 0.15685602 50 28
0.97933519 -0.083154775 0.11572345 40 27
1.0239418 -0.22230512 0.096815944 11 26
1.0029783 -0.21771373 0.046234049 45 24
0.9917832 -0.21543984 0 55 22
0.97115672 -0.21126753 -0.044720087 30 20
0.98050475 -0.21367525 -0.086956874 56 18
1.0132872 -0.22384977 0.15685602 48 28
0.97902387 -0.08674366 0.11572345 36 27
1.0255492 -0.22659862 0.097053826 8 26
0.98868054 -0.087916568 0.066631921 8 25
1.0070482 -0.22247621 0.046466965 55 24
0.99342686 -0.21961839 0 61 22
0.97528756 -0.21574573 -0.044953004 32 20
0.97971505 -0.21726756 -0.086956874 58 18
1.0100908 -0.22683905 0.15646966 48 28
0.98118669 -0.090382017 0.11602639 12 27
1.0296463 -0.2310984 0.097529583 8 26
0.98836762 -0.09136717 0.066631921 14 25
1.0087008 -0.22654253 0.046583425 55 24
0.9902162 -0.2225313 0 59 22
0.97452849 -0.21914881 -0.044953004 7 20
0.97898912 -0.22051521 -0.086956874 56 18
1.0117401 -0.23074175 0.15685602 48 28
0.98829448 -0.094324224 0.11693521 7 27
1.0312585 -0.23524967 0.097767465 10 26
0.99054241 -0.094875887 0.066805445 34 25
1.0103776 -0.23044674 0.046699882 58 24
0.98947281 -0.22581378 0 58 22
0.98596334 -0.22518598 -0.045535296 4 20
0.9806394 -0.22449215 -0.087180413 61 18
1.0157384 -0.23539749 0.1576287 48 28
0.98548907 -0.097535163 0.11663227 3 27
1.0280077 -0.238281 0.097529583 21 26
0.98524052 -0.097852282 0.066458404 43 25
1.009567 -0.23397221 0.046699882 58 24
0.99354684 -0.23040634 0 54 22
0.97787708 -0.22691676 -0.04518592 4 20
0.97742581 -0.22734441 -0.086956874 61 18
1.0197165 -0.24008395 0.15840138 50 28
0.99748892 -0.10220908 0.11814697 3 27
1.0271698 -0.24186797 0.097529583 50 26
0.9799298 -0.10079281 0.066111363 44 25
1.011174 -0.23807229 0.046816342 55 24
0.99030435 -0.23329455 0 54 22
0.98675603 -0.23281431 -0.045651756 4 20
0.98147023 -0.23191066 -0.087403953 58 18
1.0356363 -0.24787949 0.16110581 36 28
0.98970258 -0.10509652 0.11723815 4 27
1.0286955 -0.24621543 0.097767465 50 26
0.99443734 -0.10593232 0.067152485 45 25
1.0127219 -0.2423632 0.046932798 55 24
0.98701268 -0.23633522 0 52 22
0.98836464 -0.23684452 -0.045768213 7 20
0.9878732 -0.23726669 -0.088074572 62 18
1.0419612 -0.25325802 0.16226484 14 28
0.99673194 -0.10934428 0.11814697 4 27
1.0254563 -0.24903299 0.097529583 52 26
0.9915818 -0.10913615 0.066978961 47 25
1.0142952 -0.24649161 0.047049258 52 24
0.98618168 -0.23977908 0 11 22
0.99723274 -0.24267587 -0.046234049 7 20
0.98949891 -0.24113607 -0.088298112 58 18
1.0411156 -0.25671187 0.16226484 26 28
1.0086966 -0.11401268 0.11966167 7 27
1.0269957 -0.25321177 0.097767465 51 26
0.99121445 -0.11242376 0.066978961 47 25
1.0134722 -0.24985379 0.047049258 54 24
0.97584289 -0.11105738 0.021992227 8 23
0.99508488 -0.24546388 0 4 22
0.99157602 -0.24477403 -0.046001129 8 20
0.98865116 -0.2445886 -0.088298112 55 18
1.0378186 -0.25973985 0.1618785 39 28
1.005827 -0.11725164 0.11935873 7 27
1.0333444 -0.2586228 0.098481089 50 26
0.99329376 -0.11616668 0.067152485 47 25
1.0125939 -0.25338992 0.047049258 52 24
0.97294641 -0.11434775 0.0219342 19 23
0.9893744 -0.24771103 0 3 22
0.99067217 -0.24840668 -0.046001129 8 20
0.9877913 -0.24803814 -0.088298112 62 18
1.0320743 -0.26231506 0.16110581 48 28
1.0053904 -0.12093738 0.11935873 8 27
1.0372108 -0.26364458 0.098956846 48 26
0.99533814 -0.1200992 0.067326002 48 25
1.0140773 -0.25771978 0.047165714 51 24
0.97254133 -0.11774326 0.0219342 39 23
0.99814612 -0.25382084 0 4 22
0.98738021 -0.25124222 -0.045884673 10 20
0.98928708 -0.25227743 -0.088521652 58 18
1.028762 -0.26529428 0.16071945 50 28
1.0049621 -0.12444612 0.11935873 10 27
1.0363309 -0.26708263 0.098956846 48 26
0.99243712 -0.1232715 0.067152485 47 25
1.005921 -0.25937209 0.046816342 39 24
0.97956711 -0.12204593 0.022108281 44 23
0.99725407 -0.25730348 0 4 22
0.98649722 -0.25468725 -0.045884673 10 20
1.0278766 -0.26870435 0.16071945 51 28
0.99469393 -0.12654939 0.11814697 10 27
1.0377988 -0.27133295 0.099194728 48 26
0.99449754 -0.12687142 0.067326002 48 25
1.019544 -0.26652634 0.047515094 7 24
0.98163682 -0.1256047 0.022166308 45 23
1.0036471 -0.2625224 0 7 22
0.99289095 -0.25986975 -0.046234049 10 20
1.0269324 -0.27229065 0.16071945 51 28
0.99916899 -0.13065225 0.11875285 11 27
1.0344411 -0.27431104 0.098956846 48 26
0.99652225 -0.13066028 0.067499526 48 25
1.0210199 -0.27072868 0.047631547 3 24
0.97871369 -0.12871075 0.022108281 47 23
1.0123848 -0.26860899 0 7 22
0.99921465 -0.26527175 -0.046583425 21 20
1.0307434 -0.27716634 0.16149215 51 28
1.0011671 -0.13446355 0.11905579 37 27
1.0406832 -0.27987397 0.099670477 47 26
0.99853253 -0.13446483 0.067673042 47 25
1.0152481 -0.27298403 0.047398631 4 24
0.97823536 -0.13229705 0.022108281 45 23
1.0162666 -0.27345046 0 8 22
0.9910059 -0.26696798 -0.046234049 54 20
1.0368651 -0.28290763 0.1626512 51 28
0.99329031 -0.13713202 0.11814697 45 27
1.0444992 -0.28482416 0.10014623 8 26
0.99803305 -0.13812374 0.067673042 48 25
1.02628 -0.2800149 0.047980927 4 24
0.98272043 -0.13638586 0.022224335 26 23
1.0273092 -0.28049079 0 7 22
0.9802202 -0.13621949 -0.022166308 12 21
0.99247563 -0.27108878 -0.046350509 61 20
1.0335419 -0.28568146 0.16226484 51 28
1.0026619 -0.14179118 0.11935873 48 27
1.0458958 -0.28913641 0.1003841 4 26
0.9975695 -0.14143257 0.067673042 47 25
1.0253458 -0.28341666 0.047980927 7 24
0.97236156 -0.13826121 0.021992227 12 23
1.0215572 -0.28255302 0 7 22
0.97973877 -0.13964024 -0.022166308 36 21
0.99157119 -0.27437845 -0.046350509 63 20
1.077157 -0.30227482 0.25082558 44 30
1.0420464 -0.29197255 0.16381021 8 28
0.9972474 -0.14459008 0.11875285 48 27
1.0400903 -0.2914328 0.099908352 4 26
1.0044764 -0.14597195 0.068193607 45 25
1.021947 -0.28631538 0.047864471 7 24
0.97679633 -0.14253367 0.022108281 11 23
1.0205647 -0.28611717 0 7 22
0.97677141 -0.14270416 -0.022108281 43 21
0.99296182 -0.27869087 -0.046466965 62 20
1.0737007 -0.30554941 0.25026193 45 30
1.0433438 -0.29646987 0.16419657 4 28
1.0016216 -0.14896238 0.11935873 48 27
1.0485849 -0.29798344 0.10085986 4 26
1.0088698 -0.15037605 0.068540648 37 25
1.0232915 -0.29074654 0.047980927 7 24
0.97629291 -0.14594245 0.022108281 10 23
1.0122993 -0.28778979 0 44 22
0.97624183 -0.14628322 -0.022108281 45 21
0.99678403 -0.28353193 -0.046699882 58 20
1.0679499 -0.30793643 0.24913463 47 30
1.0423026 -0.30011001 0.16419657 4 28
0.99864143 -0.15209013 0.11905579 48 27
1.0404205 -0.29937986 0.10014623 4 26
1.003406 -0.15315603 0.068193607 22 25
1.0318638 -0.29710028 0.04844676 7 24
0.98813486 -0.15120953 0.022398416 11 23
1.0088878 -0.29062456 0 50 22
0.98069423 -0.15026467 -0.022224335 47 21
0.99818641 -0.28770638 -0.046816342 56 20
1.071596 -0.31285074 0.25026193 45 30
1.0531508 -0.3070454 0.16612828 4 28
1.0030375 -0.1561525 0.11966167 44 27
1.0536958 -0.30721822 0.10157349 4 26
1.010288 -0.15761819 0.068714164 12 25
1.028477 -0.29981664 0.048330303 7 24
0.97774708 -0.15296465 0.022166308 19 23
1.0079184 -0.29396856 0 51 22
0.98263383 -0.15406807 -0.022282362 47 21
0.99722677 -0.29101488 -0.046816342 56 20
1.0704975 -0.31658942 0.25026193 45 30
1.0473378 -0.30931091 0.16535559 8 28
1.0098412 -0.16080588 0.1205705 33 27
1.0478463 -0.30947497 0.10109774 4 26
1.0097317 -0.16114381 0.068714164 39 25
1.0369985 -0.30625361 0.04879614 10 24
0.98458636 -0.15771502 0.022340389 40 23
1.0092821 -0.29819846 0 51 22
0.97715253 -0.15671778 -0.022166308 45 21
1.0081195 -0.29823515 -0.047398631 52 20
0.97515315 -0.15640834 -0.065952323 15 19
1.0693299 -0.32051086 0.25026193 45 30
1.0461971 -0.31314749 0.16535559 10 28
1.0141455 -0.16529272 0.12117638 19 27
1.0490876 -0.31403187 0.10133561 7 26
1.0042095 -0.16405126 0.068367124 47 25
1.0334781 -0.30933136 0.048679676 48 24
0.98649722 -0.16154876 0.022398416 47 23
1.0129693 -0.30333996 0 51 22
0.98397356 -0.16149437 -0.022340389 34 21
1.0046816 -0.30103058 -0.047282174 52 20
0.95980078 -0.15759407 -0.064916424 36 19
1.072863 -0.32566574 0.25138924 44 30
1.0521846 -0.31896156 0.16651464 8 28
1.0013181 -0.1668223 0.11966167 14 27
1.0503653 -0.31841877 0.10157349 7 26
1.0110136 -0.16876985 0.068887688 48 25
1.0300035 -0.3122077 0.048563223 47 24
0.99085945 -0.16580427 0.02251447 48 23
1.0166861 -0.3083351 0 47 22
0.98586971 -0.16533543 -0.022398416 12 21
1.0036247 -0.30453572 -0.047282174 54 20
0.97154832 -0.16297586 -0.065779679 43 19
1.0670663 -0.3279683 0.25026193 47 30
1.0557843 -0.32409152 0.16728732 10 28
1.0031772 -0.17072695 0.11996461 11 27
1.0421703 -0.31969613 0.10085986 4 26
1.0079588 -0.1718846 0.068714164 50 25
1.0289075 -0.31580117 0.048563223 25 24
0.99520385 -0.17009218 0.022630524 48 23
1.0132153 -0.31114325 0 26 22
0.98778051 -0.16901933 -0.022456443 8 21
1.0049411 -0.30877563 -0.047398631 47 20
0.97589195 -0.16719633 -0.066124976 47 19
1.0729457 -0.33368883 0.25195289 45 30
1.0570611 -0.32832819 0.16767366 10 28
1.0050515 -0.17447123 0.12026756 12 27
1.0529239 -0.32704687 0.10204925 39 26
1.0049251 -0.17480466 0.068540648 50 25
1.0373882 -0.32219356 0.049029056 8 24
0.99217111 -0.17296819 0.022572497 48 23
1.0217212 -0.31748858 0 10 22
0.98718452 -0.17246628 -0.022456443 7 21
1.008678 -0.31359917 -0.047631547 48 20
0.97533208 -0.17043158 -0.066124976 48 19
1.0694526 -0.33669609 0.25138924 47 30
1.0545468 -0.18580928 0.19985728 48 29
1.0559086 -0.33201605 0.16767366 11 28
1.0093255 -0.17883262 0.12087344 41 27
1.0422857 -0.32771525 0.10109774 30 26
1.0067655 -0.17874151 0.068714164 50 25
1.0386381 -0.32656667 0.049145512 4 24
0.99645382 -0.17746809 0.022688551 47 23
1.0229901 -0.32180822 0 8 22
0.9865765 -0.17591116 -0.022456443 4 21
1.0122826 -0.31880429 -0.047864471 51 20
0.97473127 -0.17383508 -0.066124976 50 19
1.0774875 -0.34359175 0.25364384 45 30
1.0417743 -0.18752709 0.19748932 47 29
1.0523326 -0.33512971 0.16728732 50 28
1.0111061 -0.18296681 0.12117638 47 27
1.0529265 -0.33533296 0.10228712 11 26
1.0110136 -0.18330844 0.069061212 48 25
1.0374341 -0.33037126 0.049145512 4 24
0.99828833 -0.18138616 0.022746576 32 23
1.0289451 -0.32784691 0 8 22
0.99822497 -0.18173462 -0.022746576 4 21
1.0087858 -0.32157245 -0.047748011 51 20
0.97899711 -0.17828809 -0.066470273 50 19
1.0762817 -0.34735084 0.25364384 45 30
1.0386978 -0.19072476 0.19701572 45 29
1.0535057 -0.33956343 0.16767366 51 28
1.0153443 -0.18738426 0.12178227 50 27
1.0541759 -0.33959052 0.102525 4 26
1.0128212 -0.18728405 0.069234729 48 25
1.0434005 -0.33630317 0.049494889 7 24
0.99519056 -0.18442029 0.022688551 11 23
1.0277945 -0.33143663 0 44 22
0.99269986 -0.18414408 -0.022630524 4 21
1.0147824 -0.32740697 -0.048097387 50 20
0.97591555 -0.18125498 -0.066297628 50 19
1.0774376 -0.35167828 0.25420749 45 30
1.0380596 -0.19416817 0.19701572 45 29
1.0523738 -0.34305507 0.16767366 52 28
1.0171572 -0.19120288 0.1220852 50 27
1.0577133 -0.34482032 0.10300075 4 26
1.0121945 -0.19064166 0.069234729 48 25
1.0446525 -0.34054011 0.049611345 7 24
0.9994877 -0.18863465 0.022804603 8 23
1.0195642 -0.33250308 0 54 22
0.99696481 -0.18852505 -0.022746576 7 21
1.0113186 -0.32999068 -0.047980927 51 20
0.97776085 -0.18494773 -0.066470273 51 19
1.080826 -0.35697392 0.25533479 44 30
1.0325508 -0.19688231 0.19606853 47 29
1.0535141 -0.34750491 0.16806002 52 28
1.0140452 -0.1942911 0.12178227 50 27
1.0635887 -0.35086331 0.10371439 4 26
1.0115229 -0.19417372 0.069234729 47 25
1.0434573 -0.34418458 0.049611345 8 24
0.99878955 -0.19229668 0.022804603 4 23
1.0255146 -0.33842486 0 55 22
0.9938454 -0.19153693 -0.022688551 8 21
1.0195807 -0.3368482 -0.04844676 50 20
0.97955942 -0.1888257 -0.066642925 51 19
1.0772021 -0.36015606 0.25477114 45 30
1.0318222 -0.20066547 0.19606853 45 29
1.0569158 -0.35293788 0.1688327 54 28
1.0108896 -0.19753632 0.12147932 48 27
1.0599366 -0.35396621 0.10347651 4 26
1.0181503 -0.19929975 0.069755293 45 25
1.0374545 -0.34641528 0.049378429 8 24
1.0054735 -0.19720748 0.022978684 3 23
1.026637 -0.3429783 0 56 22
1.002951 -0.19708242 -0.022920657 8 21
1.0207655 -0.34120169 -0.048563223 51 20
0.98375756 -0.19336472 -0.066988222 50 19
1.078244 -0.36469892 0.25533479 44 30
1.0407518 -0.20615129 0.19796291 45 29
1.053339 -0.35582992 0.16844636 51 28
1.012629 -0.20154242 0.12178227 48 27
1.0658259 -0.35988146 0.10419014 7 26
1.0198953 -0.20333441 0.06992881 41 25
1.0456963 -0.35325041 0.049844261 48 24
0.99987489 -0.19974855 0.02286263 4 23
1.0230668 -0.34575456 0 58 22
0.99738801 -0.1994389 -0.022804603 10 21
0.98307657 -0.19679752 -0.066988222 51 19
1.0816346 -0.36985764 0.2564621 43 30
1.0352474 -0.2086428 0.19701572 45 29
1.0591606 -0.36172968 0.16960539 52 28
1.0119551 -0.2048993 0.12178227 47 27
1.0598563 -0.36198172 0.10371439 8 26
1.0069886 -0.20426555 0.069061212 12 25
1.0445191 -0.35671613 0.049844261 55 24
1.0065584 -0.20453878 0.023036713 4 23
1.0242786 -0.34995839 0 61 22
1.0015863 -0.20390467 -0.022920657 12 21
0.98241854 -0.20005643 -0.066988222 52 19
1.0826374 -0.37443161 0.25702578 41 30
1.0417302 -0.21371837 0.19843651 44 29
1.0625573 -0.36704677 0.17037807 52 28
1.0185287 -0.20991594 0.12269108 45 27
1.0562356 -0.36486188 0.10347651 8 26
1.0136003 -0.20927483 0.069581769 8 25
1.0409088 -0.35953999 0.049727805 62 24
1.0106992 -0.20922834 0.023152767 4 23
1.0277733 -0.35517433 0 59 22
0.99352276 -0.20589578 -0.022746576 41 21
0.98415762 -0.20398472 -0.067160875 51 19
1.0812578 -0.37839717 0.25702578 41 30
1.045748 -0.21852812 0.19938371 45 29
1.0588751 -0.37011921 0.16999175 52 28
1.0128928 -0.21263947 0.1220852 43 27
1.0619341 -0.37120816 0.10419014 33 26
1.0152683 -0.21349593 0.069755293 4 25
1.0395842 -0.36335272 0.049727805 61 24
1.0050689 -0.21173628 0.023036713 7 23
1.031181 -0.36059889 0 55 22
0.99031478 -0.20902561 -0.022688551 51 21
0.98584479 -0.20809962 -0.067333527 50 19
1.0868138 -0.38462022 0.2587167 14 30
1.0401742 -0.2211673 0.19843651 43 29
1.064558 -0.37629628 0.17115077 41 28
1.0267128 -0.21924917 0.12390284 41 27
1.0606319 -0.37491274 0.10419014 51 26
1.0193969 -0.21807051 0.070102334 4 25
1.0430151 -0.36865309 0.049960721 54 24
1.0092138 -0.21627918 0.023152767 7 23
1.0275606 -0.36335799 0 56 22
0.99446887 -0.21351874 -0.022804603 51 21
0.98267275 -0.21102192 -0.067160875 51 19
1.0465972 -0.22633672 0.19985728 43 29
1.063238 -0.38001001 0.17115077 43 28
1.0186625 -0.22126864 0.12299403 15 27
1.0640004 -0.38029715 0.1046659 52 26
1.025944 -0.22320098 0.070622891 3 25
1.0464219 -0.37398189 0.050193641 55 24
1.010896 -0.22032715 0.023210794 8 23
1.0333431 -0.36948192 0 55 22
0.99371749 -0.21698877 -0.022804603 52 21
0.98436803 -0.214977 -0.067333527 51 19
1.045841 -0.22980611 0.19985728 33 29
1.0689365 -0.3860645 0.17230982 52 28
1.0276212 -0.22676173 0.12420579 7 27
1.0650724 -0.38467336 0.10490377 52 26
1.017889 -0.22500423 0.070102334 3 25
1.0498701 -0.3791557 0.050426558 52 24
1.012562 -0.22438945 0.023268819 10 23
1.0297626 -0.37205234 0 52 22
0.99543381 -0.22081828 -0.02286263 52 21
0.98121363 -0.21770582 -0.067160875 51 19
1.09187 -0.39934412 0.26097134 3 30
1.0497854 -0.23469786 0.20080447 21 29
1.0675143 -0.38997972 0.17230982 54 28
1.0292058 -0.23106462 0.12450874 3 27
1.0636553 -0.38857445 0.10490377 54 26
1.0316644 -0.23198244 0.071143456 4 25
1.0484734 -0.38300106 0.050426558 52 24
1.0020146 -0.22574858 0.023036713 18 23
1.0354311 -0.37841266 0 8 22
0.99705714 -0.22500962 -0.022920657 51 21
0.98771155 -0.22293028 -0.067678824 48 19
1.1018835 -0.40739793 0.26378959 4 30
1.0513546 -0.23889931 0.20127808 14 29
1.0684618 -0.39456379 0.17269614 52 28
1.0308136 -0.23520219 0.12481167 3 27
1.0646255 -0.39315161 0.10514165 52 26
1.0284157 -0.23503219 0.070969932 4 25
1.049471 -0.38752821 0.050543014 52 24
1.0036582 -0.22979692 0.02309474 44 23
1.0387907 -0.38376671 0 4 22
0.99626565 -0.22848862 -0.022920657 51 21
0.98692733 -0.2263767 -0.067678824 33 19
1.1050147 -0.41295573 0.2649169 7 30
1.0600866 -0.24475481 0.20317246 8 29
1.0670781 -0.39829102 0.17269614 52 28
1.04208 -0.24157326 0.12632638 4 27
1.0633159 -0.39667985 0.10514165 51 26
1.0300198 -0.23917909 0.071143456 4 25
1.05045 -0.3920671 0.050659474 52 24
1.0052855 -0.23385946 0.023152767 47 23
1.0491463 -0.3917864 0 4 22
1.0003736 -0.23291302 -0.023036713 50 21
0.98856145 -0.23038052 -0.067851476 12 19
1.0990851 -0.41488877 0.26378959 7 30
1.0640515 -0.24937825 0.20411965 4 29
1.0657513 -0.40182739 0.17269614 52 28
1.04369 -0.24559045 0.12662932 4 27
1.0642515 -0.40127164 0.10537952 52 26
1.0340785 -0.24372652 0.071490496 4 25
1.0468088 -0.39466274 0.050543014 14 24
1.009372 -0.23832898 0.023268819 47 23
1.0408292 -0.39260247 0 4 22
0.99955451 -0.23640355 -0.023036713 50 21
0.98050672 -0.23195271 -0.067333527 8 19
1.1021782 -0.42046767 0.2649169 7 30
1.0631746 -0.25309098 0.20411965 4 29
1.0666486 -0.40642908 0.1730825 54 28
1.0379966 -0.24808952 0.12602344 4 27
1.0651683 -0.40587473 0.1056174 52 26
1.0283679 -0.24618463 0.071143456 7 25
1.0477568 -0.39920813 0.050659474 7 24
1.0061022 -0.24127384 0.023210794 48 23
1.0464551 -0.39891857 0 7 22
1.0011548 -0.24046916 -0.02309474 50 21
0.98697042 -0.23710406 -0.067851476 7 19
1.0984328 -0.42343202 0.26435325 4 30
1.0718338 -0.2590861 0.20601404 4 29
1.0721331 -0.41282585 0.17424153 51 28
1.0467759 -0.25403023 0.1272352 7 27
1.0730277 -0.41318536 0.10656891 50 26
1.0275022 -0.2497728 0.071143456 22 25
1.0440282 -0.40196115 0.050543014 4 24
1.0076407 -0.24554574 0.023268819 47 23
1.0450563 -0.40256894 0 8 22
1.0003093 -0.24396238 -0.02309474 48 21
0.98856115 -0.24113296 -0.068024121 4 19
1.0991412 -0.42834386 0.2649169 44 30
1.0637214 -0.26127243 0.20459324 7 29
1.0798128 -0.42035437 0.1757869 50 28
1.0482486 -0.25845373 0.12753814 8 27
1.0761409 -0.4189299 0.10704467 10 26
1.0290024 -0.25412947 0.07131698 39 25
1.0448735 -0.40669546 0.050659474 4 24
1.0092052 -0.2496561 0.023326848 45 23
1.0412461 -0.4054848 0 8 22
1.0042632 -0.24881768 -0.023210794 48 21
0.98524845 -0.24416053 -0.067851476 7 19
1.1044331 -0.43486786 0.26660788 51 30
1.0651861 -0.2655724 0.20506684 7 29
1.078339 -0.42412105 0.1757869 12 28
1.0425227 -0.26091722 0.12693226 8 27
1.074672 -0.42268378 0.10704467 7 26
1.0305296 -0.25832063 0.071490496 33 25
1.0550586 -0.41493276 0.05124177 4 24
1.0059019 -0.25257435 0.023268819 44 23
1.0421488 -0.41003683 0 12 22
0.99368727 -0.24990651 -0.022978684 26 21
0.9916507 -0.24940577 -0.068369426 7 19
1.1119542 -0.44233847 0.26886249 47 30
1.0713959 -0.27107927 0.20648764 8 29
1.0814391 -0.42971548 0.1765596 12 28
1.0367923 -0.26334393 0.12632638 12 27
1.0801978 -0.42901418 0.10775829 7 26
1.0368769 -0.26374406 0.072011061 14 25
1.0489658 -0.41675985 0.05100885 12 24
1.0122844 -0.25791833 0.023442902 34 23
1.045354 -0.41552818 0 43 22
1.0049695 -0.25625947 -0.023268819 12 21
0.99319208 -0.25347671 -0.068542078 7 19
1.0585957 -0.27160737 0.20411965 26 29
1.0845894 -0.43514743 0.17733228 4 28
1.0431272 -0.26862076 0.1272352 39 27
1.0810018 -0.43371326 0.10799617 4 26
1.0311638 -0.26594645 0.07166402 11 25
1.0568417 -0.4239732 0.051474687 40 24
1.0041595 -0.25941542 0.023268819 12 23
1.0370154 -0.41618529 0 54 22
0.99922663 -0.25852537 -0.023152767 21 21
0.98268199 -0.25429294 -0.067851476 8 19
1.062395 -0.27652681 0.20506684 43 29
1.0853512 -0.43986279 0.17771864 4 28
1.0397807 -0.27163854 0.12693226 41 27
1.0725672 -0.43466666 0.10728253 7 26
1.0374718 -0.27142134 0.072184578 7 25
1.057668 -0.4286021 0.051591143 50 24
1.0080862 -0.26417482 0.023384873 11 23
1.0401864 -0.4216902 0 54 22
1.0128318 -0.26578414 -0.023500927 41 21
0.98902994 -0.2596038 -0.068369426 11 19
1.0589995 -0.27979717 0.20459324 45 29
1.0814477 -0.44289735 0.17733228 4 28
1.0435783 -0.27670881 0.12753814 36 27
1.0801718 -0.44238511 0.10823404 12 26
1.038882 -0.27585661 0.072358102 4 25
1.0607083 -0.43437737 0.051824059 50 24
1.0216123 -0.27168837 0.023733035 11 23
1.0386338 -0.4254998 0 52 22
1.0094342 -0.26885697 -0.023442902 47 21
0.99530631 -0.26513579 -0.068887375 32 19
1.0532714 -0.28223211 0.20364605 45 29
1.0935793 -0.45236012 0.17965037 4 28
1.0354123 -0.27843308 0.12662932 22 27
1.0741026 -0.44405434 0.10775829 36 26
1.0403223 -0.28012428 0.072531618 4 25
1.0591856 -0.4380773 0.051824059 34 24
1.0206577 -0.27525282 0.023733035 37 23
1.0417585 -0.43104342 0 54 22
1.0061226 -0.27155727 -0.023384873 48 21
0.98955619 -0.26731911 -0.068542078 45 19
1.0618113 -0.28827459 0.20554042 45 29
1.0852406 -0.45311615 0.17849132 4 28
1.0416707 -0.28380576 0.12753814 12 27
1.0725461 -0.44780087 0.10775829 50 26
1.0514253 -0.28682733 0.073399231 7 25
1.0623323 -0.44352031 0.052056976 4 24
1.0173268 -0.27798274 0.02367501 44 23
1.0449334 -0.43643162 0 52 22
1.0099931 -0.27637574 -0.023500927 47 21
0.99347854 -0.27190441 -0.068887375 45 19
1.0584306 -0.2913332 0.20506684 45 29
1.0904747 -0.45979336 0.17965037 4 28
1.0478542 -0.28940585 0.12844697 8 27
1.0755591 -0.45348451 0.10823404 50 26
1.0456072 -0.28917703 0.07305219 7 25
1.0561792 -0.44527677 0.051824059 3 24
1.0211214 -0.28303364 0.023791064 44 23
1.0503085 -0.44300455 0 51 22
1.0066122 -0.27923712 -0.023442902 47 21
0.99733287 -0.27669275 -0.069232672 47 19
1.0597214 -0.29586533 0.20554042 44 29
1.084241 -0.4618426 0.17887768 7 28
1.0539597 -0.29523653 0.12935579 7 27
1.0761776 -0.45840317 0.10847192 17 26
1.0421375 -0.29233927 0.072878659 12 25
1.0660185 -0.45405981 0.052406352 4 24
1.0225348 -0.28726673 0.023849091 44 23
1.010397 -0.28426725 -0.023558956 45 21
0.99631202 -0.28034627 -0.069232672 45 19
1.0634093 -0.30088872 0.20648764 44 29
1.0803552 -0.46464434 0.17849132 54 28
1.0481453 -0.29756901 0.12874991 7 27
1.0745709 -0.46215695 0.10847192 4 26
1.0459116 -0.29732832 0.073225707 39 25
1.0621347 -0.45678714 0.052289892 4 24
1.0191205 -0.29015544 0.023791064 43 23
1.0142089 -0.28915179 -0.02367501 44 21
0.99532747 -0.28382233 -0.069232672 45 19
1.0647136 -0.30527011 0.20696121 41 29
1.0900452 -0.47335288 0.18042305 55 28
1.0542592 -0.30326793 0.12965873 7 27
1.0775944 -0.46770805 0.10894768 3 26
1.0448673 -0.30097744 0.073225707 43 25
1.0674002 -0.46348885 0.052639272 4 24
1.0253105 -0.29577279 0.023965145 43 23
1.0156472 -0.29320109 -0.023733035 43 21
0.99433064 -0.28729495 -0.069232672 44 19
1.0660545 -0.30947825 0.20743483 41 29
1.0929905 -0.47895613 0.18119575 59 28
1.0484794 -0.30538511 0.12905285 8 27
1.0896206 -0.47748524 0.11037494 4 26
1.0462594 -0.30513352 0.073399231 44 25
1.0772845 -0.47205874 0.053221561 4 24
1.0267246 -0.29986638 0.024023172 43 23
1.0194186 -0.29813668 -0.023849091 25 21
1.0077447 -0.29475805 -0.070268571 43 19
1.0696808 -0.31457222 0.20838203 30 29
1.0521705 -0.31043699 0.12965873 33 27
1.0856732 -0.48027486 0.11013707 4 26
1.0523679 -0.31088752 0.073919788 44 25
1.0710661 -0.47378722 0.052988645 7 24
1.0256187 -0.30362752 0.024023172 43 23
1.0159737 -0.30098891 -0.023791064 10 21
1.0708746 -0.31918663 0.2088556 10 29
1.0557839 -0.31570256 0.13026461 43 27
1.0952572 -0.48934758 0.11132645 4 26
1.0488306 -0.31403252 0.073746271 44 25
1.0807135 -0.48282424 0.053570937 7 24
1.0269482 -0.30791807 0.024081198 43 23
1.0220499 -0.30685019 -0.023965145 3 21
1.0697538 -0.32292274 0.2088556 3 29
1.0546755 -0.31938598 0.13026461 45 27
1.0913615 -0.49195004 0.11108857 4 26
1.0525047 -0.31912839 0.074093312 43 25
1.0721978 -0.48350114 0.053221561 15 24
1.0306535 -0.31294239 0.024197252 41 23
1.0162407 -0.30879545 -0.023849091 3 21
1.0757248 -0.32860428 0.2102764 3 29
1.0536106 -0.32288167 0.13026461 45 27
1.0919008 -0.49679136 0.11132645 4 26
1.0562123 -0.32406938 0.074440353 43 25
1.0819443 -0.49224594 0.053803854 50 24
1.0224378 -0.31417248 0.024023172 15 23
1.0247185 -0.31525883 -0.024081198 3 21
1.0816113 -0.33451769 0.21169718 3 29
1.0595925 -0.32874781 0.13117343 44 27
1.0856408 -0.49851444 0.11085069 4 26
1.0526913 -0.32701966 0.074266829 43 25
1.0734168 -0.49288067 0.053454477 50 24
1.0260556 -0.31939259 0.024139225 7 23
1.0236119 -0.31883386 -0.024081198 3 21
1.0874102 -0.340666 0.21311797 4 29
1.0583804 -0.3326292 0.13117343 44 27
1.0838064 -0.50249016 0.11085069 43 26
1.0514857 -0.33087575 0.074266829 43 25
1.073867 -0.4978663 0.053570937 50 24
1.0320909 -0.32520947 0.024313306 3 23
1.0295919 -0.32482314 -0.024255278 3 21
1.0908976 -0.34593353 0.21406516 4 29
1.0595793 -0.33706865 0.13147637 44 27
1.08655 -0.50838792 0.11132645 50 26
1.0503242 -0.33454412 0.074266829 41 25
1.0766424 -0.50373673 0.053803854 48 24
1.0285664 -0.32805607 0.024255278 3 23
1.0284518 -0.3284151 -0.024255278 4 21
1.0943612 -0.35122958 0.21501234 7 29
1.0607601 -0.34152055 0.13177931 43 27
1.0916041 -0.51518714 0.11204008 52 26
1.0467749 -0.33744854 0.074093312 14 25
1.0771338 -0.50856227 0.053920317 50 24
1.0321754 -0.33316916 0.024371332 4 23
1.0297374 -0.33258659 -0.024313306 7 21
1.0931904 -0.3548567 0.21501234 7 29
1.0619831 -0.34579942 0.13208227 41 27
1.0527685 -0.34322122 0.074613869 8 25
1.0799469 -0.51428711 0.054153234 48 24
1.038198 -0.33890095 0.024545414 4 23
1.0333248 -0.33772117 -0.02442936 7 21
1.0872775 -0.35714844 0.21406516 11 29
1.0584109 -0.34873298 0.13177931 40 27
1.051564 -0.34689397 0.074613869 4 25
1.075896 -0.51696795 0.05403677 47 24
1.0393237 -0.34348282 0.024603439 4 23
1.029765 -0.34054667 -0.024371332 25 21
1.0906231 -0.36267024 0.21501234 14 29
1.0524139 -0.35104984 0.13117343 22 27
1.0573874 -0.35310006 0.075134434 4 25
1.0807289 -0.52418971 0.05438615 44 24
1.0476068 -0.35025766 0.024835547 4 23
1.0332536 -0.34589487 -0.024487386 41 21
1.0846939 -0.36491963 0.21406516 14 29
1.0582414 -0.35708603 0.13208227 8 27
1.0514193 -0.35520291 0.074787393 4 25
1.0833749 -0.53016257 0.054619066 43 24
1.0416391 -0.3523213 0.024719493 7 23
1.0392085 -0.35170719 -0.024661468 44 21
1.0834779 -0.3685146 0.21406516 11 29
1.0570513 -0.36059335 0.13208227 3 27
1.0549594 -0.36028922 0.075134434 4 25
1.088323 -0.53707975 0.054968439 45 24
1.0428318 -0.35657695 0.024777522 7 23
1.0332416 -0.35372412 -0.024545414 45 21
1.0914767 -0.37546843 0.21595953 7 29
1.0628291 -0.36669359 0.13299108 3 27
1.0607728 -0.36639678 0.075654998 8 25
1.084208 -0.5397585 0.054851983 50 24
1.0367905 -0.35877267 0.024661468 12 23
1.029637 -0.35651618 -0.024487386 47 21
1.0924131 -0.38026834 0.21643312 7 29
1.061478 -0.37058657 0.13299108 4 27
1.0523543 -0.36782908 0.075134434 12 25
1.0355318 -0.3623895 0.024661468 14 23
1.0377656 -0.36357209 -0.024719493 47 21
1.100348 -0.38731977 0.21832752 3 29
1.060178 -0.3742896 0.13299108 4 27
1.0628301 -0.37562996 0.076002039 28 25
1.0413344 -0.3684876 0.024835547 10 23
1.038848 -0.3680217 -0.024777522 45 21
1.1013036 -0.39197654 0.21880111 4 29
1.0705599 -0.38213402 0.13450579 4 27
1.0615125 -0.37933764 0.076002039 36 25
1.0376867 -0.3712835 0.024777522 4 23
1.037557 -0.37164572 -0.024777522 47 21
1.0999287 -0.39581841 0.21880111 4 29
1.0762274 -0.38838059 0.1354146 4 27
1.0625292 -0.38388303 0.076175556 14 25
1.0457932 -0.37828335 0.02500963 3 23
1.0339016 -0.37441939 -0.024719493 45 21
1.1054661 -0.40215844 0.22022191 7 29
1.070199 -0.39044398 0.13480872 10 27
1.0611827 -0.38758957 0.076175556 7 25
1.0538629 -0.38534427 0.025241738 3 23
1.0372862 -0.3797341 -0.024835547 45 21
1.0948328 -0.40264523 0.21832752 12 29
1.0734898 -0.39588454 0.1354146 12 27
1.0668478 -0.39386758 0.07669612 3 25
1.0548579 -0.38988203 0.025299765 4 23
1.0360212 -0.3831718 -0.024835547 45 21
1.0980973 -0.40797368 0.21927471 32 29
1.0698439 -0.39858088 0.13511167 11 27
1.0678744 -0.39826968 0.076869637 3 25
1.0559024 -0.394247 0.025357792 4 23
1.0417064 -0.38939577 -0.02500963 45 21
1.1058661 -0.41523653 0.2211691 36 29
1.0707703 -0.40318233 0.1354146 8 27
1.07582 -0.40549332 0.077563718 3 25
1.0474298 -0.3954812 0.025183709 4 23
1.1043367 -0.41928694 0.2211691 36 29
1.0669644 -0.40622625 0.13511167 3 27
1.0789912 -0.41120005 0.077910759 4 25
1.0600654 -0.40445045 0.025531873 7 23
1.1074538 -0.42488825 0.22211629 36 29
1.0817657 -0.41615072 0.13723224 3 27
1.0822078 -0.41674659 0.078257799 4 25
1.0516452 -0.40546614 0.025357792 12 23
1.1059639 -0.42875141 0.22211629 36 29
1.0803065 -0.41992426 0.13723224 4 27
1.0784205 -0.41962224 0.078084283 4 25
1.0548851 -0.41093895 0.025473846 32 23
1.1045361 -0.43241653 0.22211629 36 29
1.076596 -0.42260253 0.13692932 4 27
1.0839924 -0.42591754 0.07860484 7 25
1.0558444 -0.41534477 0.025531873 39 23
1.107589 -0.43806556 0.22306347 34 29
1.0866582 -0.43090749 0.13844401 7 27
1.077859 -0.42786825 0.078257799 12 25
1.0566393 -0.42013022 0.0255899 40 23
1.1082571 -0.44302857 0.22353706 34 29
1.0827661 -0.43396905 0.13814108 7 27
1.0809168 -0.43366346 0.07860484 33 25
1.0574878 -0.42474264 0.025647927 39 23
1.1089822 -0.44780883 0.22401066 34 29
1.0858489 -0.43959877 0.13874696 7 27
1.0770832 -0.43650213 0.078431323 37 25
1.0583166 -0.42936599 0.025705952 39 23
1.109766 -0.45240578 0.22448425 36 29
1.0774879 -0.44039506 0.13783813 14 27
1.0756298 -0.44007143 0.078431323 40 25
1.0592018 -0.43381545 0.025763981 39 23
1.1172671 -0.45999634 0.22637863 37 29
1.0851274 -0.44792172 0.13904989 36 27
1.078701 -0.4457185 0.078778364 39 25
1.0599161 -0.43864551 0.025822006 39 23
1.0811861 -0.45094547 0.13874696 39 27
1.07706 -0.44966912 0.078778364 39 25
1.0629946 -0.44426036 0.02593806 39 23
1.0796055 -0.45471677 0.13874696 39 27
1.0800841 -0.45535415 0.079125404 37 25
1.0637422 -0.44893515 0.025996089 36 23
1.0826633 -0.46022645 0.13935284 37 27
1.080865 -0.459905 0.079298921 37 25
1.0599459 -0.45148557 0.02593806 14 23
1.085615 -0.46595088 0.13995872 39 27
1.079253 -0.46367511 0.079298921 37 25
1.0674758 -0.45929942 0.026170168 8 23
1.086179 -0.47090912 0.14026166 37 27
1.0821261 -0.46960378 0.079645962 33 25
1.0635716 -0.46203184 0.026112143 10 23
1.0890791 -0.47667831 0.14086755 37 27
1.0759076 -0.47138616 0.079298921 12 25
1.0665343 -0.46773955 0.026228197 17 23
1.0896806 -0.48147526 0.14117049 37 27
1.0788213 -0.47714698 0.079645962 12 25
1.0671825 -0.47246662 0.026286222 33 23
1.088078 -0.48508614 0.14117049 36 27
1.0931903 -0.48780307 0.080860615 22 25
1.0701782 -0.47803202 0.026402276 36 23
1.0863781 -0.48888126 0.14117049 37 27
1.0869288 -0.48957697 0.080513574 33 25
1.068503 -0.48176473 0.026402276 37 23
1.0913631 -0.49592575 0.14207931 39 27
1.0919441 -0.49664113 0.081034139 34 25
1.0712836 -0.48773956 0.02651833 39 23
1.0879351 -0.49941385 0.080860615 36 25
1.0741211 -0.49355373 0.026634384 39 23
1.0908034 -0.5051055 0.081207655 34 25
1.0724784 -0.49711293 0.026634384 39 23
1.0935569 -0.51101255 0.081554696 34 25
1.0984496 -0.51819575 0.082075261 34 25
1.0943801 -0.52095944 0.081901737 36 25
1.0971475 -0.52673548 0.082248777 39 25
