# .PCD v0.7 - Point Cloud Data file format
VERSION 0.7
FIELDS x y z intensity ring
SIZE 4 4 4 4 2
TYPE F F F F U
COUNT 1 1 1 1 1
WIDTH 1206
HEIGHT 1
VIEWPOINT 0 0 0 1 0 0 0
POINTS 1206
DATA ascii
1.0183442 -0.065067902 0.0941993 88 26
1.0242456 -0.065463915 0.046234049 62 24
1.0253093 -0.065713897 0 55 22
1.0366817 -0.06664896 -0.046816342 12 20
1.0181228 -0.068444498 0.0941993 88 26
1.0140457 -0.068345465 0.045768213 84 24
1.0200857 -0.068944581 0 26 22
1.0339515 -0.070093043 -0.046699882 74 20
1.0203598 -0.07217896 0.094437182 84 26
1.0237763 -0.072434165 0.046234049 81 24
1.0273315 -0.0728736 0 11 22
1.0337133 -0.073521376 -0.046699882 85 20
1.0151387 -0.075360984 0.093961425 89 26
1.0210271 -0.075817071 0.046117589 80 24
1.0245782 -0.076268293 0 10 22
1.0284572 -0.076926447 -0.046466965 88 20
1.0198171 -0.079478592 0.094437182 90 26
1.0182531 -0.079359412 0.046001129 77 24
1.0292758 -0.080423161 0 10 22
1.0281824 -0.080515966 -0.046466965 88 20
1.0121078 -0.082239144 0.09372355 90 26
1.0204585 -0.083121397 0.046117589 77 24
1.0289887 -0.084015526 0 8 22
1.0328721 -0.084522434 -0.046699882 89 20
1.0142939 -0.085987166 0.093961425 88 26
1.025153 -0.086937599 0.046350509 22 24
1.0237234 -0.08699327 0 10 22
1.0325861 -0.087947093 -0.046699882 85 20
1.0494673 -0.089968547 -0.091427661 8 18
1.0139877 -0.089527182 0.093961425 87 26
1.0223563 -0.090290487 0.046234049 11 24
1.0209236 -0.09034048 0 11 22
1.0272828 -0.091278456 -0.046466965 88 20
1.0466672 -0.093404777 -0.091204129 14 18
1.0136527 -0.093243025 0.093961425 83 26
1.026991 -0.094505295 0.046466965 10 24
1.0180967 -0.093846902 0 11 22
1.0344166 -0.095568821 -0.046816342 85 20
1.0413603 -0.096769132 -0.09075705 67 18
1.0083673 -0.096296795 0.093485668 78 26
1.0216841 -0.097603947 0.046234049 10 24
1.0252273 -0.098130733 0 12 22
1.0315913 -0.098935336 -0.046699882 85 20
1.0459721 -0.10089212 -0.091204129 72 18
1.0105184 -0.099890329 0.09372355 76 26
1.0188524 -0.10091819 0.046117589 8 24
1.019904 -0.10120443 0 12 22
1.0337242 -0.10278803 -0.046816342 85 20
1.0481088 -0.10461262 -0.091427661 74 18
1.0126388 -0.10367594 0.093961425 73 26
1.0085772 -0.10325732 0.045651756 10 24
1.0245357 -0.10510691 0 12 22
1.0259266 -0.10543361 -0.046466965 85 20
1.0427847 -0.10774829 -0.090980582 72 18
1.0097964 -0.10694259 0.09372355 40 26
1.0156591 -0.1075825 0.046001129 10 24
1.021677 -0.10841344 0 14 22
1.0304986 -0.10973252 -0.046699882 80 20
1.0424023 -0.11138763 -0.090980582 69 18
1.0044512 -0.11008988 0.093247794 15 26
1.015258 -0.11130435 0.046001129 10 24
1.0262418 -0.11271381 0 59 22
1.0325911 -0.11360733 -0.046816342 81 20
1.0469358 -0.11576518 -0.091427661 51 18
1.0114976 -0.11427438 0.093961425 12 26
1.0223057 -0.11570609 0.046350509 12 24
1.0208751 -0.11572156 0 85 22
1.0321882 -0.11721105 -0.046816342 81 20
1.0415993 -0.1186622 -0.090980582 12 18
1.0135638 -0.11809785 0.0941993 12 26
1.0169567 -0.11850675 0.046117589 12 24
1.0204856 -0.11910627 0 87 22
1.0342735 -0.12092852 -0.046932798 77 20
1.0510683 -0.1234801 -0.091874748 10 18
1.0007941 -0.12012514 0.093009919 12 26
1.0165367 -0.12205587 0.046117589 12 24
1.0250267 -0.12327532 0 81 22
1.0313448 -0.12441417 -0.046816342 77 20
1.0456882 -0.12653962 -0.091427661 8 18
1.0052854 -0.12441452 0.093485668 12 26
1.013605 -0.12546872 0.046001129 12 24
1.0270482 -0.1273443 0 80 22
1.0259491 -0.12738749 -0.046583425 81 20
1.0501578 -0.13099816 -0.091874748 8 18
1.0024604 -0.12760171 0.15260622 59 28
0.99499476 -0.12647055 0.092534162 14 26
1.0131608 -0.12900609 0.046001129 12 24
1.0216391 -0.13028547 0 84 22
1.0304511 -0.13161123 -0.046816342 77 20
1.0472484 -0.13415831 -0.091651201 10 18
0.98734111 -0.12897298 0.15028815 80 28
1.0019482 -0.13092647 0.093247794 14 26
1.0299904 -0.0011938923 0.069234729 44 25
1.0152029 -0.13269413 0.046117589 26 24
1.0187232 -0.13334286 0 84 22
1.0250582 -0.1343679 -0.046583425 78 20
1.0541779 -0.13880362 -0.092321828 10 18
0.98933214 -0.1327526 0.15067449 84 28
0.99901927 -0.1340867 0.093009919 14 26
1.032474 -0.0047948812 0.069408253 50 25
1.0097847 -0.13556179 0.045884673 69 24
1.0232055 -0.13757491 0 81 22
1.0196344 -0.13726822 -0.046350509 33 20
1.0536869 -0.14248253 -0.092321828 10 18
0.98883891 -0.13637778 0.15067449 85 28
0.99852115 -0.13774738 0.093009919 14 26
1.0324496 -0.0085790558 0.069408253 51 25
1.0167005 -0.14030202 0.046234049 73 24
1.0177431 -0.14062922 0 78 22
1.0265434 -0.14204712 -0.046699882 15 20
1.0482265 -0.14564788 -0.091874748 10 18
0.98835695 -0.13982864 0.15067449 81 28
0.9955954 -0.14070417 0.092772037 14 26
1.0324134 -0.012182925 0.069408253 51 25
1.0112609 -0.14313945 0.046001129 74 24
1.0197204 -0.14453711 0 78 22
1.0260413 -0.14562955 -0.046699882 14 20
1.0452732 -0.1487671 -0.091651201 10 18
0.9878878 -0.14310539 0.15067449 83 28
0.99509823 -0.1441786 0.092772037 12 26
1.0373547 -0.015670013 0.069755293 50 25
1.0107806 -0.14649214 0.046001129 72 24
1.0217088 -0.14828214 0 76 22
1.018141 -0.1479381 -0.046350509 14 20
1.0422843 -0.15205029 -0.091427661 8 18
0.99226701 -0.14728902 0.15144718 80 28
0.99951059 -0.14839296 0.093247794 21 26
1.0348001 -0.019250482 0.069581769 48 25
1.0077937 -0.14964738 0.045884673 55 24
1.018713 -0.1514747 0 77 22
1.0200613 -0.15204221 -0.046466965 14 20
1.0491329 -0.1568072 -0.092098281 8 18
0.98683846 -0.15017083 0.15067449 78 28
1.0014195 -0.15243523 0.093485668 41 26
1.0272422 -0.02289423 0.069061212 23 25
0.9998343 -0.15219656 0.045535296 37 24
1.0393611 -0.023492265 0.023326848 12 23
1.0156803 -0.15482543 0 58 22
1.0145886 -0.15483786 -0.046234049 30 20
1.0387092 -0.15912254 -0.091204129 11 18
0.98874795 -0.15400018 0.15106083 73 28
1.0008813 -0.15592991 0.093485668 19 26
1.027156 -0.026479835 0.069061212 12 25
1.0017637 -0.15607551 0.045651756 14 24
1.0317768 -0.026942208 0.023152767 44 23
1.0200722 -0.15915118 0 40 22
1.0313076 -0.1611131 -0.047049258 51 20
1.0430657 -0.16352895 -0.091651201 37 18
0.98088932 -0.15626845 0.14990181 73 28
1.0101581 -0.16101082 0.094437182 11 26
1.0270573 -0.030065116 0.069061212 11 25
1.0086086 -0.16076657 0.046001129 12 24
1.0366732 -0.030679699 0.023268819 51 23
1.0170426 -0.16231166 0 81 22
1.0258086 -0.16391353 -0.046816342 73 20
1.0351152 -0.16597077 -0.090980582 12 18
0.98277485 -0.16009401 0.15028815 65 28
1.0022522 -0.1631442 0.09372355 10 26
1.0369173 -0.03395294 0.069755293 10 25
1.0031135 -0.16347229 0.045768213 12 24
1.0315635 -0.034144655 0.023152767 55 23
1.0140033 -0.16545291 0 85 22
1.0227664 -0.16708541 -0.046699882 77 20
1.0468413 -0.17144011 -0.092098281 7 18
0.98223859 -0.16335213 0.15028815 63 28
1.0090388 -0.16788298 0.094437182 10 26
1.0268289 -0.037055321 0.069061212 8 25
1.0001034 -0.16638266 0.045651756 14 24
1.0289468 -0.037480209 0.02309474 58 23
1.0183793 -0.1696467 0 84 22
1.0197444 -0.17006005 -0.046583425 78 20
1.0364165 -0.17342879 -0.091204129 4 18
0.98896474 -0.16803719 0.15144718 58 28
1.0010889 -0.1701372 0.09372355 8 26
1.0366622 -0.041010171 0.069755293 10 25
1.0093608 -0.17156774 0.046117589 14 24
1.0313001 -0.041345432 0.023152767 55 23
1.017781 -0.17320046 0 83 22
1.021575 -0.17422153 -0.046699882 74 20
1.0431653 -0.17831953 -0.091874748 4 18
0.98590964 -0.17123275 0.15106083 41 28
1.0078115 -0.17509913 0.094437182 10 26
1.034013 -0.044707626 0.069581769 10 25
1.0038061 -0.17440049 0.045884673 15 24
1.0286523 -0.04484218 0.02309474 56 23
1.0196015 -0.17736334 0 83 22
1.0258793 -0.17865372 -0.046932798 69 20
1.0376009 -0.18127438 -0.091427661 7 18
0.99259913 -0.17598279 0.15221988 21 28
1.0047446 -0.17817612 0.0941993 10 26
1.0338507 -0.048316732 0.069581769 10 25
1.0056492 -0.17834474 0.046001129 18 24
1.0359797 -0.048767466 0.023268819 54 23
1.0115944 -0.17959449 0 87 22
1.0559372 -0.050029129 -0.023733035 10 21
1.0154183 -0.18046471 -0.046466965 70 20
1.0418627 -0.18577965 -0.091874748 7 18
0.9847213 -0.17793959 0.15106083 10 28
1.0090444 -0.18240294 0.094675057 11 26
1.0287025 -0.051507264 0.069234729 11 25
1.0148784 -0.18347672 0.046466965 61 24
1.0283233 -0.051842902 0.02309474 55 23
1.0159113 -0.18384895 0 84 22
1.0507725 -0.053288899 -0.023616981 32 21
1.0148143 -0.18383096 -0.046466965 36 20
1.0387919 -0.18878321 -0.091651201 8 18
0.99380636 -0.18318816 0.15260622 10 28
0.9986158 -0.18409801 0.09372355 12 26
1.0310072 -0.055225279 0.069408253 11 25
1.0068669 -0.1856439 0.046117589 83 24
1.0331182 -0.055869661 0.023210794 54 23
1.0152634 -0.18739402 0 81 22
1.0430924 -0.056567967 -0.023442902 50 21
1.019043 -0.18846796 -0.046699882 11 20
1.040574 -0.19286701 -0.091874748 8 18
0.99070191 -0.18636744 0.15221988 10 28
1.0003791 -0.18822236 0.093961425 14 26
1.0233271 -0.058593906 0.068887688 11 25
1.0061797 -0.18933299 0.046117589 83 24
1.0304214 -0.059337806 0.023152767 55 23
1.0145699 -0.19111389 0 76 22
1.0403825 -0.060252067 -0.023384873 52 21
1.0159259 -0.19155599 -0.046583425 10 20
1.0398601 -0.19667961 -0.091874748 10 18
0.98519582 -0.1888836 0.15144718 10 28
1.0355672 -0.062535606 0.12238815 51 27
0.99238664 -0.19029115 0.093247794 18 26
1.0280958 -0.062456232 0.069234729 12 25
1.0104159 -0.19379538 0.046350509 81 24
1.025218 -0.062641323 0.023036713 55 23
1.0114424 -0.19417764 0 77 22
1.037671 -0.063735962 -0.023326848 52 21
1.0201538 -0.19605409 -0.046816342 8 20
1.0293912 -0.19840263 -0.090980582 11 18
0.98695362 -0.19280034 0.15183352 11 28
1.0155275 -0.064931132 0.11996461 52 27
0.99175012 -0.19358099 0.093247794 19 26
1.0228932 -0.065736592 0.068887688 12 25
1.0072834 -0.19683701 0.046234049 83 24
1.0299821 -0.066530004 0.023152767 54 23
1.0132109 -0.19819221 0 70 22
1.0374539 -0.067176655 -0.023326848 52 21
1.0121142 -0.19815873 -0.046466965 8 20
1.0384973 -0.20375311 -0.091874748 12 18
0.98388731 -0.19558519 0.15144718 14 28
1.0103538 -0.067977242 0.11935873 55 27
0.99594796 -0.19802292 0.09372355 19 26
1.0276469 -0.069452748 0.069234729 26 25
1.0090734 -0.20066851 0.046350509 80 24
1.0297557 -0.069945171 0.023152767 54 23
1.0100973 -0.20105776 0 67 22
1.0446949 -0.071290627 -0.023500927 50 21
1.0138996 -0.2020071 -0.046583425 10 20
1.0280169 -0.20540482 -0.090980582 12 18
0.98561841 -0.19951379 0.15183352 19 28
1.0076345 -0.071334407 0.11905579 63 27
1.0001268 -0.2024965 0.0941993 43 26
1.0249101 -0.072868556 0.069061212 48 25
1.0034736 -0.20318787 0.046117589 81 24
1.0344791 -0.07406415 0.023268819 52 23
1.0093893 -0.20458242 0 67 22
1.0394528 -0.07459078 -0.023384873 28 21
1.0155985 -0.20622401 -0.046699882 11 20
1.0370495 -0.21099816 -0.091874748 14 18
0.9703728 -0.20009941 0.14951546 29 28
1.0098414 -0.075205378 0.11935873 59 27
1.0018142 -0.20666887 0.094437182 77 26
1.0271237 -0.076804601 0.069234729 51 25
1.0076115 -0.20788409 0.046350509 81 24
1.0267361 -0.077130795 0.02309474 54 23
1.0135272 -0.20930228 0 14 22
1.0366799 -0.078217901 -0.023326848 12 21
1.007539 -0.2082358 -0.046350509 11 20
1.0494804 -0.079159528 -0.070441224 34 19
1.0338321 -0.21428724 -0.091651201 59 18
0.97208458 -0.2039981 0.14990181 32 28
1.0070983 -0.078543 0.11905579 62 27
0.99868888 -0.2094737 0.0941993 83 26
1.0243624 -0.080200739 0.069061212 52 25
1.0068798 -0.21140005 0.046350509 77 24
1.0264608 -0.080714315 0.02309474 52 23
1.0078995 -0.21180017 0 12 22
1.0364149 -0.081655219 -0.023326848 11 21
1.0214622 -0.21486677 -0.047049258 11 20
1.0392507 -0.082060516 -0.069750629 48 19
1.0331157 -0.21771437 -0.091651201 74 18
0.97864616 -0.20878264 0.15106083 33 28
1.0068324 -0.081882231 0.11905579 63 27
0.99795157 -0.2129585 0.0941993 83 26
1.0240909 -0.083597206 0.069061212 54 25
1.0061733 -0.21473783 0.046350509 77 24
1.0286788 -0.084316 0.023152767 54 23
1.0169665 -0.21725115 0 11 22
1.0460891 -0.086069033 -0.023558956 8 21
1.0134212 -0.21667096 -0.046699882 12 20
1.0389729 -0.08550635 -0.069750629 52 19
1.0299159 -0.22079223 -0.091427661 77 18
0.97308618 -0.21113923 0.15028815 34 28
1.0090135 -0.085599996 0.11935873 56 27
0.99963307 -0.21697384 0.094437182 80 26
1.0237929 -0.087171443 0.069061212 52 25
1.0029783 -0.21771373 0.046234049 81 24
1.0258722 -0.087878324 0.02309474 52 23
1.01376 -0.22026372 0 11 22
1.0432914 -0.089512214 -0.023500927 10 21
1.0223763 -0.22252889 -0.047165714 12 20
1.038668 -0.089132525 -0.069750629 54 19
1.0291389 -0.22438596 -0.091427661 77 18
0.97471642 -0.21524233 0.15067449 45 28
1.0111655 -0.089510471 0.11966167 56 27
0.99883115 -0.22063622 0.094437182 78 26
1.0259511 -0.091137998 0.069234729 52 25
1.0070482 -0.22247621 0.046466965 78 24
1.030539 -0.091890946 0.023210794 52 23
1.0080662 -0.22288799 0 11 22
1.0504261 -0.093986362 -0.02367501 10 21
1.016719 -0.22500674 -0.046932798 11 20
1.0333651 -0.092505828 -0.069405325 55 19
1.0234501 -0.22706756 -0.090980582 78 18
0.97877675 -0.21973614 0.15144718 77 28
1.0083752 -0.092818089 0.11935873 54 27
1.0053753 -0.22559752 0.095150813 76 26
1.0256268 -0.09471868 0.069234729 51 25
1.0013946 -0.22488527 0.046234049 83 24
1.0277228 -0.095262848 0.023152767 43 23
1.0121579 -0.22751231 0 11 22
1.0426412 -0.096793517 -0.023500927 10 21
1.0110569 -0.22744788 -0.046699882 11 20
1.0380037 -0.096562728 -0.069750629 52 19
1.0275474 -0.23156519 -0.091427661 77 18
0.97804266 -0.22298068 0.15144718 84 28
1.0055909 -0.095931821 0.11905579 56 27
0.99730617 -0.22742988 0.094437182 76 26
1.0277903 -0.098350927 0.069408253 47 25
1.0079441 -0.22988625 0.046583425 48 24
1.019936 -0.097971261 0.022978684 18 23
1.0016534 -0.22862142 0 12 22
1.049762 -0.10113414 -0.02367501 10 21
1.0127306 -0.23136075 -0.046816342 26 20
1.0401608 -0.10023774 -0.069923274 52 19
1.0243069 -0.23458962 -0.091204129 77 18
0.98447335 -0.2280816 0.15260622 81 28
1.00772 -0.099679679 0.11935873 54 27
0.99892938 -0.23147677 0.094675057 77 26
1.0274407 -0.10193799 0.069408253 36 25
1.0022722 -0.23226526 0.046350509 22 24
1.01957 -0.10170886 0.022978684 14 23
0.99841511 -0.2315464 0 12 22
1.0344775 -0.10334235 -0.023326848 11 21
1.0167383 -0.23621154 -0.047049258 67 20
1.0422869 -0.10411005 -0.070095927 52 19
1.0283297 -0.23930256 -0.091651201 74 18
0.97401911 -0.22940208 0.15106083 84 28
1.0024096 -0.10287783 0.11875285 47 27
0.99807429 -0.23513648 0.094675057 78 26
1.0220971 -0.1052042 0.069061212 19 25
1.0062733 -0.23709299 0.046583425 18 24
1.0291556 -0.10627055 0.023210794 26 23
0.99999177 -0.23578317 0 12 22
1.0390649 -0.10763661 -0.023442902 12 21
1.0134783 -0.23918045 -0.046932798 70 20
1.0394168 -0.10767835 -0.069923274 51 19
1.0298676 -0.24364831 -0.091874748 73 18
0.97801423 -0.23396054 0.15183352 80 28
0.99957597 -0.10612032 0.11844991 32 27
0.99482834 -0.23803464 0.094437182 78 26
1.0266849 -0.10928754 0.069408253 12 25
1.0005846 -0.23943137 0.046350509 30 24
1.0238068 -0.10934331 0.02309474 45 23
1.0015928 -0.2398598 0 12 22
1.0337114 -0.1107422 -0.023326848 26 21
1.0150645 -0.24330389 -0.047049258 61 20
1.0390347 -0.11130594 -0.069923274 47 19
1.0290109 -0.24724174 -0.091874748 73 18
0.98198932 -0.23854968 0.15260622 77 28
0.99919939 -0.10960884 0.11844991 22 27
0.99886775 -0.24251699 0.094912939 52 26
1.0163785 -0.11180366 0.068714164 12 25
1.0118698 -0.24589677 0.046932798 52 24
1.0259037 -0.11318458 0.023152767 52 23
1.012889 -0.24633408 0 39 22
1.0383081 -0.11470675 -0.023442902 45 21
1.0069335 -0.24505861 -0.046699882 39 20
1.0435989 -0.11546914 -0.070268571 25 19
1.0257674 -0.25005791 -0.091651201 74 18
0.97400218 -0.24001592 0.15144718 72 28
1.001297 -0.11319445 0.11875285 14 27
0.98835492 -0.24359904 0.093961425 32 26
1.0259172 -0.11627337 0.069408253 12 25
1.0013552 -0.2468394 0.046466965 80 24
1.0180708 -0.11575668 0.022978684 58 23
1.0072147 -0.24848367 0 65 22
1.0329337 -0.11777584 -0.023326848 50 21
1.0085385 -0.2490001 -0.046816342 12 20
1.0382529 -0.11837579 -0.069923274 11 19
1.0297199 -0.25484341 -0.092098281 72 18
0.97794801 -0.24462365 0.15221988 73 28
1.0033613 -0.11697029 0.11905579 14 27
0.9971503 -0.24948445 0.094912939 26 26
1.0279828 -0.1201374 0.069581769 41 25
1.0029087 -0.25094461 0.046583425 85 24
1.0201226 -0.11977286 0.023036713 58 23
1.008765 -0.25261042 0 65 22
1.0349991 -0.12166668 -0.023384873 34 21
1.01004 -0.25330749 -0.046932798 10 20
1.0452665 -0.12285534 -0.070441224 10 19
1.0288241 -0.25843626 -0.092098281 69 18
0.97465229 -0.24759294 0.15183352 74 28
0.99060327 -0.11919506 0.11754109 12 27
0.99140787 -0.25190139 0.094437182 81 26
1.0176287 -0.12273353 0.068887688 52 25
1.0068202 -0.2558592 0.046816342 83 24
1.0221803 -0.12362722 0.02309474 56 23
1.0054108 -0.25568473 0 14 22
1.0370282 -0.12575439 -0.023442902 12 21
1.0164062 -0.25869483 -0.047282174 8 20
1.0472857 -0.12698004 -0.070613876 8 19
1.0254586 -0.26158488 -0.091874748 67 18
0.97378212 -0.25099361 0.15183352 73 28
1.0000352 -0.12384815 0.11875285 12 27
0.99538434 -0.25643972 0.094912939 88 26
1.0196698 -0.12658632 0.069061212 55 25
1.0035042 -0.25874344 0.046699882 83 24
1.0217426 -0.12719454 0.02309474 56 23
1.0141896 -0.26171172 0 10 22
1.0366054 -0.12919262 -0.023442902 10 21
1.0154971 -0.26224115 -0.047282174 10 20
1.0418849 -0.13002881 -0.070268571 10 19
1.0294043 -0.26624095 -0.092321828 70 18
0.97294444 -0.25422141 0.15183352 76 28
0.99469393 -0.12654939 0.11814697 14 27
0.99448311 -0.25991273 0.094912939 88 26
1.0192444 -0.12996696 0.069061212 58 25
1.0002259 -0.26143312 0.046583425 80 24
1.0213151 -0.13058206 0.02309474 55 23
1.0157335 -0.26571125 0 8 22
1.0361481 -0.13281025 -0.023442902 7 21
1.0146219 -0.26560724 -0.047282174 11 20
1.041448 -0.1334831 -0.070268571 10 19
1.0284686 -0.26983261 -0.092321828 66 18
0.96489269 -0.25570199 0.15067449 63 28
1.0016304 -0.130968 0.11905579 17 27
0.99837816 -0.26466823 0.095388688 84 26
1.0163109 -0.13320582 0.068887688 59 25
0.99930722 -0.26492295 0.046583425 78 24
1.0208532 -0.13414633 0.02309474 55 23
1.0123848 -0.26860899 0 8 22
1.0406356 -0.1370675 -0.023558956 7 21
1.0112761 -0.26850137 -0.047165714 11 20
1.031082 -0.13583793 -0.06957797 11 19
1.0323303 -0.27471158 -0.092768908 69 18
0.96394902 -0.25923678 0.15067449 50 28
1.0036038 -0.13496304 0.11935873 18 27
0.99504632 -0.26750037 0.095150813 90 26
1.0158159 -0.13692987 0.068887688 59 25
1.0007397 -0.2692377 0.046699882 77 24
1.0203546 -0.13788705 0.02309474 54 23
1.0089809 -0.27166268 0 8 22
1.0327182 -0.13971137 -0.023384873 7 21
1.0078752 -0.27155131 -0.047049258 12 20
1.0305772 -0.13961612 -0.06957797 11 19
1.0337677 -0.27896708 -0.09299244 67 18
0.96652305 -0.26372099 0.22377025 83 30
0.97261047 -0.26505059 0.15221988 69 28
0.99823254 -0.13762452 0.11875285 44 27
0.99170679 -0.27031246 0.094912939 90 26
1.0178275 -0.14063314 0.069061212 58 25
0.99984127 -0.27255481 0.046699882 77 24
1.0223434 -0.14178535 0.023152767 51 23
1.0080744 -0.2750071 0 8 22
1.0322242 -0.14331539 -0.023384873 8 21
1.0117365 -0.27639416 -0.047282174 14 20
1.0350507 -0.14370723 -0.069923274 12 19
0.95616627 -0.26464173 0.22151563 89 30
0.97163248 -0.26861361 0.15221988 77 28
1.0026371 -0.14196618 0.11935873 55 27
0.98831224 -0.27327704 0.094675057 90 26
1.0123651 -0.1436737 0.068714164 59 25
1.0012411 -0.27688831 0.046816342 55 24
1.0168918 -0.14466093 0.023036713 23 23
1.0022438 -0.27735627 0 10 22
1.0341671 -0.1474447 -0.023442902 8 21
1.0059549 -0.27858093 -0.047049258 29 20
1.0271076 -0.1464612 -0.069405325 33 19
0.95758027 -0.26864094 0.22207928 88 30
0.970689 -0.27200362 0.15221988 81 28
0.99476546 -0.14441364 0.11844991 67 27
0.98979557 -0.27722928 0.094912939 88 26
1.0167952 -0.1479129 0.069061212 55 25
0.99065584 -0.27766511 0.046350509 12 24
1.0262766 -0.14962865 0.023268819 12 23
1.0012695 -0.28085309 0 11 22
1.0336725 -0.1508733 -0.023442902 10 21
1.0145881 -0.28481051 -0.047515094 76 20
1.033996 -0.15111016 -0.069923274 51 19
0.95434278 -0.27114394 0.22151563 90 30
0.97453088 -0.27658015 0.15299256 80 28
1.0041032 -0.14914623 0.11966167 70 27
0.98882174 -0.28068259 0.094912939 85 26
1.0162991 -0.15128389 0.069061212 56 25
1.001734 -0.28438416 0.046932798 11 24
1.0134107 -0.15121633 0.022978684 11 23
1.0099461 -0.28692487 0 12 22
1.0257214 -0.15338913 -0.023268819 10 21
1.0112374 -0.28748551 -0.047398631 83 20
1.0310218 -0.15417515 -0.069750629 55 19
0.95572948 -0.27515271 0.22207928 89 30
0.97118723 -0.27929235 0.15260622 80 28
0.99866796 -0.15191585 0.11905579 74 27
0.98066533 -0.28205329 0.0941993 84 26
1.0157647 -0.15483053 0.069061212 56 25
1.0031338 -0.28857458 0.047049258 10 24
1.0227629 -0.1562392 0.023210794 10 23
1.0065373 -0.28975183 0 12 22
1.0251796 -0.15696864 -0.023268819 11 21
1.0102277 -0.29101363 -0.047398631 83 20
1.0329435 -0.15814479 -0.069923274 55 19
0.95709991 -0.27917442 0.22264293 90 30
0.97257626 -0.28337687 0.15299256 78 28
0.99813157 -0.15540093 0.11905579 73 27
0.98922598 -0.2882804 0.095150813 77 26
1.0152181 -0.15837526 0.069061212 55 25
0.99253625 -0.28925914 0.046583425 10 24
1.0098325 -0.15808357 0.022920657 10 23
1.0007228 -0.29185352 0 12 22
1.034506 -0.1620705 -0.023500927 11 21
1.0187372 -0.29753473 -0.047864471 80 20
1.0348501 -0.16212974 -0.070095927 55 19
0.9560703 -0.28268048 0.22264293 90 30
0.96679664 -0.28553003 0.15221988 78 28
1.0024583 -0.15982775 0.11966167 70 27
0.98577756 -0.29119399 0.094912939 77 26
1.0146308 -0.16209514 0.069061212 54 25
1.0010431 -0.29574543 0.047049258 10 24
1.0117434 -0.16199684 0.022978684 11 23
0.99485451 -0.29409176 0 12 22
1.033905 -0.16586107 -0.023500927 12 21
1.0129058 -0.29966208 -0.047631547 81 20
1.0293219 -0.16514298 -0.069750629 55 19
0.95740938 -0.28672007 0.22320658 90 30
0.96815878 -0.28961608 0.15260622 76 28
1.0018944 -0.16332603 0.11966167 69 27
0.98718929 -0.2951794 0.095150813 73 26
1.0140588 -0.16563591 0.069061212 45 25
0.99283189 -0.29707503 0.046699882 11 24
1.0111718 -0.16552749 0.022978684 10 23
0.99142849 -0.29684052 0 12 22
1.0284146 -0.16849209 -0.023384873 17 21
1.009463 -0.30247417 -0.047515094 85 20
1.023815 -0.16793919 -0.069405325 58 19
0.94713598 -0.28704655 0.22095196 90 30
0.9648307 -0.29210413 0.15221988 72 28
0.99889833 -0.16624606 0.11935873 69 27
0.9885332 -0.2993499 0.095388688 19 26
1.0184259 -0.16980639 0.069408253 17 25
1.0013955 -0.30328131 0.047165714 11 24
1.0106173 -0.16887973 0.022978684 11 23
1.0023937 -0.30377707 0 62 22
1.0327522 -0.17289475 -0.023500927 48 21
1.0108427 -0.30654973 -0.047631547 84 20
1.028174 -0.17214547 -0.069750629 56 19
0.95776242 -0.29395008 0.22377025 90 30
0.97088492 -0.29765773 0.15337892 65 28
1.0007595 -0.17014186 0.11966167 67 27
0.9851045 -0.30206406 0.095150813 12 26
1.0055293 -0.17129575 0.068540648 12 25
0.99794471 -0.30603775 0.047049258 11 24
1.0099915 -0.17258272 0.022978684 11 23
0.9989388 -0.30653578 0 81 22
1.0296777 -0.17608315 -0.023442902 54 21
1.0049411 -0.30877563 -0.047398631 85 20
1.0300261 -0.17614806 -0.069923274 55 19
0.94970602 -0.29527339 0.22207928 88 30
0.9603585 -0.29826298 0.15183352 62 28
0.99523723 -0.17297076 0.11905579 65 27
0.98874086 -0.30715939 0.09562657 11 26
1.0122688 -0.17624582 0.069061212 12 25
0.99204981 -0.30820146 0.046816342 11 24
1.0069199 -0.1756835 0.022920657 11 23
1.0001943 -0.31094217 0 83 22
1.0265625 -0.17943136 -0.023384873 55 21
1.0110062 -0.31452203 -0.047748011 81 20
1.0244581 -0.17907481 -0.06957797 55 19
0.95331287 -0.30005962 0.22320658 83 30
0.96166617 -0.30235946 0.15221988 58 28
0.9970718 -0.17687121 0.11935873 59 27
0.98771685 -0.31043646 0.09562657 11 26
1.0067343 -0.17891723 0.068714164 11 25
0.99810994 -0.3139253 0.047165714 11 24
1.0013771 -0.17833266 0.022804603 11 23
0.99671978 -0.31367615 0 83 22
1.0259619 -0.18283458 -0.023384873 56 21
1.0051414 -0.31653896 -0.047515094 84 20
1.0238267 -0.18264975 -0.06957797 55 19
0.95231253 -0.30321929 0.22320658 78 30
0.96065825 -0.30554679 0.15221988 58 28
0.99892288 -0.18061228 0.11966167 62 27
0.99610686 -0.31692046 0.096578076 11 26
1.0135007 -0.18357062 0.069234729 12 25
0.98755085 -0.31418476 0.046699882 11 24
1.0081608 -0.1829737 0.022978684 11 23
1.0004352 -0.31850648 0 78 22
1.0253173 -0.18641473 -0.023384873 55 21
1.006464 -0.32063338 -0.047631547 84 20
1.028125 -0.18692459 -0.069923274 55 19
0.95356488 -0.30729386 0.22377025 72 30
0.96193522 -0.30966029 0.15260622 26 28
0.99828631 -0.18409805 0.11966167 55 27
0.98789281 -0.3180922 0.095864438 11 26
1.0177609 -0.18800171 0.069581769 12 25
0.99119896 -0.31917092 0.046932798 11 24
1.0124334 -0.18738981 0.02309474 11 23
0.99456155 -0.32045326 0 77 22
1.0246603 -0.18999262 -0.023384873 55 21
1.0029635 -0.32337338 -0.047515094 81 20
1.0250131 -0.19006337 -0.069750629 55 19
0.94785863 -0.30909988 0.22264293 73 30
0.97023576 -0.31609711 0.1541516 11 28
0.99763763 -0.18758161 0.11966167 30 27
0.99387008 -0.32386678 0.096578076 11 26
1.0146464 -0.19109744 0.069408253 30 25
0.98770618 -0.32185018 0.046816342 18 24
1.0191106 -0.1924734 0.023268819 33 23
0.99343687 -0.32392299 0 77 22
1.0264479 -0.19402668 -0.023442902 54 21
1.0160058 -0.33172718 -0.048213843 50 20
1.026795 -0.19409765 -0.069923274 44 19
0.95134163 -0.31410953 0.22377025 69 30
0.99874443 -0.19069956 0.18943819 51 29
0.96672672 -0.31887227 0.15376526 10 28
0.98962861 -0.18985209 0.11875285 28 27
0.99267632 -0.32750735 0.096578076 11 26
1.0139393 -0.19481502 0.069408253 48 25
0.98651981 -0.32546815 0.046816342 62 24
1.0135219 -0.19509636 0.023152767 41 23
0.99224299 -0.32756194 0 77 22
1.0208194 -0.19685258 -0.023326848 54 21
1.0101023 -0.33369511 -0.047980927 41 20
1.0211767 -0.19692679 -0.06957797 19 19
0.95254773 -0.31820524 0.2243339 66 30
0.99566197 -0.19372174 0.18896461 62 29
0.97263139 -0.32460579 0.15492429 10 28
0.99626976 -0.19471568 0.11966167 41 27
0.99158484 -0.33079737 0.096578076 11 26
1.013253 -0.19835314 0.069408253 52 25
0.99247909 -0.33129689 0.047165714 52 24
1.0079273 -0.19768268 0.023036713 22 23
1.0005717 -0.33421147 0 54 22
1.0226146 -0.20071223 -0.023384873 40 21
1.0065645 -0.3364225 -0.047864471 67 20
1.0229316 -0.2009652 -0.069750629 22 19
0.94687563 -0.31979322 0.22320658 43 30
0.99019581 -0.1960806 0.18801741 72 29
0.9692111 -0.32703462 0.15453795 11 28
1.0004889 -0.19897474 0.12026756 52 27
0.9904241 -0.33425665 0.096578076 18 26
1.0150367 -0.20219354 0.069581769 54 25
0.98664606 -0.33297911 0.046932798 25 24
1.0121704 -0.20199063 0.023152767 12 23
0.98999035 -0.33430827 0 22 22
1.0194559 -0.20379645 -0.023326848 17 21
1.0078075 -0.34056288 -0.047980927 77 20
1.0247062 -0.20483939 -0.069923274 44 19
0.95496583 -0.32626677 0.2254612 12 30
0.98950535 -0.19953582 0.18801741 78 29
0.96572781 -0.32961291 0.1541516 11 28
0.99492133 -0.20149253 0.11966167 55 27
0.98454434 -0.33609384 0.09610232 45 26
1.009434 -0.20475551 0.069234729 54 25
0.99020106 -0.33804473 0.047165714 10 24
1.008973 -0.20520677 0.02309474 11 23
0.99590957 -0.34020123 0 12 22
1.0236387 -0.2083392 -0.023442902 12 21
1.0041913 -0.34344143 -0.047864471 78 20
1.0215398 -0.20792335 -0.069750629 54 19
0.94916332 -0.3281627 0.2243339 10 30
0.99117309 -0.20364934 0.188491 80 29
0.9691788 -0.33477321 0.15492429 11 28
1.0014709 -0.20662454 0.1205705 65 27
0.97860485 -0.33806491 0.09562657 67 26
1.0135639 -0.20945175 0.069581769 54 25
0.9865967 -0.34085128 0.047049258 7 24
1.0155963 -0.21023002 0.023268819 10 23
0.99229491 -0.34302741 0 12 22
1.0228683 -0.21208963 -0.023442902 12 21
1.0053446 -0.34776586 -0.047980927 78 20
1.0232142 -0.21216673 -0.069923274 56 19
0.95490396 -0.33390096 0.22602484 10 30
0.99045616 -0.20710793 0.188491 81 29
0.96567446 -0.33733466 0.15453795 11 28
0.99831372 -0.20961499 0.12026756 69 27
0.97976649 -0.34230462 0.095864438 69 26
1.0128266 -0.21298847 0.069581769 54 25
0.9901126 -0.34595045 0.047282174 7 24
1.0099627 -0.21275505 0.023152767 10 23
0.99109155 -0.34648904 0 12 22
1.019675 -0.21514857 -0.023384873 12 21
0.99705821 -0.34878451 -0.047631547 84 20
1.0249089 -0.21624631 -0.070095927 58 19
0.95143819 -0.33641511 0.2254612 10 30
0.9825204 -0.20904925 0.18707021 83 29
0.97147238 -0.34318659 0.15569697 11 28
0.997576 -0.21309847 0.12026756 69 27
0.97628111 -0.34471816 0.09562657 14 26
1.0169569 -0.21755454 0.06992881 26 25
0.99125171 -0.35024133 0.047398631 8 24
1.0116589 -0.21679711 0.023210794 10 23
0.9969418 -0.35246113 0 72 22
1.0287359 -0.22060217 -0.023616981 43 21
1.0075976 -0.35645139 -0.048213843 78 20
1.021708 -0.21930489 -0.069923274 58 19
0.95490098 -0.34121761 0.2265885 10 30
0.98662293 -0.21333203 0.18801741 83 29
0.96568018 -0.34473535 0.15492429 10 28
0.9968639 -0.21640539 0.12026756 69 27
0.98209763 -0.35064924 0.096340194 10 26
1.01623 -0.22092569 0.06992881 12 25
0.9853847 -0.35183716 0.047165714 10 24
1.008491 -0.21962468 0.023152767 10 23
0.99341512 -0.3549192 0 80 22
1.0206301 -0.22261114 -0.023442902 54 21
1.0040603 -0.35894525 -0.048097387 80 20
1.0209752 -0.22269179 -0.069923274 56 19
0.95599282 -0.34538138 0.22715214 10 30
0.98587227 -0.21677469 0.18801741 80 29
0.95750672 -0.34557346 0.15376526 10 28
0.99610239 -0.21988377 0.12026756 67 27
0.98554569 -0.35577515 0.096815944 8 26
1.0105797 -0.22340652 0.069581769 11 25
0.99119186 -0.35783336 0.047515094 10 24
1.0052381 -0.2227845 0.02309474 11 23
0.98982054 -0.35753044 0 80 22
1.0198468 -0.22617243 -0.023442902 58 21
1.0121245 -0.36603937 -0.048563223 77 20
1.0177555 -0.22572002 -0.069750629 56 19
0.95700639 -0.34972402 0.22771581 12 30
0.98027736 -0.21932653 0.18707021 81 29
0.96087033 -0.35078466 0.15453795 11 28
0.99528974 -0.2235332 0.12026756 67 27
0.98423511 -0.35938495 0.096815944 7 26
1.0170575 -0.22873347 0.070102334 10 25
0.99456179 -0.36318681 0.047748011 11 24
1.0020146 -0.22574858 0.023036713 11 23
0.98850346 -0.36115593 0 81 22
1.019011 -0.22990885 -0.023442902 59 21
1.0193555 -0.22999196 -0.069923274 55 19
0.95349687 -0.35221341 0.22715214 17 30
0.97711098 -0.2222086 0.18659662 77 29
0.95732474 -0.35327646 0.1541516 32 28
0.99208266 -0.22645959 0.11996461 58 27
0.99003714 -0.36524561 0.097529583 8 26
1.0186855 -0.23283225 0.070275851 10 25
0.99094695 -0.36578658 0.047631547 11 24
1.0134085 -0.232005 0.023326848 12 23
0.98958021 -0.36547527 0 84 22
1.018243 -0.23328674 -0.023442902 58 21
1.0209788 -0.23410049 -0.070095927 54 19
0.95460379 -0.35622999 0.22771581 23 30
0.98594135 -0.227633 0.188491 77 29
0.95614797 -0.3564491 0.1541516 25 28
0.99374515 -0.23030269 0.12026756 55 27
0.98409617 -0.36695045 0.097053826 10 26
1.0154771 -0.235651 0.070102334 10 25
0.98972851 -0.36907068 0.047631547 12 24
1.0150694 -0.23592438 0.023384873 12 23
0.99070323 -0.36963359 0 78 22
1.0174224 -0.23683965 -0.023442902 58 21
1.0201969 -0.23748489 -0.070095927 54 19
0.94880044 -0.357831 0.2265885 14 30
0.98753196 -0.23162787 0.18896461 66 29
0.95258844 -0.35890862 0.15376526 8 28
0.99051827 -0.2332072 0.11996461 41 27
0.98513621 -0.37126589 0.097291701 10 26
1.0146482 -0.23919423 0.070102334 10 25
0.99543911 -0.37517998 0.047980927 50 24
1.0069383 -0.23776041 0.023210794 23 23
0.99174434 -0.37397647 0 81 22
1.0190232 -0.24095912 -0.023500927 55 21
1.02179 -0.24161284 -0.070268571 45 19
0.94754565 -0.36114073 0.2265885 12 30
0.9867174 -0.2350736 0.18896461 62 29
0.95824879 -0.36488342 0.15492429 7 28
0.98969817 -0.23666334 0.11996461 14 27
0.98383415 -0.37470239 0.097291701 10 26
0.99924648 -0.23928453 0.069061212 11 25
0.98945975 -0.37686497 0.047748011 78 24
1.013355 -0.24318197 0.023384873 51 23
0.99043286 -0.37743607 0 81 22
1.0181758 -0.24451472 -0.023500927 55 21
1.0233669 -0.24575481 -0.070441224 17 19
0.94848633 -0.36549202 0.22715214 11 30
0.98823649 -0.23926032 0.18943819 61 29
0.95920825 -0.36928552 0.15531063 8 28
0.98158574 -0.23854873 0.11905579 12 27
0.98484099 -0.37903309 0.097529583 11 26
1.0056367 -0.24469702 0.069581769 11 25
0.98574322 -0.3795867 0.047631547 83 24
1.0076407 -0.24554574 0.023268819 58 23
0.99137384 -0.38196731 0 73 22
1.0173161 -0.24806733 -0.023500927 58 21
1.0176108 -0.24833277 -0.070095927 10 19
0.93819767 -0.36508206 0.22489755 45 30
0.98266697 -0.2413767 0.188491 55 29
0.96257871 -0.37426442 0.15608333 8 28
0.99284369 -0.24474323 0.1205705 10 27
0.97887683 -0.38065484 0.097053826 12 26
0.99997437 -0.24684663 0.069234729 11 25
0.99145573 -0.38558343 0.047980927 84 24
1.0043933 -0.24829182 0.023210794 65 23
0.99010175 -0.38525271 0 73 22
1.016444 -0.2516169 -0.023500927 58 21
1.026471 -0.25408047 -0.070786528 7 19
0.95050603 -0.37373206 0.22827944 58 30
0.98181844 -0.24480537 0.188491 39 29
0.95437539 -0.37489799 0.15492429 8 28
0.98234797 -0.24582115 0.11935873 10 27
0.98448527 -0.38681418 0.097767465 12 26
1.0063684 -0.25213683 0.069755293 11 25
0.98778147 -0.38812381 0.047864471 83 24
1.0059019 -0.25257435 0.023268819 62 23
0.98642617 -0.38778695 0 77 22
1.0131341 -0.25456005 -0.023442902 55 21
1.0304184 -0.25886619 -0.071131825 7 19
0.94460696 -0.37540433 0.22715214 65 30
0.97615236 -0.24720874 0.18754381 19 29
0.95528853 -0.37930989 0.15531063 10 28
0.98866034 -0.25123614 0.12026756 10 27
0.97843879 -0.38857311 0.097291701 12 26
1.0054375 -0.25582367 0.069755293 11 25
0.98635226 -0.3917416 0.047864471 83 24
1.009861 -0.2573069 0.023384873 58 23
0.98731959 -0.39232782 0 73 22
1.0194638 -0.26010841 -0.023616981 54 21
1.0342989 -0.26386303 -0.071477123 7 19
0.95232391 -0.3823489 0.22940676 67 30
0.98004156 -0.2518248 0.188491 10 29
0.95853961 -0.38449115 0.15608333 11 28
0.99258626 -0.25591326 0.12087344 11 27
0.97714484 -0.3918156 0.097291701 14 26
1.0069547 -0.25994945 0.06992881 12 25
0.98961043 -0.39705166 0.048097387 78 24
1.0065355 -0.26021057 0.023326848 59 23
0.99058038 -0.39764401 0 51 22
1.0234379 -0.26472822 -0.023733035 52 21
1.0237079 -0.2649942 -0.070786528 7 19
0.98395497 -0.25629926 0.18943819 8 29
0.95268452 -0.38580352 0.15531063 12 28
0.98932976 -0.25858167 0.1205705 11 27
0.97807598 -0.39616323 0.097529583 77 26
1.0085013 -0.26391289 0.070102334 33 25
0.98597556 -0.39938873 0.047980927 81 24
1.0105053 -0.26480272 0.023442902 58 23
0.99157125 -0.40187052 0 11 22
1.0225075 -0.26829907 -0.023733035 34 21
1.0300651 -0.27026972 -0.071304478 7 19
0.99017876 -0.26159605 0.19085898 7 29
0.95133203 -0.38912663 0.15531063 10 28
0.98362058 -0.26077315 0.11996461 11 27
0.97438574 -0.39862773 0.097291701 80 26
1.009986 -0.26806575 0.070275851 52 25
0.98688489 -0.40377846 0.048097387 78 24
1.0046945 -0.26723111 0.023326848 58 23
0.99709755 -0.40818489 0 10 22
1.0167314 -0.2705923 -0.023616981 12 21
1.0291154 -0.27386367 -0.071304478 8 19
0.98446828 -0.26396361 0.18991178 8 29
0.95446074 -0.39450765 0.15608333 11 28
0.98265815 -0.26437658 0.11996461 11 27
0.97291815 -0.40219638 0.097291701 81 26
1.0041773 -0.2704798 0.06992881 54 25
0.98309237 -0.40643391 0.047980927 78 24
1.0013407 -0.2700913 0.023268819 59 23
0.99328649 -0.41087636 0 10 22
1.0181472 -0.27496308 -0.02367501 11 21
1.0305139 -0.27827838 -0.071477123 10 19
0.98828149 -0.26867488 0.19085898 7 29
0.95990968 -0.40070596 0.15724234 8 28
0.98412508 -0.26845241 0.12026756 11 27
0.97157907 -0.40542048 0.097291701 80 26
1.0008197 -0.273332 0.069755293 54 25
0.98397028 -0.41083008 0.048097387 78 24
1.0028043 -0.27423865 0.023326848 59 23
0.99415118 -0.41530949 0 10 22
1.0148174 -0.27768376 -0.023616981 10 21
1.0223153 -0.27991465 -0.070959181 10 19
0.98501694 -0.27130461 0.19038539 8 29
0.95402735 -0.40195915 0.15646966 11 28
0.9832294 -0.27171439 0.12026756 11 27
0.97015792 -0.40880945 0.097291701 80 26
1.002313 -0.2773087 0.06992881 52 25
0.97800386 -0.41214162 0.047864471 80 24
1.0067097 -0.27888575 0.023442902 55 23
0.98816526 -0.4166519 0 10 22
1.0114321 -0.28056201 -0.023558956 10 21
1.0165716 -0.28198111 -0.070613876 11 19
0.98406386 -0.27474129 0.19038539 10 29
0.94353545 -0.40139955 0.15492429 54 28
0.98466611 -0.27580845 0.1205705 11 27
0.97330093 -0.41415185 0.097767465 76 26
1.0013388 -0.28080577 0.06992881 47 25
0.98574275 -0.41948333 0.048330303 74 24
1.0056807 -0.28257364 0.023442902 54 23
0.98440659 -0.41911462 0 25 22
1.0200771 -0.28677434 -0.023791064 12 21
1.0131787 -0.28485849 -0.070441224 14 19
0.97832334 -0.27702019 0.18943819 10 29
0.95112658 -0.40877572 0.15646966 56 28
0.98125994 -0.27874321 0.12026756 17 27
0.96949214 -0.41672882 0.097529583 76 26
0.99310166 -0.28244433 0.069408253 28 25
0.9773218 -0.42012042 0.047980927 25 24
1.0070935 -0.28676122 0.023500927 43 23
0.99204206 -0.42668971 0 55 22
1.0142089 -0.28915179 -0.02367501 34 21
1.0217279 -0.29128298 -0.071131825 45 19
0.98443383 -0.28244725 0.19085898 11 29
0.95195764 -0.41308129 0.15685602 63 28
0.98266733 -0.28284743 0.1205705 43 27
0.97259325 -0.42210147 0.098005332 74 26
0.99930388 -0.28796393 0.06992881 12 25
0.98729324 -0.42852429 0.048563223 48 24
1.0012804 -0.28890046 0.023384873 51 23
0.98367351 -0.42714861 0 70 22
1.0179988 -0.29406643 -0.023791064 51 21
1.0159097 -0.2934745 -0.070786528 52 19
0.98344195 -0.28588182 0.19085898 12 29
0.97929001 -0.28558686 0.12026756 34 27
0.97346574 -0.42632753 0.098243214 69 26
0.99110562 -0.28937054 0.069408253 11 25
0.98350608 -0.43096098 0.04844676 70 24
1.0002658 -0.2923938 0.023384873 56 23
0.99132669 -0.43461353 0 70 22
1.0170181 -0.29744065 -0.023791064 54 21
1.0172744 -0.29771388 -0.070959181 52 19
0.98720157 -0.29051614 0.19180615 12 29
0.97595584 -0.28813583 0.11996461 21 27
0.97197163 -0.42972296 0.098243214 47 26
0.99253386 -0.29335681 0.069581769 10 25
0.97978973 -0.43320554 0.048330303 78 24
1.0016891 -0.29641277 0.023442902 56 23
0.98988008 -0.43789846 0 72 22
1.0159737 -0.30098891 -0.023791064 55 21
1.0186744 -0.30178857 -0.071131825 54 19
0.97205669 -0.28978711 0.18896461 26 29
0.97494411 -0.2915408 0.11996461 12 27
0.96592468 -0.43107522 0.097767465 18 26
0.99389476 -0.29752919 0.069755293 11 25
0.98510659 -0.4396905 0.048679676 72 24
0.99580467 -0.29865745 0.023326848 61 23
0.9906261 -0.44237509 0 76 22
1.0149168 -0.30453348 -0.023791064 54 21
1.0200052 -0.30605385 -0.071304478 55 19
0.9756912 -0.29475626 0.18991178 48 29
0.98337573 -0.29796791 0.12117638 10 27
0.97793871 -0.44077629 0.099194728 8 26
0.99518585 -0.30188832 0.06992881 11 25
0.97439009 -0.43917477 0.048213843 80 24
0.9995423 -0.30357307 0.023442902 59 23
0.98216742 -0.4429059 0 77 22
1.0161868 -0.30897284 -0.023849091 54 21
1.0164888 -0.30907023 -0.071131825 54 19
0.98170364 -0.30029735 0.19133258 54 29
0.97995549 -0.30067649 0.12087344 8 27
0.96960473 -0.4410817 0.098481089 48 26
1.0036689 -0.30826697 0.070622891 11 25
0.98193514 -0.44672847 0.048679676 74 24
0.99847662 -0.30706027 0.023442902 58 23
0.9851619 -0.44841221 0 77 22
1.0127118 -0.31178817 -0.023791064 52 21
1.0154037 -0.31261659 -0.071131825 54 19
0.97835571 -0.30283099 0.19085898 58 29
0.98843998 -0.30684486 0.1220852 8 27
0.96813667 -0.4442946 0.098481089 67 26
0.99787462 -0.31012443 0.070275851 25 25
0.97818071 -0.44893593 0.048563223 74 24
0.99984109 -0.31110665 0.023500927 58 23
0.98593926 -0.45272446 0 73 22
1.018836 -0.31735823 -0.023965145 33 21
1.0167445 -0.31671834 -0.071304478 56 19
0.97963685 -0.30697259 0.19133258 58 29
0.9849937 -0.30955496 0.12178227 10 27
0.96883607 -0.44872189 0.098718971 72 26
1.0063089 -0.31657732 0.070969932 48 25
0.97887158 -0.45340189 0.048679676 74 24
0.99869412 -0.31476915 0.023500927 55 23
1.010566 -0.31867424 -0.023791064 11 21
0.97850519 -0.31056106 0.19133258 58 29
0.98858535 -0.31465715 0.12238815 10 27
0.97168911 -0.45438746 0.099194728 63 26
0.99800789 -0.31800869 0.070449375 52 25
0.98172307 -0.45911154 0.048912596 70 24
1.0023549 -0.31976143 0.023616981 54 23
1.0189215 -0.32539555 -0.024023172 8 21
0.97975409 -0.31471992 0.19180615 55 29
0.9851172 -0.31735072 0.1220852 10 27
0.99451643 -0.32073054 0.070275851 54 25
0.98237079 -0.463606 0.049029056 69 24
0.99885249 -0.322496 0.023558956 54 23
1.0106397 -0.32666069 -0.023849091 7 21
0.97631329 -0.31738472 0.19133258 54 29
0.9863646 -0.32155105 0.12238815 11 27
0.99576348 -0.32496831 0.070449375 54 25
0.98074657 -0.46703231 0.049029056 66 24
0.99772072 -0.32598069 0.023558956 52 23
1.0119282 -0.33078134 -0.023907118 7 21
0.97292155 -0.31985953 0.19085898 52 29
0.97114104 -0.32019192 0.1205705 11 27
0.99231017 -0.32749251 0.070275851 54 25
0.97694349 -0.46919629 0.048912596 67 24
0.99900913 -0.33006597 0.023616981 51 23
1.0178915 -0.33664978 -0.024081198 7 21
0.969468 -0.32248458 0.19038539 48 29
0.98415303 -0.32825753 0.12238815 14 27
0.99352849 -0.33173868 0.070449375 54 25
0.9775449 -0.47369719 0.049029056 66 24
0.99542063 -0.33293808 0.023558956 47 23
1.0095942 -0.33783782 -0.023907118 7 21
0.96362293 -0.32448032 0.18943819 40 29
0.97588408 -0.32949769 0.12147932 45 27
0.99467027 -0.33617088 0.070622891 52 25
0.97356099 -0.47617507 0.048912596 69 24
1.0060991 -0.34038839 0.023849091 15 23
1.0107183 -0.34233227 -0.023965145 7 21
0.97178668 -0.33098525 0.19133258 29 29
0.97942859 -0.33449507 0.1220852 52 27
0.9982143 -0.34124339 0.070969932 52 25
0.99543852 -0.34068304 0.023616981 11 23
1.0095776 -0.34568208 -0.023965145 8 21
0.96603793 -0.33261895 0.19038539 21 29
0.97831398 -0.33774111 0.1220852 54 27
0.99471825 -0.34374261 0.070796415 52 25
1.0061227 -0.34804037 0.023907118 7 23
1.0107282 -0.35001647 -0.024023172 8 21
0.96719104 -0.33679065 0.19085898 22 29
0.97478431 -0.34034163 0.12178227 54 27
0.99586844 -0.34803003 0.070969932 51 25
1.0024796 -0.35090536 0.023849091 7 23
1.0071397 -0.35272175 -0.023965145 8 21
0.95358545 -0.33510193 0.26038545 50 31
0.96131581 -0.33871311 0.18991178 44 29
0.97353035 -0.34391209 0.12178227 54 27
0.99458611 -0.35167775 0.070969932 51 25
1.0059645 -0.35605964 0.023965145 7 23
1.0176287 -0.3605575 -0.024255278 10 21
0.95468795 -0.33923164 0.26102996 52 31
0.97169942 -0.34615764 0.19227977 52 29
0.97700179 -0.3489666 0.12238815 52 27
0.99335253 -0.35514736 0.070969932 51 25
1.0070705 -0.36040565 0.024023172 7 23
1.0070076 -0.3605814 -0.024023172 11 21
0.95128244 -0.34158498 0.26038545 52 31
0.97054619 -0.34937799 0.19227977 52 29
0.97583914 -0.35220453 0.12238815 54 27
0.99686456 -0.36012337 0.07131698 34 25
1.0058699 -0.36374325 0.024023172 7 23
1.0127989 -0.36663052 -0.024197252 36 21
0.94781166 -0.34408483 0.25974092 52 31
0.96932071 -0.35276368 0.19227977 54 29
0.97693706 -0.35645378 0.12269108 52 27
0.98856765 -0.36105052 0.070796415 12 25
1.0045298 -0.36742747 0.024023172 8 23
1.011513 -0.37016359 -0.024197252 50 21
0.9420051 -0.34590253 0.25845188 52 31
0.97263265 -0.35799885 0.19322695 54 29
0.97096378 -0.35832477 0.1220852 54 27
0.98255467 -0.36295396 0.070449375 11 25
0.99854881 -0.36920896 0.023907118 8 23
1.0054576 -0.3721441 -0.024081198 52 21
0.95212513 -0.35336295 0.26167449 51 31
0.97598243 -0.36309263 0.19417414 52 29
0.97203428 -0.36257365 0.12238815 52 27
0.9929741 -0.37071589 0.07131698 11 25
0.99491084 -0.37182277 0.023849091 11 23
1.004218 -0.37547627 -0.024081198 52 21
0.95094806 -0.35651836 0.26167449 51 31
0.96787333 -0.36375293 0.19275334 54 29
0.96850222 -0.36492556 0.1220852 51 27
0.98940372 -0.37313205 0.071143456 15 25
0.98899162 -0.37336528 0.023733035 19 23
1.0075812 -0.38073564 -0.024197252 52 21
0.95195872 -0.36068586 0.26231897 51 31
0.9757852 -0.37059358 0.19464774 52 29
0.97186494 -0.37005922 0.12269108 51 27
0.99509275 -0.37923178 0.07166402 37 25
0.99696493 -0.38053125 0.023965145 41 23
1.0062461 -0.38425043 -0.024197252 52 21
0.97212666 -0.37329298 0.19417414 52 29
0.9728201 -0.37450486 0.12299403 43 27
0.99136686 -0.38198513 0.071490496 48 25
0.99796444 -0.38490298 0.024023172 32 23
1.0024973 -0.38704109 -0.024139225 52 21
0.97081769 -0.37668407 0.19417414 52 29
0.96224743 -0.37432173 0.12178227 25 27
0.99002743 -0.3854433 0.071490496 50 25
0.99661481 -0.38838419 0.024023172 11 23
1.0058011 -0.39234403 -0.024255278 51 21
0.9672094 -0.37918007 0.19370054 51 29
0.96787018 -0.38038501 0.12269108 30 27
0.99099898 -0.38980433 0.07166402 50 25
0.99525297 -0.39186069 0.024023172 8 23
1.0068221 -0.39658806 -0.024313306 50 21
0.96594661 -0.38238537 0.19370054 51 29
0.97352964 -0.3863222 0.12359991 41 27
0.99202073 -0.39400369 0.071837537 50 25
1.0078957 -0.4006671 0.024371332 4 23
1.0054317 -0.40010005 -0.024313306 51 21
0.96460599 -0.38575482 0.19370054 51 29
0.96986967 -0.38880017 0.12329696 48 27
0.98832273 -0.39654079 0.07166402 50 25
0.99952686 -0.40140444 0.024197252 4 23
1.0063498 -0.40453416 -0.024371332 51 21
0.95862955 -0.38745889 0.19275334 50 29
0.96843815 -0.39235228 0.12329696 51 27
0.99148941 -0.40202421 0.072011061 48 25
1.0003669 -0.40599984 0.024255278 4 23
1.0071781 -0.40915537 -0.02442936 48 21
0.95499635 -0.38988045 0.19227977 50 29
0.97166049 -0.39759925 0.12390284 52 27
0.98776984 -0.40454274 0.071837537 45 25
0.99199951 -0.40666112 0.024081198 4 23
0.96732897 -0.39862448 0.19512133 48 29
0.96804088 -0.39987713 0.12359991 52 27
0.99103677 -0.40971118 0.072184578 18 25
0.9952687 -0.41184926 0.024197252 4 23
0.96663916 -0.40325382 0.12359991 52 27
0.98499334 -0.41125682 0.071837537 10 25
0.99144441 -0.41453546 0.024139225 4 23
0.96744365 -0.40775248 0.12390284 51 27
0.98807961 -0.41679236 0.072184578 7 25
0.99921012 -0.42186141 0.024371332 7 23
0.9660145 -0.41112697 0.12390284 51 27
0.97972858 -0.4173227 0.07166402 4 25
0.98622495 -0.42047194 0.024081198 7 23
0.96236336 -0.41335413 0.12359991 51 27
0.98063272 -0.42154893 0.071837537 4 25
0.98712325 -0.42472264 0.024139225 8 23
0.96547264 -0.41867486 0.12420579 50 27
0.98373544 -0.42694476 0.072184578 4 25
0.98555994 -0.42833778 0.024139225 12 23
0.96393168 -0.42221063 0.12420579 48 27
0.98673683 -0.43253961 0.072531618 4 25
0.99551368 -0.43677044 0.02442936 39 23
0.95790809 -0.42357633 0.12359991 50 27
0.98293811 -0.43497735 0.072358102 4 25
0.98940808 -0.43822882 0.024313306 47 23
0.96776587 -0.43194836 0.12511462 47 27
0.98825192 -0.44144174 0.072878659 4 25
0.98558825 -0.4406648 0.024255278 48 23
0.97538859 -0.43921 0.12632638 45 27
0.9913348 -0.44675559 0.073225707 4 25
0.98184103 -0.44290823 0.024197252 48 23
0.98749679 -0.44918576 0.07305219 7 25
0.98476475 -0.44856566 0.024313306 48 23
0.98357511 -0.45176628 0.072878659 7 25
0.98091966 -0.4509615 0.024255278 48 23
0.97293186 -0.45102191 0.072184578 21 25
0.97933954 -0.45438281 0.024255278 50 23
0.98500049 -0.46055323 0.073225707 40 25
0.98235953 -0.4597365 0.024371332 48 23
0.98564476 -0.46504787 0.073399231 44 25
0.98293012 -0.46439654 0.02442936 48 23
0.98844171 -0.47079206 0.073746271 45 25
0.9813031 -0.46782476 0.02442936 48 23
0.9841736 -0.47340402 0.024545414 47 23
0.98476607 -0.47792268 0.024603439 45 23
0.98084468 -0.48026326 0.024545414 47 23
0.97700316 -0.48241165 0.024487386 50 23
0.98194683 -0.48931855 0.024661468 50 23
1.053773 -0.0082810624 0.047515094 11 24
1.0262702 -0.011590206 0.046234049 10 24
1.0362083 -0.015522443 0.046699882 44 24
1.0227389 -0.018678533 0.094437182 76 26
1.0286577 -0.018985109 0.046350509 83 24
1.0276434 -0.022367448 0.094912939 88 26
1.028589 -0.022396157 0.046350509 89 24
1.027559 -0.025954455 0.094912939 89 26
1.0260082 -0.025918044 0.046234049 89 24
1.0249696 -0.029643172 0.094675057 84 26
1.0284023 -0.029755948 0.046350509 88 24
1.027347 -0.033306789 0.094912939 88 26
1.0257965 -0.03325928 0.046234049 84 24
1.0197703 -0.036430709 0.0941993 88 26
1.0281696 -0.036934767 0.046350509 63 24
1.0292425 -0.037155494 0 10 22
1.0221235 -0.040093064 0.094437182 87 26
1.0230511 -0.040137555 0.046117589 17 24
1.0241179 -0.040360745 0 23 22
1.0219697 -0.043839067 0.094437182 87 26
1.0179076 -0.043662127 0.045884673 14 24
1.0289581 -0.04434 0 83 22
1.0218104 -0.047406141 0.094437182 85 26
1.0252321 -0.047578394 0.046234049 14 24
1.0238029 -0.047688082 0 90 22
1.0191534 -0.05084325 0.0941993 88 26
1.0150841 -0.050637517 0.045768213 14 24
1.0311199 -0.051652744 0 85 22
1.0164943 -0.05408499 0.093961425 89 26
1.0174041 -0.054141477 0.045884673 14 24
1.0259508 -0.054794412 0 89 22
1.0187837 -0.057779178 0.0941993 87 26
1.0246879 -0.058132954 0.046234049 14 24
1.0282489 -0.058522712 0 88 22
1.0235435 -0.061644979 0.094675057 89 26
1.0145088 -0.061087422 0.045768213 33 24
1.0280384 -0.062111612 0 84 22
1.044396 -0.063317999 -0.047165714 11 20
