# .PCD v0.7 - Point Cloud Data file format
VERSION 0.7
FIELDS x y z intensity ring
SIZE 4 4 4 4 2
TYPE F F F F U
COUNT 1 1 1 1 1
WIDTH 1036
HEIGHT 1
VIEWPOINT 0 0 0 1 0 0 0
POINTS 1036
DATA ascii
0.9761399 -0.062108409 0.090155393 8 26
0.9684577 -0.065167524 0.089441761 39 26
0.95830798 -0.067654826 0.088490255 52 26
0.95558459 -0.070809908 0.088252373 51 26
0.96029311 -0.074541666 0.088728137 51 26
0.96249348 -0.078268193 0.088966012 52 26
0.97317511 -0.079167522 0.043904878 12 24
0.96470797 -0.081675112 0.089203887 52 26
0.97289276 -0.082564048 0.043904878 8 24
0.9718526 -0.085714839 0.089917518 36 26
0.96763945 -0.085339755 0.043671962 39 24
0.97154748 -0.089106716 0.089917518 8 26
0.97479463 -0.089418069 0.044021338 56 24
0.97369123 -0.092909001 0.090155393 4 26
0.97197491 -0.092747442 0.043904878 63 24
0.96840888 -0.095805995 0.089679644 7 26
0.96916062 -0.095888212 0.043788418 69 24
0.97798651 -0.10005219 0.09063115 4 26
0.96633631 -0.099010453 0.043671962 70 24
0.98505408 -0.10426781 0.091344781 7 26
0.97096831 -0.1027512 0.043904878 67 24
0.99433678 -0.10545299 0 8 22
0.98713851 -0.10815407 0.091582656 7 26
0.9755488 -0.1068643 0.044137795 67 24
0.97406787 -0.1068708 0 32 22
0.98181045 -0.11102881 0.091106899 8 26
0.98013157 -0.11084128 0.044370711 70 24
0.97617239 -0.11055719 0 51 22
0.98885077 -0.11516412 0.091820531 11 26
0.97477895 -0.11367225 0.044137795 69 24
0.98074538 -0.11455515 0 55 22
0.98103189 -0.11770916 0.091106899 10 26
0.98183316 -0.11781325 0.044487171 70 24
0.98036015 -0.11780679 0 55 22
0.99296105 -0.12268597 0.092296287 11 26
0.98637152 -0.12186316 0.044720087 67 24
0.97994298 -0.12122816 0 55 22
0.98878509 -0.1226926 -0.044836547 12 20
0.98510069 -0.12536554 0.091582656 12 26
0.98344159 -0.12515679 0.044603627 67 24
0.98692971 -0.1257837 0 54 22
0.99825674 -0.1274299 -0.04530238 8 20
0.98961341 -0.12928724 0.092058413 12 26
0.98299873 -0.12858889 0.044603627 62 24
0.97161615 -0.12724671 0 47 22
0.98047847 -0.12860173 -0.044487171 37 20
0.98175859 -0.1317315 0.091344781 40 26
0.98009253 -0.1315103 0.044487171 65 24
0.97861975 -0.13148327 0 10 22
0.97757232 -0.13151391 -0.044370711 54 20
0.99115133 -0.13653791 0.092296287 56 26
0.97962755 -0.13493066 0.044487171 66 24
0.98310643 -0.13559262 0 4 22
0.98697561 -0.13648623 -0.044836547 55 20
0.98325419 -0.13910747 0.091582656 62 26
0.98407018 -0.13923091 0.044720087 70 24
0.98507732 -0.13955113 0 4 22
0.98649323 -0.13993059 -0.044836547 59 20
0.98524964 -0.14272957 0.091820531 62 26
0.98110747 -0.14230114 0.044603627 70 24
0.98953068 -0.14371839 0 4 22
0.98846924 -0.14373805 -0.044953004 62 20
1.0225792 -0.14913346 -0.089639343 7 18
0.98966718 -0.14690955 0.092296287 61 26
0.98803842 -0.14667027 0.044953004 56 24
0.99646473 -0.14811791 0 4 22
0.99045646 -0.14738815 -0.045069464 59 20
1.0072813 -0.15046281 -0.088298112 12 18
0.9722181 -0.14773905 0.14835642 54 28
0.98668879 -0.14998381 0.092058413 61 26
0.98752046 -0.15011826 0.044953004 61 24
0.99347091 -0.15121372 0 7 22
0.98744166 -0.15063532 -0.044953004 62 20
0.99444729 -0.152069 -0.087180413 41 18
0.97167009 -0.15130143 0.14835642 58 28
0.98613244 -0.1535992 0.092058413 62 26
0.99189693 -0.15451631 0.04518592 39 24
1.0003178 -0.15602593 0 8 22
0.99184293 -0.15486252 -0.04518592 59 20
0.99634236 -0.15610361 -0.087403953 52 18
0.97113603 -0.15469225 0.14835642 59 28
0.98804706 -0.15743753 0.092296287 58 26
0.99381685 -0.15837613 0.04530238 15 24
0.99483132 -0.1587182 0 8 22
0.99376148 -0.15872304 -0.04530238 58 20
0.99824911 -0.15997994 -0.087627493 52 18
0.97546399 -0.15888633 0.14912911 55 28
0.99240226 -0.1616967 0.092772037 58 26
0.99818575 -0.16265826 0.045535296 11 24
0.99920422 -0.16300561 0 7 22
0.99566513 -0.16259882 -0.045418836 56 20
1.0025972 -0.16427945 -0.088074572 52 18
0.97733891 -0.16270141 0.14951546 56 28
0.9893778 -0.16474567 0.092534162 59 26
1.0000743 -0.16655719 0.045651756 11 24
0.991234 -0.165243 0 7 22
0.99509144 -0.16607334 -0.045418836 56 20
0.9995628 -0.16736163 -0.087851033 54 18
0.97676504 -0.16611198 0.14951546 55 28
0.98882604 -0.16802566 0.092534162 59 26
1.0019479 -0.1704713 0.045768213 11 24
0.99557829 -0.16955224 0 7 22
0.98958397 -0.16869572 -0.04518592 61 20
1.0014558 -0.17110005 -0.088074572 52 18
0.97620887 -0.16935013 0.14951546 56 28
0.99068463 -0.17190716 0.092772037 51 26
1.0038366 -0.1742253 0.045884673 22 24
0.99254841 -0.1724195 0 7 22
0.99639744 -0.17327604 -0.045535296 58 20
1.0082085 -0.17589447 -0.088745192 14 18
0.97804296 -0.17319283 0.14990181 55 28
0.99252802 -0.17580366 0.093009919 33 26
0.99339014 -0.17596449 0.045418836 45 24
0.99440116 -0.17632495 0 40 22
0.99087077 -0.17586945 -0.04530238 62 20
1.0100389 -0.17985448 -0.088968731 11 18
0.97254246 -0.1758863 0.14912911 56 28
0.99187702 -0.17944027 0.093009919 55 26
0.99765134 -0.18050417 0.045651756 54 24
0.98883021 -0.17906669 0 19 22
0.99758828 -0.18085241 -0.045651756 44 20
1.006924 -0.18310447 -0.088745192 11 18
0.97920656 -0.18064058 0.15028815 55 28
0.99124455 -0.18290149 0.093009919 63 26
0.99947006 -0.18444405 0.045768213 55 24
0.99802876 -0.18435505 0 7 22
0.99940562 -0.18479294 -0.045768213 21 20
1.0111732 -0.18753682 -0.089192271 22 18
0.9761436 -0.18359557 0.14990181 55 28
0.99796706 -0.1875827 0.09372355 61 26
1.0037265 -0.18886591 0.046001129 54 24
0.99246764 -0.18690167 0 4 22
0.99875438 -0.18828037 -0.045768213 12 20
1.0056545 -0.1899541 -0.088745192 51 18
0.98280394 -0.18824163 0.15106083 55 28
0.99730623 -0.19106512 0.09372355 63 26
1.000643 -0.19171813 0.045884673 52 24
0.99429661 -0.19066794 0 4 22
0.99322158 -0.19063918 -0.045535296 12 20
1.0147614 -0.19536719 -0.089639343 55 18
0.9821409 -0.19167112 0.15106083 55 28
0.99907476 -0.19502731 0.093961425 61 26
0.99751782 -0.19472608 0.045768213 54 24
1.0034353 -0.19607644 0 4 22
0.99986535 -0.19573341 -0.045884673 19 20
1.0140733 -0.19890817 -0.089639343 55 18
0.98627454 -0.19624427 0.15183352 54 28
0.99835324 -0.19868779 0.093961425 62 26
1.0077255 -0.068330675 0.067846566 11 25
0.99924552 -0.19887361 0.045884673 48 24
1.0051606 -0.20024662 0 7 22
1.0040721 -0.20020962 -0.046117589 62 20
1.0133375 -0.20262361 -0.089639343 54 18
0.98074418 -0.1986942 0.15106083 56 28
1.0001268 -0.2024965 0.0941993 56 26
0.99006426 -0.07064832 0.066631921 12 25
0.99609876 -0.20185912 0.045768213 10 24
1.0044554 -0.20375405 0 8 22
1.0033671 -0.20371327 -0.046117589 69 20
1.010221 -0.20548131 -0.089415811 55 18
0.98491597 -0.20295303 0.15183352 55 28
1.0018504 -0.206494 0.094437182 55 26
0.98733711 -0.073751494 0.066458404 33 25
1.0027583 -0.2066894 0.046117589 4 24
1.0013269 -0.20657344 0 10 22
1.0051308 -0.20754969 -0.046234049 69 20
1.0143719 -0.21002646 -0.089862891 55 18
0.9817853 -0.20587753 0.15144718 55 28
0.98979014 -0.077061743 0.11693521 48 27
0.99381977 -0.20844142 0.09372355 55 26
0.97961307 -0.076632604 0.065937839 44 25
0.9971447 -0.20915255 0.045884673 4 24
1.0128275 -0.2126621 0 11 22
1.0043633 -0.21123229 -0.046234049 70 20
1.0111973 -0.21304744 -0.089639343 55 18
0.98343843 -0.20999569 0.15183352 54 28
0.96971017 -0.079124466 0.11451168 51 27
1.0027797 -0.21418282 0.094675057 54 26
0.97683948 -0.080025144 0.065764315 45 25
1.0061357 -0.21491343 0.046350509 4 24
1.0047104 -0.21478923 0 11 22
1.0060607 -0.21526462 -0.046350509 70 20
1.0128431 -0.21727973 -0.089862891 54 18
0.98511189 -0.21395679 0.15221988 51 28
0.97437441 -0.08291731 0.11511756 51 27
1.0044568 -0.21821542 0.094912939 51 26
0.98152506 -0.083846629 0.066111363 48 25
1.0053794 -0.21842419 0.046350509 7 24
1.0063963 -0.21883142 0 11 22
1.000425 -0.21770258 -0.046117589 74 20
1.002352 -0.21867004 -0.088968731 28 18
0.9867698 -0.21793213 0.15260622 51 28
0.97407907 -0.086318001 0.11511756 50 27
1.0061178 -0.22226232 0.095150813 48 26
0.98371118 -0.087487049 0.06628488 47 25
1.0143602 -0.22410795 0.046816342 7 24
1.0080662 -0.22288799 0 36 22
1.0045333 -0.22228295 -0.046350509 69 20
1.0137312 -0.22488979 -0.090086423 8 18
0.98363274 -0.22065723 0.15221988 50 28
0.97378749 -0.089547686 0.11511756 51 27
1.0078022 -0.22614759 0.095388688 10 26
0.98589957 -0.090971671 0.066458404 47 25
1.006305 -0.22581448 0.046466965 8 24
0.98791164 -0.091493897 0.022224335 11 23
1.0073215 -0.22622964 0 61 22
1.0062261 -0.22616573 -0.046466965 66 20
1.0081241 -0.2271452 -0.089639343 4 18
0.98767042 -0.22519812 0.15299256 50 28
0.97346896 -0.092946291 0.11511756 51 27
1.0070068 -0.2296641 0.095388688 4 26
0.98805922 -0.094644204 0.066631921 33 25
1.0055106 -0.22932576 0.046466965 10 24
0.98010451 -0.094413757 0.022050254 29 23
1.0065256 -0.22974448 0 63 22
1.0078236 -0.23041397 -0.046583425 63 20
1.0243069 -0.23458962 -0.091204129 3 18
0.98924345 -0.2293798 0.15337892 48 28
0.97806185 -0.096991032 0.11572345 52 27
1.0158505 -0.23562317 0.096340194 4 26
0.97777641 -0.097301923 0.065937839 12 25
1.0168207 -0.23585661 0.047049258 8 24
0.98225659 -0.098076537 0.022108281 44 23
1.0081109 -0.23400247 0 62 22
1.0070132 -0.23393051 -0.046583425 61 20
1.0234401 -0.23834231 -0.091204129 7 18
0.9884367 -0.23283151 0.15337892 44 28
0.97524804 -0.10015718 0.11542051 52 27
1.0174431 -0.23974364 0.096578076 7 26
0.98239374 -0.10121328 0.06628488 11 25
1.0062733 -0.23709299 0.046583425 8 24
0.9819082 -0.10150465 0.022108281 47 23
1.0121521 -0.2386779 0 59 22
1.0086197 -0.23802298 -0.046699882 58 20
1.0298676 -0.24364831 -0.091874748 7 18
0.99722153 -0.23860018 0.15492429 12 28
0.97736084 -0.10381678 0.11572345 52 27
1.0263193 -0.24545199 0.097529583 7 26
0.98947614 -0.10541613 0.066805445 10 25
1.007867 -0.24119046 0.046699882 8 24
0.98651952 -0.10545056 0.022224335 48 23
1.0064527 -0.24103467 0 63 22
1.0126371 -0.24271667 -0.046932798 55 20
1.0266341 -0.24647579 -0.091651201 8 18
0.99882388 -0.24249369 0.15531063 12 28
0.97701114 -0.10705724 0.11572345 54 27
1.0182048 -0.24725588 0.096815944 8 26
0.98912114 -0.10869677 0.066805445 10 25
1.0094872 -0.24512577 0.046816342 21 24
0.98616439 -0.10872141 0.022224335 48 23
1.010504 -0.24556182 0 61 22
1.0021257 -0.24369235 -0.046466965 18 20
1.0281854 -0.2506527 -0.091874748 7 18
1.005162 -0.24776761 0.15646966 4 28
0.98403114 -0.11128524 0.11663227 52 27
1.0149205 -0.25020778 0.096578076 8 26
0.99369323 -0.11269873 0.067152485 10 25
1.0158956 -0.25045666 0.047165714 51 24
0.98824328 -0.11261201 0.022282362 50 23
1.0120666 -0.24969159 0 58 22
0.99815917 -0.11389368 -0.02251447 10 21
1.0084951 -0.24917613 -0.046816342 10 20
1.0224724 -0.25303373 -0.091427661 8 18
1.0042472 -0.25145003 0.15646966 4 28
0.98115116 -0.11460935 0.11632933 52 27
1.0212351 -0.25575492 0.097291701 8 26
0.98584032 -0.11548787 0.066631921 12 25
1.0149708 -0.25417843 0.047165714 54 24
0.98784417 -0.11606093 0.022282362 50 23
1.0087209 -0.25278649 0 61 22
0.99028647 -0.11669216 -0.022340389 29 21
1.0124611 -0.25392011 -0.047049258 10 20
1.0263654 -0.25800374 -0.091874748 10 18
1.0153261 -0.25802109 0.15840138 8 28
0.97581607 -0.11745273 0.11572345 54 27
1.0227921 -0.25975773 0.097529583 7 26
0.99038464 -0.11951379 0.066978961 29 25
1.0164964 -0.25834 0.047282174 52 24
0.99239689 -0.12009684 0.022398416 48 23
1.0126755 -0.25754863 0 58 22
0.9874121 -0.11968079 -0.022282362 43 21
1.0164062 -0.25869483 -0.047282174 10 20
1.0182695 -0.25954565 -0.091204129 10 18
1.0096838 -0.26014391 0.1576287 10 28
0.98527545 -0.12188225 0.11693521 54 27
1.0315137 -0.26583052 0.098481089 7 26
0.98998284 -0.12279738 0.066978961 43 25
1.0108001 -0.26045296 0.047049258 51 24
0.98951226 -0.12308466 0.022340389 44 23
1.0093963 -0.26027605 0 61 22
0.9944309 -0.12403665 -0.022456443 47 21
1.0203762 -0.26332206 -0.047515094 8 20
1.0294043 -0.26624095 -0.092321828 10 18
1.0183231 -0.26618555 0.15917408 10 28
0.98238146 -0.1250136 0.11663227 54 27
1.0257666 -0.26816067 0.098005332 7 26
0.98954815 -0.12625231 0.066978961 47 25
1.0171292 -0.26588967 0.047398631 51 24
0.98657465 -0.12639907 0.022282362 28 23
1.0108989 -0.26443571 0 58 22
0.99399185 -0.12750711 -0.022456443 48 21
1.012161 -0.26514637 -0.047165714 8 20
1.0260614 -0.26919571 -0.092098281 19 18
1.0197266 -0.27055457 0.15956043 11 28
0.98683941 -0.12924574 0.11723815 52 27
1.0223728 -0.27127522 0.097767465 47 26
0.99649942 -0.13083422 0.067499526 48 25
1.0233852 -0.27155238 0.047748011 37 24
0.99108481 -0.13048242 0.022398416 12 23
1.0147529 -0.26943231 0 32 22
0.99103922 -0.13082837 -0.022398416 50 21
1.0112293 -0.26867786 -0.047165714 26 20
1.0274726 -0.27360034 -0.092321828 54 18
1.0116247 -0.27217209 0.15840138 12 28
0.98638219 -0.13268965 0.11723815 54 27
1.0262233 -0.27614561 0.098243214 37 26
0.99356425 -0.1339846 0.067326002 48 25
1.022431 -0.275123 0.047748011 12 24
0.98814577 -0.13361235 0.022340389 10 23
1.0162188 -0.27362785 0 52 22
0.9955315 -0.13494633 -0.02251447 50 21
1.0247447 -0.27613464 -0.047864471 51 20
1.0033827 -0.13599724 -0.067678824 12 19
1.0217063 -0.27587703 -0.091874748 58 18
1.0178131 -0.27766696 0.15956043 10 28
0.98591304 -0.13613197 0.11723815 54 27
1.0252532 -0.27972615 0.098243214 12 26
0.99556178 -0.13778785 0.067499526 48 25
1.0214643 -0.27869028 0.047748011 10 24
0.99262619 -0.13773574 0.022456443 8 23
1.0176678 -0.27783692 0 55 22
0.99753064 -0.13875888 -0.022572497 51 21
1.0189594 -0.27838364 -0.047631547 55 20
0.98807538 -0.13747318 -0.066642925 36 19
1.0279378 -0.28142923 -0.09254536 54 18
1.0120792 -0.27989131 0.15878774 10 28
0.98788977 -0.13991456 0.11754109 52 27
1.0266676 -0.28397161 0.098481089 7 26
0.99260461 -0.14091764 0.067326002 26 25
1.0156742 -0.2809127 0.047515094 10 24
0.9970898 -0.14189203 0.022572497 7 23
1.0215079 -0.28273129 0 54 22
0.99208999 -0.14154612 -0.022456443 52 21
1.0251973 -0.28395349 -0.047980927 52 20
0.99746901 -0.14230633 -0.067333527 44 19
1.0269492 -0.28501564 -0.09254536 55 18
1.0063422 -0.28207901 0.15801504 45 28
0.98493868 -0.14301157 0.11723815 52 27
1.0257204 -0.28737465 0.098481089 7 26
0.98716897 -0.14367537 0.066978961 11 25
1.0267035 -0.28785196 0.048097387 11 24
0.99411446 -0.14501692 0.02251447 8 23
1.0205147 -0.28629532 0 55 22
0.99408913 -0.14519042 -0.02251447 52 21
1.0266029 -0.28821036 -0.048097387 51 20
1.0019035 -0.14649698 -0.067678824 45 19
1.0355811 -0.29113483 -0.093439519 52 18
1.0101506 -0.28677374 0.15878774 52 28
0.98445898 -0.14627697 0.11723815 51 27
1.0318887 -0.29300746 0.099194728 7 26
0.9940902 -0.14803208 0.067499526 8 25
1.0209414 -0.2898809 0.047864471 21 24
1.0010465 -0.14940158 0.022688551 10 23
1.0243665 -0.2910544 0 54 22
0.99604899 -0.14902337 -0.022572497 52 21
1.0232407 -0.29092515 -0.047980927 47 20
1.0038797 -0.15018167 -0.067851476 47 19
1.0345584 -0.29474789 -0.093439519 51 18
1.0115156 -0.29098594 0.15917408 52 28
0.98885089 -0.15044694 0.11784403 50 27
1.023689 -0.29452842 0.098481089 8 26
0.99110097 -0.15113129 0.067326002 7 25
1.0271188 -0.29552925 0.048213843 55 24
0.99307787 -0.15195356 0.02251447 10 23
1.0209433 -0.29393169 0 52 22
0.99552274 -0.15249932 -0.022572497 52 21
1.0173714 -0.29328012 -0.047748011 7 20
1.0008831 -0.15331328 -0.067678824 47 19
1.0311325 -0.29766187 -0.093215987 54 18
1.0104423 -0.29469135 0.15917408 52 28
0.98583996 -0.153694 0.11754109 50 27
1.027378 -0.29968211 0.098956846 8 26
0.9954704 -0.15552077 0.067673042 4 25
1.0260286 -0.29929185 0.048213843 59 24
0.99501151 -0.15579975 0.022572497 11 23
1.0222576 -0.29837707 0 54 22
0.99989718 -0.15691005 -0.022688551 51 21
1.0235286 -0.29894492 -0.048097387 3 20
1.0027792 -0.15736136 -0.067851476 44 19
1.0443643 -0.30566484 -0.094557218 54 18
1.0046729 -0.29680708 0.15840138 52 28
0.98774904 -0.15751907 0.11784403 48 27
1.0311491 -0.30450684 0.099432595 10 26
0.99738508 -0.15938219 0.067846566 4 25
1.0297645 -0.30429676 0.04844676 63 24
0.99446166 -0.15927204 0.022572497 12 23
1.0212097 -0.3019436 0 54 22
0.99937141 -0.16022497 -0.022688551 52 21
1.0248719 -0.3032293 -0.048213843 4 20
0.99483353 -0.15969288 -0.067333527 14 19
1.0155078 -0.30370036 0.16033313 45 28
0.99212176 -0.16157952 0.11844991 43 27
1.0372285 -0.31025854 0.10014623 11 26
1.009163 -0.16466746 0.068714164 7 25
1.033532 -0.30915096 0.048679676 61 24
0.99639553 -0.16296637 0.022630524 40 23
1.02499 -0.3067719 0 54 22
1.0062082 -0.16490737 -0.02286263 51 21
1.0334241 -0.30951172 -0.048679676 4 20
0.99922282 -0.1637859 -0.067678824 10 19
1.0144415 -0.30724329 0.16033313 28 28
0.98910284 -0.16464022 0.11814697 12 27
1.0361391 -0.31387725 0.10014623 11 26
1.0011991 -0.16697611 0.068193607 7 25
1.030058 -0.31202793 0.048563223 63 24
1.0031897 -0.16783668 0.022804603 50 23
1.026304 -0.31107804 0 52 22
1.0006944 -0.16760486 -0.022746576 51 21
1.0298945 -0.3125672 -0.048563223 7 20
0.99864501 -0.16727285 -0.067678824 7 19
1.0180281 -0.31241849 0.16110581 11 28
0.98359793 -0.1674435 0.11754109 8 27
1.0302265 -0.31620261 0.099670477 54 26
1.0104183 -0.17229794 0.068887688 7 25
1.0265216 -0.31506354 0.04844676 56 24
1.0025977 -0.17133746 0.022804603 52 23
1.0347102 -0.31779292 0 10 22
1.0050023 -0.17210335 -0.02286263 51 21
1.0431108 -0.32059115 -0.049261972 8 20
0.99310666 -0.17010181 -0.067333527 4 19
1.0216458 -0.31744578 0.1618785 10 28
0.9927913 -0.17255178 0.11875285 4 27
1.0291165 -0.31979686 0.099670477 63 26
1.0024366 -0.17455812 0.068367124 8 25
1.0301821 -0.32013679 0.048679676 55 24
0.99953038 -0.17441243 0.022746576 54 23
1.0312089 -0.32065561 0 4 22
1.0093215 -0.17645952 -0.022978684 50 21
1.0396024 -0.32348353 -0.049145512 10 20
0.99496466 -0.17399102 -0.067506172 4 19
1.0392698 -0.32712728 0.24406174 48 30
1.0182327 -0.3200863 0.16149215 11 28
0.98732454 -0.17498888 0.11814697 3 27
1.0304229 -0.32395899 0.099908352 65 26
1.0043088 -0.17831144 0.068540648 10 25
1.0314957 -0.32430509 0.04879614 59 24
1.0014082 -0.1781579 0.022804603 52 23
1.0349063 -0.32558367 0 4 22
1.0038077 -0.17894015 -0.02286263 51 21
1.0480461 -0.32994795 -0.049611345 8 20
1.0042077 -0.17901666 -0.068196774 4 19
1.01493 -0.32331151 0.23842523 52 30
1.0194614 -0.32439247 0.1618785 11 28
0.99892288 -0.18061228 0.11966167 4 27
1.0292858 -0.32755387 0.099908352 67 26
1.0012252 -0.1813774 0.068367124 11 25
1.0351136 -0.32942802 0.049029056 59 24
1.0007802 -0.18165237 0.022804603 54 23
1.0409052 -0.33148441 0 4 22
1.0031768 -0.18244301 -0.02286263 44 21
1.0397544 -0.33131531 -0.049261972 8 20
1.0035766 -0.18252091 -0.068196774 4 19
1.0114787 -0.32610002 0.23786156 54 30
1.0112743 -0.325663 0.16071945 47 28
0.99584484 -0.18365392 0.11935873 7 27
1.0305034 -0.33191258 0.10014623 63 26
1.0054932 -0.18576565 0.068714164 12 25
1.036333 -0.3338097 0.049145512 59 24
1.0025662 -0.18576866 0.02286263 51 23
1.0444977 -0.33665922 0 7 22
1.0049924 -0.18639353 -0.022920657 12 21
1.0432831 -0.33666736 -0.049494889 8 20
1.0053867 -0.18647188 -0.068369426 4 19
1.0149041 -0.33132654 0.23898886 52 30
1.0124207 -0.33013794 0.16110581 54 28
1.0073644 -0.18956807 0.12087344 7 27
1.0292799 -0.33568731 0.10014623 65 26
1.0023535 -0.18899351 0.068540648 41 25
1.0256119 -0.33448917 0.048679676 37 24
1.0043687 -0.18972518 0.022920657 51 23
1.0456318 -0.34126565 0 7 22
1.0141299 -0.19191134 -0.023152767 10 21
1.0373569 -0.33874711 -0.049261972 52 20
1.0022449 -0.18969764 -0.068196774 7 19
1.0137415 -0.33486721 0.23898886 52 30
1.0229818 -0.33756405 0.16303752 55 28
1.0066966 -0.19308327 0.12087344 8 27
1.0376085 -0.34223589 0.10109774 58 26
1.0065883 -0.19342075 0.068887688 48 25
1.026808 -0.33885464 0.04879614 10 24
1.0037004 -0.19322991 0.022920657 51 23
1.0444342 -0.34491351 0 7 22
1.0110326 -0.19480625 -0.02309474 7 21
1.0385376 -0.34315431 -0.049378429 61 20
1.0064766 -0.19412793 -0.068542078 8 19
1.0218596 -0.34133288 0.24124347 51 30
1.0218568 -0.34095451 0.16303752 58 28
1.0109241 -0.1973599 0.12147932 10 27
1.0340483 -0.34506318 0.10085986 61 26
1.0083902 -0.19723053 0.069061212 50 25
1.0351478 -0.34543896 0.049261972 8 24
1.0079618 -0.19750674 0.023036713 51 23
1.0480241 -0.34996822 0 7 22
1.0177072 -0.19976102 -0.023268819 7 21
1.0397611 -0.3473925 -0.049494889 61 20
0.99848199 -0.19604066 -0.068024121 8 19
1.0160503 -0.34332874 0.24011616 50 30
1.022999 -0.34531415 0.16342388 56 28
1.0004889 -0.19897474 0.12026756 8 27
1.0351939 -0.34947136 0.10109774 59 26
1.0076956 -0.20074926 0.069061212 50 25
1.0363001 -0.34985372 0.049378429 8 24
1.0072311 -0.20119978 0.023036713 51 23
1.0444291 -0.35281956 0 7 22
1.0145519 -0.20282811 -0.023210794 7 21
1.0384809 -0.35120106 -0.049494889 63 20
1.0075788 -0.20145738 -0.06871473 10 19
1.0216939 -0.34942937 0.24180713 50 30
1.0217266 -0.34906131 0.16342388 54 28
1.0021861 -0.20312749 0.1205705 8 27
1.0362594 -0.35407257 0.10133561 59 26
1.006953 -0.20444131 0.069061212 50 25
1.0326494 -0.35283741 0.049261972 7 24
1.0065227 -0.20471446 0.023036713 51 23
1.0478568 -0.35827222 0 4 22
1.0138017 -0.20654526 -0.023210794 7 21
1.041971 -0.35645002 -0.049727805 63 20
1.0043886 -0.2046569 -0.068542078 26 19
1.022768 -0.3537946 0.24237077 50 30
1.0251676 -0.35424864 0.16419657 55 28
1.0087657 -0.20811132 0.12147932 12 27
1.0397809 -0.35914144 0.10181136 54 26
1.0135639 -0.20945175 0.069581769 48 25
1.040846 -0.35972166 0.049727805 7 24
1.0082506 -0.20872749 0.02309474 37 23
1.0442388 -0.36110598 0 14 22
1.0180084 -0.21090858 -0.023326848 7 21
1.0430788 -0.36090624 -0.049844261 62 20
1.0061114 -0.20866226 -0.06871473 45 19
1.0215893 -0.35718423 0.24237077 50 30
1.0263174 -0.35846546 0.16458291 55 28
1.0007803 -0.2099444 0.1205705 41 27
1.0338254 -0.36111793 0.10133561 11 26
1.0104219 -0.21230468 0.069408253 48 25
1.0349356 -0.36151472 0.049494889 11 24
1.0075529 -0.21206982 0.02309474 12 23
1.0453939 -0.36539641 0 17 22
1.0123723 -0.21344115 -0.023210794 8 21
1.0395207 -0.36353412 -0.049727805 63 20
1.0102971 -0.21301498 -0.069060028 50 19
1.015747 -0.35911483 0.24124347 50 30
1.0250598 -0.36204576 0.16458291 54 28
1.0000414 -0.21343648 0.1205705 47 27
1.0419382 -0.36805883 0.10228712 8 26
1.0145547 -0.2168615 0.069755293 36 25
1.0313143 -0.3642886 0.049378429 37 24
1.0116589 -0.21679711 0.023210794 12 23
1.0370458 -0.36652985 0 7 22
1.0067312 -0.21593697 -0.02309474 8 21
1.0405338 -0.36817944 -0.049844261 62 20
1.0119871 -0.21705751 -0.069232672 51 19
1.0212989 -0.36531046 0.24293444 47 30
1.0190775 -0.36412868 0.16381021 54 28
0.99439973 -0.21605831 0.11996461 48 27
1.0382403 -0.3710331 0.10204925 8 26
1.0040003 -0.21848065 0.069061212 15 25
1.0370221 -0.37060148 0.049727805 52 24
1.0035663 -0.21874776 0.023036713 21 23
1.0427525 -0.37286767 0 4 22
1.0059329 -0.21962538 -0.02309474 11 21
1.041592 -0.3726553 -0.049960721 59 20
1.0111847 -0.22076517 -0.069232672 51 19
1.0268836 -0.37137231 0.24462539 45 30
1.0224428 -0.36937162 0.16458291 41 28
0.99848843 -0.22058712 0.1205705 39 27
1.0416821 -0.37617388 0.102525 17 26
1.0154134 -0.22464888 0.06992881 11 25
1.0357221 -0.37421909 0.049727805 54 24
1.0150036 -0.22492446 0.023326848 41 23
1.0484927 -0.37906918 0 4 22
1.0027578 -0.22242454 -0.023036713 25 21
1.0449781 -0.3779971 -0.050193641 58 20
1.007972 -0.22375885 -0.069060028 45 19
1.0256464 -0.37477553 0.24462539 45 30
1.0258493 -0.37446347 0.16535559 8 28
1.0050194 -0.2255096 0.12147932 23 27
1.0473708 -0.38238201 0.10323863 44 26
1.0122283 -0.22747381 0.069755293 10 25
1.0415078 -0.38023487 0.050077178 54 24
1.0069332 -0.22665986 0.023152767 48 23
1.0378437 -0.37909433 0 4 22
1.0141723 -0.22864313 -0.023326848 43 21
1.0460627 -0.38232219 -0.050310094 59 20
1.0072244 -0.22710016 -0.069060028 21 19
1.022049 -0.37750483 0.24406174 45 30
1.0082853 -0.22903195 0.19275334 45 29
1.0291669 -0.37976152 0.16612828 4 28
1.0139091 -0.23120035 0.12269108 12 27
1.0436968 -0.38516948 0.10300075 52 26
1.0114281 -0.23100576 0.069755293 12 25
1.0354919 -0.38212952 0.049844261 11 24
1.0134085 -0.232005 0.023326848 50 23
1.0482317 -0.38706782 0 4 22
1.0109304 -0.23162939 -0.023268819 22 21
1.0064256 -0.23061465 -0.069060028 11 19
1.0206585 -0.38124833 0.24406174 43 30
1.0074391 -0.23272595 0.19275334 48 29
1.032393 -0.38526756 0.16690096 4 28
1.013055 -0.23491497 0.12269108 8 27
1.0469378 -0.39074183 0.10347651 54 26
1.0202972 -0.23694518 0.070449375 40 25
1.0410984 -0.38855577 0.050193641 4 24
1.0125926 -0.23554105 0.023326848 51 23
1.0491463 -0.3917864 0 7 22
1.0125103 -0.23589449 -0.023326848 10 21
1.0128644 -0.23598237 -0.06957797 8 19
1.0329828 -0.3899982 0.24744366 10 30
1.0066206 -0.23624116 0.19275334 48 29
1.0241138 -0.38624004 0.16574195 4 28
1.0073951 -0.23732316 0.1220852 7 27
1.0455674 -0.39439395 0.10347651 52 26
1.0170351 -0.23993829 0.070275851 47 25
1.0420704 -0.39307344 0.050310094 3 24
1.0093304 -0.23850517 0.023268819 48 23
1.0547839 -0.3981083 0 7 22
1.0092471 -0.23885748 -0.023268819 7 21
1.0168912 -0.24065383 -0.069923274 7 19
1.0081791 -0.24031696 0.19322695 48 29
1.029678 -0.39246559 0.16690096 8 28
1.01622 -0.24312511 0.12329696 7 27
1.0512253 -0.4005309 0.10419014 52 26
1.0161915 -0.24348694 0.070275851 48 25
1.040692 -0.39670861 0.050310094 4 24
1.013355 -0.24318197 0.023384873 48 23
1.053388 -0.40178773 0 7 22
1.0254707 -0.24624856 -0.02367501 3 21
1.0136187 -0.24362485 -0.069750629 8 19
1.0097638 -0.24423023 0.19370054 48 29
1.0306742 -0.39676997 0.16728732 7 28
1.017821 -0.2470734 0.12359991 8 27
1.0474999 -0.40329915 0.10395226 52 26
1.0275022 -0.2497728 0.071143456 47 25
1.0486858 -0.40376493 0.050775934 4 24
1.0125431 -0.24654104 0.023384873 48 23
1.0543809 -0.40618196 0 7 22
1.0221752 -0.24924016 -0.023616981 4 21
1.0273517 -0.25049588 -0.070786528 10 19
1.0357159 -0.40327936 0.24913463 7 30
1.0160612 -0.24949263 0.19512133 50 29
1.0315831 -0.40126526 0.16767366 7 28
1.0265958 -0.25297737 0.12481167 10 27
1.0414509 -0.40513954 0.10347651 8 26
1.0217787 -0.25217405 0.070796415 47 25
1.0495955 -0.40833303 0.05089239 7 24
1.0141041 -0.25066802 0.023442902 45 23
1.0552845 -0.41077131 0 45 22
1.016444 -0.2516169 -0.023500927 4 21
1.0143592 -0.25111225 -0.069923274 12 19
1.041096 -0.40958089 0.25082558 7 30
1.0223339 -0.2548019 0.19654213 48 29
1.0347701 -0.40667987 0.16844636 7 28
1.0136625 -0.25357652 0.12329696 33 27
1.0400302 -0.40877238 0.10347651 4 26
1.0233127 -0.25633955 0.070969932 47 25
1.0528086 -0.41383052 0.051125307 7 24
1.0180296 -0.25558913 0.023558956 28 23
1.0422204 -0.40985492 0 55 22
1.0276866 -0.25818032 -0.023791064 4 21
1.018317 -0.25585568 -0.070268571 40 19
1.0373263 -0.41248947 0.25026193 8 30
1.0166309 -0.25735372 0.19559494 51 29
1.0355662 -0.41138619 0.1688327 12 28
1.0175395 -0.25850081 0.12390284 47 27
1.043147 -0.41442832 0.10395226 4 26
1.0247849 -0.26069775 0.071143456 45 25
1.0512848 -0.41768646 0.051125307 8 24
1.0195545 -0.25975254 0.023616981 10 23
1.0476754 -0.41645619 0 55 22
1.0194638 -0.26010841 -0.023616981 7 21
1.0149544 -0.25897536 -0.070095927 48 19
1.0403968 -0.41793266 0.25138924 8 30
1.0157264 -0.26090086 0.19559494 51 29
1.0364145 -0.415923 0.16921906 36 28
1.0142266 -0.26143736 0.12359991 50 27
1.0463096 -0.41992998 0.10442802 4 26
1.0287012 -0.26550871 0.071490496 45 25
1.0567676 -0.42415768 0.051474687 4 24
1.023484 -0.26454961 0.023733035 4 23
1.0485334 -0.42104682 0 55 22
1.0258127 -0.26552761 -0.023791064 8 21
1.0116283 -0.26189721 -0.069923274 50 19
1.0321664 -0.41880095 0.24969827 7 30
1.0148095 -0.2644448 0.19559494 51 29
1.0395308 -0.42140311 0.16999175 10 28
1.0133078 -0.26497605 0.12359991 50 27
1.0563599 -0.42827731 0.1056174 4 26
1.027768 -0.26909795 0.071490496 45 25
1.0506557 -0.4259584 0.05124177 7 24
1.0298115 -0.27000558 0.023907118 3 23
1.0540018 -0.42753693 0 54 22
1.0297173 -0.27036503 -0.023907118 7 21
1.0203629 -0.26793814 -0.070613876 50 19
1.0397799 -0.42593241 0.25195289 7 30
1.0234262 -0.27029356 0.19748932 51 29
1.0381275 -0.42484799 0.16999175 10 28
1.017224 -0.26959512 0.12420579 48 27
1.0572351 -0.43272507 0.10585528 4 26
1.0268701 -0.27250466 0.071490496 45 25
1.0584749 -0.43324184 0.051707603 52 24
1.0240768 -0.27214643 0.023791064 4 23
1.0502666 -0.43007788 0 55 22
1.0263984 -0.27314106 -0.023849091 7 21
1.0170572 -0.27068451 -0.070441224 50 19
1.036038 -0.42862374 0.25138924 44 30
1.0177312 -0.27260527 0.19654213 51 29
1.0366381 -0.42846918 0.16999175 4 28
1.0210727 -0.27442127 0.12481167 48 27
1.0534202 -0.43545774 0.1056174 7 26
1.0331419 -0.27801508 0.072011061 41 25
1.0500379 -0.43405852 0.051358223 56 24
1.0327308 -0.27847877 0.024023172 4 23
1.0533757 -0.43566126 0 52 22
1.0278531 -0.27736777 -0.023907118 11 21
1.0185155 -0.27487728 -0.070613876 48 19
1.041196 -0.43524963 0.25308019 48 30
1.0214659 -0.27761009 0.19748932 51 29
1.0464473 -0.43704748 0.17192346 4 28
1.0224557 -0.27880919 0.12511462 48 27
1.0609953 -0.44317016 0.10656891 7 26
1.0297085 -0.28114846 0.071837537 12 25
1.0553476 -0.44080502 0.051707603 55 24
1.0341648 -0.28273562 0.024081198 7 23
1.0517718 -0.43951914 0 54 22
1.034066 -0.28309655 -0.024081198 37 21
1.0150942 -0.27795541 -0.070441224 50 19
1.0463965 -0.44173652 0.25477114 45 30
1.0228586 -0.28182045 0.19796291 50 29
1.0380934 -0.43780476 0.17076443 7 28
1.0190829 -0.28172085 0.12481167 48 27
1.0503545 -0.44280133 0.1056174 7 26
1.0311261 -0.2854009 0.072011061 8 25
1.0492041 -0.44253621 0.051474687 56 24
1.0379916 -0.28766784 0.024197252 7 23
1.0548341 -0.44514069 0 52 22
1.0331215 -0.28652409 -0.024081198 45 21
1.0261414 -0.28480443 -0.071304478 47 19
1.0242844 -0.28586519 0.19843651 50 29
1.0479897 -0.44610396 0.17269614 7 28
1.0205343 -0.28576228 0.12511462 48 27
1.0602421 -0.451361 0.10680678 7 26
1.0253681 -0.28748322 0.07166402 4 25
1.0546185 -0.44896081 0.051824059 55 24
1.0394398 -0.29177836 0.024255278 7 23
1.0510539 -0.44765216 0 52 22
1.0321152 -0.29012862 -0.024081198 47 21
1.0227888 -0.28753623 -0.071131825 47 19
1.0185531 -0.28811368 0.19748932 50 29
1.0441588 -0.4487797 0.17230982 7 28
1.0219195 -0.28999484 0.12541756 48 27
1.0540911 -0.45308483 0.10633103 52 26
1.0339607 -0.29376516 0.072358102 4 25
1.0599221 -0.45561117 0.052173436 54 24
1.0335528 -0.29422846 0.024139225 7 23
1.0632533 -0.45727068 0 41 22
1.0310961 -0.29372963 -0.024081198 45 21
1.0265791 -0.29246032 -0.071477123 44 19
1.0198513 -0.29251614 0.19796291 48 29
1.0425069 -0.45260367 0.17230982 7 28
1.0280088 -0.29578045 0.12632638 47 27
1.0524234 -0.45694521 0.10633103 54 26
1.0400711 -0.29960757 0.072878659 4 25
1.0605339 -0.46049187 0.052289892 51 24
1.0397284 -0.29989618 0.024313306 7 23
1.0615702 -0.46116465 0 50 22
1.0348181 -0.29888293 -0.024197252 45 21
1.0302955 -0.29759413 -0.071822427 44 19
1.0211829 -0.29675382 0.19843651 48 29
1.0341398 -0.45325208 0.17115077 7 28
1.0222021 -0.29798904 0.1257205 28 27
1.0599313 -0.46463004 0.10728253 52 26
1.039019 -0.30323628 0.072878659 4 25
1.0634904 -0.46620494 0.052522808 30 24
1.0314734 -0.30143681 0.024139225 23 23
1.0553788 -0.46285048 0 52 22
1.0313681 -0.30179685 -0.024139225 45 21
1.0292504 -0.30118874 -0.071822427 25 19
1.0177844 -0.29962888 0.19796291 47 29
1.0370649 -0.45886678 0.17192346 50 28
1.0283005 -0.30364737 0.12662932 10 27
1.0538367 -0.4661203 0.10680678 54 26
1.0451338 -0.30896625 0.073399231 7 25
1.0618565 -0.46991438 0.052522808 10 24
1.0304149 -0.3050355 0.024139225 43 23
1.0606089 -0.46958095 0 50 22
1.0375558 -0.30732858 -0.024313306 44 21
1.0281928 -0.30477965 -0.071822427 11 19
1.0214934 -0.30439344 0.19891009 44 29
1.0445514 -0.46634859 0.17346883 52 28
1.0296673 -0.30776089 0.12693226 7 27
1.0567441 -0.47183394 0.10728253 52 26
1.0369309 -0.3103016 0.072878659 8 25
1.0671276 -0.47650057 0.052872188 12 24
1.0365851 -0.3105866 0.024313306 41 23
1.0613264 -0.47411945 0 50 22
1.0316856 -0.3095229 -0.024197252 40 21
1.0391288 -0.31174394 -0.072685681 11 19
1.0157213 -0.3065497 0.19796291 37 29
1.0496668 -0.47304946 0.17462789 54 28
1.0309634 -0.31206673 0.1272352 4 27
1.0573577 -0.4765467 0.10752042 50 26
1.0406182 -0.31535509 0.073225707 12 25
1.0654578 -0.48022264 0.052872188 50 24
1.0378329 -0.31510451 0.024371332 30 23
1.0664963 -0.48091722 0 51 22
1.0377779 -0.31528562 -0.024371332 17 21
1.0380343 -0.31536928 -0.072685681 30 19
1.0216383 -0.31240758 0.19938371 12 29
1.0250643 -0.31439883 0.12662932 4 27
1.0601302 -0.48248932 0.10799617 36 26
1.0466127 -0.32134703 0.073746271 30 25
1.0591487 -0.48204699 0.052639272 52 24
1.0343361 -0.31799623 0.024313306 12 23
1.0715461 -0.4879438 0 59 22
1.0437865 -0.32127684 -0.024545414 11 21
1.0344862 -0.31844339 -0.072513029 43 19
1.0275813 -0.31813353 0.20080447 4 29
1.0381905 -0.32235813 0.12844697 7 27
1.0562648 -0.48495945 0.10775829 11 26
1.0431014 -0.32426345 0.073572747 39 25
1.0619942 -0.48783454 0.052872188 51 24
1.0427721 -0.32455441 0.024545414 7 23
1.0427153 -0.32473642 -0.024545414 15 21
1.0333682 -0.32205245 -0.072513029 43 19
1.0288649 -0.32226774 0.20127808 4 29
1.0347465 -0.32506076 0.12814403 10 27
1.0748699 -0.4980987 0.10989919 4 26
1.0444012 -0.32846358 0.073746271 12 25
1.0648984 -0.493462 0.053105105 51 24
1.0393044 -0.32726526 0.024487386 4 23
1.0439607 -0.32912031 -0.024603439 40 21
1.0394356 -0.32771119 -0.073030978 43 19
1.0371002 -0.32880324 0.20317246 3 29
1.0359722 -0.32941735 0.12844697 14 27
1.0663675 -0.49867231 0.10918555 26 26
1.0337356 -0.32910246 0.07305219 8 25
1.0654294 -0.49823824 0.053221561 50 24
1.0476292 -0.33408853 0.024719493 4 23
1.0404229 -0.33200797 -0.024545414 47 21
1.0382853 -0.33133751 -0.073030978 44 19
1.0358882 -0.3326022 0.20317246 4 29
1.0276663 -0.33094627 0.12753814 32 27
1.0645325 -0.50257736 0.10918555 50 26
1.0443994 -0.33668864 0.073919788 4 25
1.06134 -0.50106955 0.053105105 50 24
1.0464568 -0.3377434 0.024719493 7 23
1.043959 -0.33734551 -0.024661468 47 21
1.0441886 -0.33742553 -0.073548928 43 19
1.0323845 -0.33546284 0.20269886 4 29
1.0265049 -0.33453149 0.12753814 40 27
1.0627717 -0.50629026 0.10918555 54 26
1.040845 -0.33956403 0.073746271 3 25
1.0618368 -0.50584948 0.053221561 50 24
1.0428939 -0.34062353 0.024661468 7 23
1.0475295 -0.34253055 -0.024777522 47 21
1.0428755 -0.34287149 0.20506684 7 29
1.0276893 -0.33888441 0.12784109 41 27
1.0443934 -0.34474814 0.074093312 3 25
1.0690596 -0.51389742 0.053687397 48 24
1.0511979 -0.34737769 0.024893576 8 23
1.0440131 -0.34522295 -0.024719493 48 21
1.0394017 -0.34555876 0.20459324 8 29
1.0289159 -0.34307009 0.12814403 23 27
1.0527142 -0.35134688 0.074787393 4 25
1.074085 -0.52072036 0.05403677 47 24
1.0429235 -0.34850115 0.024719493 28 23
1.0499177 -0.35122818 -0.024893576 48 21
1.0475028 -0.35229397 0.20648764 7 29
1.0347716 -0.34902301 0.12905285 10 27
1.046752 -0.35343421 0.074440353 3 25
1.0700195 -0.52336508 0.053920317 50 24
1.0440085 -0.35311684 0.024777522 45 23
1.046316 -0.35409498 -0.024835547 48 21
1.0369023 -0.35298768 0.20459324 8 29
1.0287849 -0.35122046 0.12844697 3 27
1.0572582 -0.3612746 0.07530795 4 25
1.0725687 -0.52950263 0.054153234 50 24
1.0427696 -0.35675895 0.024777522 47 23
1.0450112 -0.35792753 -0.024835547 48 21
1.0310181 -0.35501716 0.20364605 30 29
1.0369425 -0.35802799 0.12965873 3 27
1.0512729 -0.36334392 0.07496091 4 25
1.0415179 -0.36039674 0.024777522 47 23
1.0485457 -0.36301589 -0.024951601 47 21
1.0298352 -0.35843417 0.20364605 41 29
1.0334049 -0.36065227 0.12935579 4 27
1.0594873 -0.37009734 0.075654998 7 25
1.037956 -0.36302865 0.024719493 47 23
1.0496329 -0.36749449 -0.02500963 47 21
1.0308952 -0.36283654 0.20411965 44 29
1.0368236 -0.36589855 0.12996167 4 27
1.0534822 -0.37214231 0.07530795 12 25
1.0390406 -0.36747772 0.024777522 45 23
1.0507015 -0.37198508 -0.025067655 30 21
1.0341871 -0.36824888 0.20506684 43 29
1.0448314 -0.37301296 0.13117343 4 27
1.0568118 -0.37766933 0.075654998 34 25
1.042397 -0.37295702 0.024893576 44 23
1.0446215 -0.37415847 -0.024951601 11 21
1.0328954 -0.37185663 0.20506684 43 29
1.0388509 -0.3749831 0.13056755 4 27
1.0484447 -0.37882894 0.075134434 41 25
1.0457932 -0.37828335 0.02500963 44 23
1.045727 -0.37846589 -0.02500963 7 21
1.0362741 -0.37694764 0.20601404 41 29
1.0469347 -0.38180637 0.13177931 7 27
1.0565612 -0.38570413 0.075828515 41 25
1.0468822 -0.38260198 0.025067655 44 23
1.0467484 -0.38296741 -0.025067655 3 21
1.0372578 -0.38140461 0.20648764 40 29
1.0479258 -0.38631174 0.13208227 4 27
1.0528668 -0.38853157 0.075654998 43 25
1.0501653 -0.38815922 0.025183709 43 23
1.0500975 -0.3883425 -0.025183709 4 21
1.0335503 -0.38435334 0.20601404 37 29
1.0441757 -0.38928825 0.13177931 12 27
1.0537741 -0.39325476 0.075828515 41 25
1.0511471 -0.39269218 0.025241738 36 23
1.0486671 -0.39218867 -0.025183709 4 21
1.034502 -0.38881725 0.20648764 28 29
1.0428106 -0.39293072 0.13177931 36 27
1.0570658 -0.39868081 0.076175556 41 25
1.0521102 -0.39723673 0.025299765 12 23
1.0497007 -0.39654216 -0.025241738 7 21
1.0446913 -0.39657602 0.2088556 15 29
1.0461441 -0.3981418 0.13238519 40 27
1.055738 -0.40218398 0.076175556 41 25
1.0531242 -0.40160894 0.025357792 8 23
1.0483102 -0.40020388 -0.025241738 12 21
1.038713 -0.39847207 0.20790841 29 29
1.0424299 -0.40090543 0.13208227 43 27
1.0589864 -0.40764856 0.076522596 40 25
1.0447136 -0.40260166 0.025183709 11 23
1.0609095 -0.40922746 -0.0255899 34 21
1.044188 -0.40474173 0.2093292 37 29
1.0502843 -0.40811679 0.13329403 43 27
1.0575571 -0.41134265 0.076522596 39 25
1.0548851 -0.41093895 0.025473846 21 23
1.0594746 -0.41292825 -0.0255899 43 21
1.0449851 -0.40945664 0.20980279 40 29
1.053405 -0.41376805 0.13389991 41 27
1.0560423 -0.415216 0.076522596 32 25
1.0557719 -0.41552904 0.025531873 37 23
1.0579541 -0.41680863 -0.0255899 44 21
1.0458338 -0.4140003 0.2102764 40 29
1.0496454 -0.41653222 0.13359696 41 27
1.059226 -0.4207311 0.076869637 34 25
1.0566393 -0.42013022 0.0255899 41 23
1.0612147 -0.42215234 -0.025705952 44 21
1.0444553 -0.41746613 0.2102764 41 29
1.0528696 -0.42184663 0.13420284 41 27
1.0624586 -0.42608801 0.077216677 39 25
1.0552404 -0.42363188 0.0255899 41 23
1.0643767 -0.42770803 -0.025822006 43 21
1.0452697 -0.42202339 0.21074998 41 29
1.0490885 -0.4245933 0.13389991 41 27
1.0609647 -0.42979407 0.077216677 40 25
1.0559988 -0.42843139 0.025647927 40 23
1.0628773 -0.4314208 -0.025822006 43 21
1.0414412 -0.42492932 0.2102764 41 29
1.0521231 -0.43030441 0.13450579 37 27
1.0616925 -0.43461972 0.077390201 41 25
1.059126 -0.43400031 0.025763981 40 23
1.0844327 -0.44474894 -0.026402276 45 21
1.0535814 -0.43414372 0.21311797 39 29
1.0437275 -0.43114698 0.13359696 30 27
1.0647825 -0.44021899 0.077737242 41 25
1.0576047 -0.43769473 0.025763981 29 23
1.0521358 -0.43763512 0.21311797 39 29
1.046877 -0.43650585 0.13420284 29 27
1.0633168 -0.44374752 0.077737242 41 25
1.0584556 -0.44215789 0.025822006 11 23
1.0573974 -0.44414219 0.21453874 40 29
1.0590822 -0.44590583 0.13602048 34 27
1.0640615 -0.44842011 0.077910759 39 25
1.0637422 -0.44893515 0.025996089 4 23
1.0580244 -0.44896883 0.21501234 40 29
1.0597264 -0.45075101 0.13632344 39 27
1.0624108 -0.45231706 0.077910759 39 25
1.0644699 -0.45362049 0.026054114 3 23
1.0609674 -0.45458308 0.21595953 39 29
1.0558641 -0.45347294 0.13602048 41 27
1.0654122 -0.45798296 0.078257799 39 25
1.0697737 -0.46028242 0.026228197 3 23
1.0661393 -0.46119311 0.21738032 41 29
1.0565538 -0.45813826 0.13632344 41 27
1.0615172 -0.46071112 0.078084283 29 25
1.0727494 -0.46599582 0.026344251 4 23
1.0573041 -0.46262929 0.13662636 40 27
1.0691298 -0.46821135 0.078778364 11 25
1.0780717 -0.47254643 0.02651833 4 23
1.0556829 -0.46631715 0.13662636 41 27
1.0652059 -0.47093683 0.07860484 4 25
1.07862 -0.47750157 0.026576359 4 23
1.0562351 -0.47118944 0.13692932 40 27
1.0771493 -0.48090985 0.079645962 3 25
1.0746627 -0.48024878 0.02651833 7 23
1.0568489 -0.47588766 0.13723224 40 27
1.07774 -0.48568687 0.079819486 3 25
1.079821 -0.48706591 0.026692413 8 23
1.0620495 -0.48245448 0.13814108 37 27
1.0738509 -0.48823059 0.079645962 3 25
1.0759228 -0.48961356 0.026634384 23 23
1.0626169 -0.48718825 0.13844401 39 27
1.074409 -0.49301144 0.079819486 4 25
1.0741211 -0.49355373 0.026634384 37 23
1.0608242 -0.49107969 0.13844401 37 27
1.0793899 -0.50007725 0.080340058 4 25
1.0723917 -0.49730012 0.026634384 39 23
1.0776378 -0.503842 0.080340058 4 25
1.0729152 -0.5020951 0.026692413 40 23
1.0871609 -0.51289815 0.081207655 10 25
1.0756805 -0.50796241 0.026808467 39 23
1.0832001 -0.51543349 0.081034139 23 25
1.0762488 -0.51259679 0.026866494 39 23
1.0791436 -0.51813656 0.080860615 36 25
1.0767076 -0.5174284 0.026924521 37 23
1.0770551 -0.52245748 0.026982548 37 23
1.0774719 -0.52730799 0.027040575 37 23
1.0778679 -0.53216773 0.027098602 39 23
1.0940144 -0.54461384 0.027562818 44 23
0.15099612 -1.0625615 -0.093215987 7 18
0.14896935 -1.0754176 -0.094333678 10 18
0.1463877 -1.0833105 -0.095004298 7 18
0.14273559 -1.0863091 -0.09522783 4 18
0.13738886 -1.0744482 -0.094110139 4 18
0.95648009 -0.057460956 0.088252373 12 26
