# .PCD v0.7 - Point Cloud Data file format
VERSION 0.7
FIELDS x y z intensity ring
SIZE 4 4 4 4 2
TYPE F F F F U
COUNT 1 1 1 1 1
WIDTH 1214
HEIGHT 1
VIEWPOINT 0 0 0 1 0 0 0
POINTS 1214
DATA ascii
1.040705 -0.06636285 0.096340194 81 26
1.0392082 -0.066270344 0.046932798 85 24
1.0278152 -0.065699756 0 12 22
1.0317097 -0.066137888 -0.046583425 90 20
1.0429497 -0.070167497 0.096578076 80 26
1.0364794 -0.06972456 0.046816342 85 24
1.0250857 -0.069113575 0 12 22
1.0264779 -0.069570437 -0.046350509 89 20
1.0359745 -0.070591755 -0.090086423 11 18
1.0326542 -0.073244274 0.15646966 59 28
1.0377214 -0.073626831 0.09610232 80 26
1.0337261 -0.073340952 0.046699882 88 24
1.0248255 -0.072870247 0 14 22
1.0287193 -0.07333599 -0.046466965 87 20
1.0307424 -0.074020997 -0.089639343 33 18
1.0299296 -0.076659828 0.15608333 70 28
1.0349901 -0.076878004 0.095864438 83 26
1.033464 -0.076948881 0.046699882 47 24
1.0295502 -0.076829836 0 12 22
1.0259672 -0.076734856 -0.046350509 88 20
1.0304914 -0.077438653 -0.089639343 63 18
1.0321317 -0.080271579 0.15646966 74 28
1.0396769 -0.080886893 0.096340194 77 26
1.033203 -0.080375552 0.046699882 21 24
1.0292897 -0.08024352 0 14 22
1.0232179 -0.079936817 -0.046234049 87 20
1.0277328 -0.080834709 -0.089415811 88 18
1.0293839 -0.083668523 0.15608333 70 28
1.0369081 -0.084308609 0.09610232 78 26
1.0254502 -0.083358616 0.046350509 37 24
1.0314947 -0.084044255 0 14 22
1.0278951 -0.084104501 -0.046466965 80 20
1.0274445 -0.084421672 -0.089415811 90 18
1.0266095 -0.087226413 0.15569697 72 28
1.0291544 -0.087460406 0.095388688 55 26
1.0301136 -0.087550096 0.046583425 65 24
1.0286893 -0.087606847 0 40 22
1.0226197 -0.087256707 -0.046234049 69 20
1.0296085 -0.088405192 -0.089639343 90 18
1.021379 -0.090363421 0.15492429 74 28
1.0214075 -0.090378225 0.094675057 30 26
1.0298016 -0.091145322 0.046583425 85 24
1.0283772 -0.091197111 0 70 22
1.0247958 -0.091052115 -0.046350509 40 20
1.0292937 -0.091998644 -0.089639343 90 18
1.0235165 -0.09415973 0.15531063 70 28
1.0334742 -0.095109738 0.095864438 18 26
1.026991 -0.094505295 0.046466965 90 24
1.0280524 -0.094786257 0 83 22
1.0194993 -0.094158724 -0.046117589 14 20
1.0289662 -0.095591001 -0.089639343 85 18
1.0207404 -0.097313568 0.15492429 72 28
1.0281993 -0.098053224 0.095388688 22 26
1.0241865 -0.097668007 0.046350509 90 24
1.0277326 -0.098194882 0 69 22
1.016679 -0.097473182 -0.046001129 12 20
1.0311216 -0.099246494 -0.089862891 77 18
1.0252916 -0.10155161 0.15569697 73 28
1.030309 -0.10207175 0.09562657 77 26
1.0287908 -0.10192419 0.046583425 88 24
1.029853 -0.10221326 0 14 22
1.0262707 -0.10203093 -0.046466965 14 20
1.0282738 -0.10277215 -0.089639343 84 18
1.0200179 -0.10461529 0.15492429 74 28
1.0299466 -0.10566758 0.09562657 85 26
1.0209777 -0.1047342 0.046234049 90 24
1.0270035 -0.10554661 0 10 22
1.020941 -0.1050906 -0.046234049 14 20
1.030385 -0.10662244 -0.089862891 84 18
1.0221021 -0.10844108 0.15531063 72 28
1.0295904 -0.10908242 0.09562657 87 26
1.0280541 -0.10910396 0.046583425 85 24
1.0291144 -0.10940044 0 10 22
1.020568 -0.1086537 -0.046234049 14 20
1.0225998 -0.10922939 -0.089192271 89 18
1.0217369 -0.1118299 0.15531063 63 28
1.0267301 -0.11239958 0.095388688 90 26
1.0252049 -0.11223545 0.046466965 85 24
1.0188078 -0.11170128 0 10 22
1.0301291 -0.11314917 -0.046699882 14 20
1.0222123 -0.11279827 -0.089192271 87 18
1.0164329 -0.11483054 0.15453795 50 28
1.0288038 -0.11626761 0.09562657 87 26
1.0272877 -0.11609913 0.046583425 80 24
1.0134447 -0.11468395 0 10 22
1.0197846 -0.11577591 -0.046234049 18 20
1.026759 -0.11693988 -0.089639343 84 18
1.0233631 -0.11942995 0.15569697 72 28
1.0234282 -0.11944997 0.095150813 90 26
1.0194159 -0.11897907 0.046234049 80 24
1.0204649 -0.11928438 0 11 22
1.0168945 -0.11903922 -0.046117589 21 20
1.0238513 -0.12040624 -0.089415811 83 18
1.02294 -0.12300143 0.15569697 81 28
1.027967 -0.12344712 0.09562657 85 26
1.0598739 0.0097569861 0.07131698 11 25
1.0264306 -0.12344721 0.046583425 47 24
1.0175608 -0.12254149 0 11 22
1.0214301 -0.1231968 -0.046350509 70 20
1.0209751 -0.12349647 -0.089192271 84 18
1.0225265 -0.12639295 0.15569697 80 28
1.029999 -0.12734525 0.095864438 81 26
1.067382 0.0063036364 0.071837537 32 25
1.0210601 -0.1262269 0.046350509 14 24
1.0097077 -0.12497777 0 12 22
1.0185384 -0.12627074 -0.046234049 84 20
1.0254782 -0.12768546 -0.089639343 78 18
1.0196295 -0.12964463 0.15531063 81 28
1.0246119 -0.13030139 0.095388688 83 26
1.0624096 0.002554236 0.071490496 47 25
1.0230899 -0.13011065 0.046466965 11 24
1.0142239 -0.12914377 0 12 22
1.0155921 -0.12968138 -0.046117589 85 20
1.0225571 -0.13094272 -0.089415811 76 18
1.0166991 -0.13305508 0.15492429 81 28
1.0265945 -0.13438417 0.09562657 81 26
1.052436 -0.0013501544 0.070796415 51 25
1.0201306 -0.13353015 0.046350509 11 24
1.0112656 -0.13253003 0 14 22
1.0151333 -0.13322566 -0.046117589 87 20
1.0245383 -0.1350203 -0.089639343 70 18
1.0162284 -0.13660321 0.15492429 74 28
1.0523328 -0.004662361 0.12420579 50 27
1.0261191 -0.13796684 0.09562657 72 26
1.0524249 -0.0050238334 0.070796415 51 25
1.0270813 -0.13810442 0.046699882 11 24
1.0207046 -0.13741462 0 14 22
1.0171363 -0.13710727 -0.046234049 84 20
1.0265275 -0.13893501 -0.089862891 69 18
1.0157454 -0.14014967 0.15492429 74 28
1.0523101 -0.0083356593 0.12420579 51 27
1.013333 -0.13964349 0.094437182 76 26
1.0524009 -0.008697452 0.070796415 51 25
1.0216467 -0.1409954 0.046466965 12 24
1.0127915 -0.13993421 0 15 22
1.0117055 -0.13996179 -0.046001129 85 20
1.0211298 -0.14164354 -0.089415811 62 18
1.0152751 -0.14351724 0.15492429 73 28
1.0473137 -0.011781022 0.12359991 52 27
1.0202295 -0.14424083 0.095150813 70 26
1.0548601 -0.012210359 0.070969932 50 25
1.0261174 -0.14509231 0.046699882 11 24
1.0098473 -0.14293626 0 17 22
1.0112357 -0.14331596 -0.046001129 85 20
1.0157005 -0.14449507 -0.088968731 22 18
1.0172117 -0.14741988 0.15531063 66 28
1.0497476 -0.015467509 0.12390284 52 27
1.0172576 -0.14743896 0.094912939 22 26
1.0597987 -0.015955985 0.07131698 30 25
1.0181926 -0.14758269 0.046350509 12 24
1.0394998 -0.016235642 0.023326848 18 23
1.0142888 -0.14718911 0 74 22
1.0131742 -0.14738616 -0.046117589 84 20
1.0201161 -0.14876886 -0.089415811 11 18
1.0166645 -0.15114714 0.15531063 66 28
1.0496838 -0.019314922 0.12390284 51 27
1.0142496 -0.15079512 0.094675057 12 26
1.0472649 -0.019635661 0.070449375 12 25
1.0052981 -0.14945069 0.045768213 12 24
1.0394367 -0.019864075 0.023326848 47 23
1.0112705 -0.15053228 0 88 22
1.0151228 -0.15129533 -0.046234049 81 20
1.019564 -0.15250677 -0.089415811 10 18
1.0185717 -0.15507206 0.15569697 56 28
1.0421667 -0.022833368 0.12299403 52 27
1.0112844 -0.15377823 0.094437182 12 26
1.0546702 -0.023440029 0.070969932 11 25
1.0047704 -0.15295893 0.045768213 14 24
1.0443586 -0.023593457 0.023442902 52 23
1.0132096 -0.15444338 0 87 22
1.0096526 -0.15407376 -0.046001129 84 20
1.0215132 -0.15626872 -0.089639343 10 18
1.0082929 -0.15690848 0.1541516 55 28
1.052009 -0.026516125 0.12420579 51 27
1.0156579 -0.15808336 0.094912939 12 26
1.047107 -0.026763657 0.070449375 11 25
1.0017909 -0.15590066 0.045651756 12 24
1.0467732 -0.027115429 0.023500927 54 23
1.0102226 -0.15741225 0 87 22
1.0091362 -0.15742104 -0.046001129 84 20
1.0160432 -0.15905276 -0.089192271 11 18
1.0077391 -0.16042712 0.1541516 54 28
1.0419872 -0.029926587 0.12299403 52 27
1.0077293 -0.1604379 0.0941993 12 26
1.0594727 -0.03075153 0.07131698 12 25
1.003706 -0.1597946 0.045768213 12 24
1.0391771 -0.03056637 0.023326848 54 23
1.0121349 -0.16133644 0 85 22
1.0085806 -0.16094261 -0.046001129 83 20
1.0154818 -0.16259845 -0.089192271 11 18
1.0047359 -0.16354169 0.15376526 23 28
1.0443568 -0.033637669 0.12329696 52 27
1.0071632 -0.16395454 0.0941993 14 26
1.0593588 -0.034449592 0.07131698 29 25
1.0105339 -0.16451694 0.046117589 12 24
1.0415621 -0.034269914 0.023384873 52 23
1.009099 -0.16446103 0 83 22
1.0104765 -0.16486968 -0.046117589 80 20
1.0026259 -0.16410445 -0.088074572 12 18
1.0163368 -0.16910106 0.15569697 11 28
1.0467132 -0.03736566 0.12359991 54 27
1.0114927 -0.16829672 0.094675057 14 26
1.0592321 -0.038147233 0.07131698 43 25
1.0099535 -0.16804338 0.046117589 18 24
1.0414295 -0.0380872 0.023384873 41 23
1.0109839 -0.1683985 0 81 22
1.0414228 -0.038268961 -0.023384873 12 21
1.0049406 -0.16773921 -0.045884673 39 20
1.0045019 -0.16801938 -0.088298112 14 18
1.0205784 -0.17366411 0.15646966 10 28
1.0465693 -0.041201808 0.12359991 54 27
1.0157741 -0.17284836 0.095150813 14 26
1.049116 -0.04165674 0.070622891 50 25
1.0142528 -0.17259231 0.046350509 61 24
1.0337976 -0.041439634 0.023210794 15 23
1.0054327 -0.17125261 0 84 22
1.0437732 -0.042180784 -0.023442902 44 21
1.0068099 -0.17167117 -0.046001129 23 20
1.0038794 -0.17169993 -0.088298112 14 18
1.0126681 -0.17594138 0.15531063 11 28
1.0414599 -0.044653852 0.12299403 54 27
1.0151954 -0.17621584 0.095150813 14 26
1.0464725 -0.045216762 0.070449375 51 25
1.0111847 -0.17569889 0.046234049 54 24
1.0336467 -0.045048013 0.023210794 11 23
1.0122151 -0.17606227 0 77 22
1.0411303 -0.045538474 -0.023384873 52 21
0.99636716 -0.17344995 -0.045535296 22 20
1.0082085 -0.17589447 -0.088745192 17 18
1.0193726 -0.18060687 0.15646966 11 28
1.0388269 -0.047998536 0.12269108 54 27
1.0121245 -0.17931902 0.094912939 33 26
1.0463167 -0.048686739 0.070449375 52 25
1.0032223 -0.17772827 0.045884673 36 24
1.0359883 -0.048586655 0.023268819 10 23
1.0091649 -0.17897606 0 67 22
1.0409651 -0.04917242 -0.023384873 55 21
1.0080761 -0.17896205 -0.046117589 22 20
1.0100389 -0.17985448 -0.088968731 17 18
1.0090175 -0.18238562 0.15492429 12 28
1.041132 -0.051741756 0.12299403 52 27
1.0188365 -0.18419482 0.09562657 52 26
1.0461406 -0.052338772 0.070449375 51 25
1.0050523 -0.18167862 0.046001129 14 24
1.0382998 -0.052503768 0.023326848 8 23
1.0085342 -0.18249761 0 37 22
1.040787 -0.052805766 -0.023384873 55 21
1.0025008 -0.18175404 -0.045884673 45 20
1.0020581 -0.18202806 -0.088298112 19 18
1.0156262 -0.18744318 0.15608333 12 28
1.0409353 -0.055557348 0.12299403 54 27
1.0157081 -0.18747087 0.095388688 66 26
1.043451 -0.056044802 0.070275851 50 25
1.0043796 -0.1853611 0.046001129 11 24
1.0331182 -0.055869661 0.023210794 8 23
1.0078585 -0.18619286 0 23 22
1.0430825 -0.056750018 -0.023442902 55 21
1.004315 -0.18571168 -0.046001129 72 20
0.99893695 -0.18524022 -0.088074572 26 18
1.0076866 -0.18960129 0.15492429 12 28
1.040735 -0.059190549 0.12299403 52 27
1.0126028 -0.19054975 0.095150813 70 26
1.0457392 -0.05982339 0.070449375 48 25
1.0110862 -0.19026718 0.046350509 11 24
1.0379081 -0.059751131 0.023326848 10 23
1.0047467 -0.18924178 0 21 22
1.0378871 -0.060113426 -0.023326848 56 21
1.0036606 -0.18921626 -0.046001129 87 20
1.0457218 -0.060554806 -0.070095927 11 19
1.0056212 -0.19012961 -0.088745192 67 18
1.011868 -0.19405849 0.15569697 12 28
1.0380446 -0.062679321 0.12269108 52 27
1.0046358 -0.19248587 0.094437182 32 26
1.0405445 -0.063182741 0.070102334 28 25
1.0128675 -0.19427103 0.046466965 11 24
1.030208 -0.062934287 0.023152767 10 23
1.0065341 -0.19322444 0 67 22
1.040177 -0.063701764 -0.023384873 55 21
1.0005425 -0.19224203 -0.045884673 89 20
1.0330554 -0.06346947 -0.069232672 43 19
1.0074294 -0.1939393 -0.088968731 77 18
1.0039495 -0.19597748 0.15453795 12 28
1.040308 -0.06627319 0.12299403 52 27
1.0112823 -0.19743784 0.095150813 12 26
1.0428185 -0.066786513 0.070275851 12 25
1.0024177 -0.19569363 0.046001129 14 24
1.0374773 -0.066814505 0.023326848 10 23
1.0009826 -0.1955917 0 88 22
1.0374539 -0.067176655 -0.023326848 56 21
1.0023494 -0.19604354 -0.046001129 87 20
1.0328393 -0.066894852 -0.069232672 52 19
1.0067462 -0.19745471 -0.088968731 81 18
1.0056807 -0.19996764 0.15492429 12 28
1.037594 -0.069743559 0.12269108 52 27
1.0154666 -0.20194791 0.09562657 11 26
1.035113 -0.069939479 0.069755293 11 25
1.0066251 -0.20017619 0.046234049 14 24
1.0322375 -0.070288807 0.023210794 11 23
1.0027447 -0.19957788 0 89 22
1.0372131 -0.07079763 -0.023326848 55 21
0.996728 -0.1987288 -0.045768213 84 20
1.0325994 -0.070499718 -0.069232672 54 19
1.0036101 -0.20047468 -0.088745192 81 18
1.0001017 -0.20266069 0.1541516 26 28
1.0373313 -0.073546067 0.12269108 51 27
1.0244715 -0.20766667 0.096578076 11 26
1.0423139 -0.074246995 0.070275851 10 25
1.0058846 -0.20386431 0.046234049 18 24
1.0319859 -0.073891558 0.023210794 11 23
1.0044554 -0.20375405 0 88 22
1.0394398 -0.074772194 -0.023384873 55 21
1.0009209 -0.20321111 -0.046001129 81 20
1.0348222 -0.074457027 -0.069405325 54 19
1.0053074 -0.2046537 -0.088968731 81 18
1.0042241 -0.20715897 0.15492429 41 28
1.0345931 -0.076988287 0.12238815 51 27
1.0115956 -0.20852457 0.095388688 11 26
1.0445359 -0.078064941 0.070449375 8 25
1.0051669 -0.20737427 0.046234049 18 24
1.0342143 -0.077674702 0.023268819 12 23
1.0012908 -0.2067482 0 90 22
1.0366935 -0.078036971 -0.023326848 55 21
0.99531645 -0.20568237 -0.045768213 83 20
1.0320685 -0.077886984 -0.069232672 54 19
1.0046233 -0.2079863 -0.088968731 76 18
0.99628288 -0.20895116 0.15376526 26 28
1.0343322 -0.080418698 0.12238815 50 27
1.0181652 -0.21360287 0.09610232 11 26
1.0442712 -0.081528321 0.070449375 8 25
0.9971447 -0.20915255 0.045884673 22 24
1.0289669 -0.080724724 0.023152767 12 23
1.0030453 -0.21058638 0 85 22
1.0364149 -0.081655219 -0.023326848 55 21
0.99707162 -0.20950061 -0.045884673 81 20
1.0342914 -0.081499062 -0.069405325 50 19
1.0014558 -0.21097328 -0.088745192 76 18
1.0027907 -0.21398965 0.15492429 11 28
1.0315713 -0.083833568 0.1220852 32 27
1.0076826 -0.21505709 0.095150813 12 26
1.0489526 -0.085566975 0.070796415 10 25
1.0086144 -0.21526429 0.046466965 22 24
1.0361383 -0.08509165 0.023326848 30 23
1.0047479 -0.21461387 0 85 22
1.0386149 -0.085471615 -0.023384873 54 21
0.99141532 -0.21209817 -0.045651756 54 20
1.0265423 -0.08451277 -0.068887375 22 19
1.0055803 -0.21552181 -0.089192271 66 18
1.0122668 -0.22026876 0.23166139 70 30
1.0019996 -0.21766362 0.15492429 10 28
1.0287839 -0.087409705 0.12178227 12 27
1.0044568 -0.21821542 0.094912939 14 26
1.0436611 -0.088998817 0.070449375 10 25
1.0053794 -0.21842419 0.046350509 76 24
1.035835 -0.088707924 0.023326848 50 23
1.0039545 -0.21829501 0 84 22
1.0308228 -0.088652961 -0.023210794 55 21
0.99798602 -0.21716633 -0.046001129 17 20
1.0287111 -0.088482499 -0.069060028 12 19
1.002352 -0.21867004 -0.088968731 70 18
1.0043608 -0.22220691 0.22997043 80 30
1.0060551 -0.22223586 0.15569697 8 28
1.0358899 -0.091638789 0.12269108 10 27
0.99640214 -0.22009417 0.0941993 14 26
1.0309205 -0.091567524 0.069581769 10 25
1.0070482 -0.22247621 0.046466965 81 24
1.030539 -0.091890946 0.023210794 54 23
0.99830663 -0.22070825 0 81 22
1.0329968 -0.092467621 -0.023268819 54 21
0.9923476 -0.2195591 -0.045768213 12 20
1.0234267 -0.091639824 -0.06871473 11 19
1.0040123 -0.22271203 -0.089192271 62 18
0.99882877 -0.22463222 0.22884311 85 30
1.0028645 -0.22519992 0.15531063 8 28
1.0281487 -0.094589777 0.12178227 8 27
1.0005211 -0.22449735 0.094675057 17 26
1.0405304 -0.096059285 0.070275851 11 25
1.0013946 -0.22488527 0.046234049 85 24
1.030212 -0.095487632 0.023210794 55 23
1.0024061 -0.22529855 0 77 22
1.0351738 -0.096117869 -0.023326848 54 21
0.9964456 -0.22412826 -0.046001129 11 20
1.0255843 -0.095436864 -0.068887375 11 19
1.0056962 -0.22659272 -0.089415811 34 18
1.0004516 -0.22849068 0.22940676 83 30
1.0069262 -0.22963303 0.15608333 10 28
1.0352421 -0.098687686 0.12269108 8 27
0.9997313 -0.22798845 0.094675057 18 26
1.0352398 -0.099045932 0.06992881 11 25
1.0030769 -0.22876526 0.046350509 89 24
1.0274013 -0.098670378 0.023152767 56 23
1.0016534 -0.22862142 0 80 22
1.0348319 -0.099730723 -0.023326848 52 21
0.99569684 -0.22743136 -0.046001129 10 20
1.0227792 -0.098603889 -0.06871473 11 19
0.99727666 -0.23142576 0.22884311 81 30
0.99649841 -0.23089541 0.15453795 11 28
1.0324211 -0.10206248 0.12238815 8 27
1.0086222 -0.23374484 0.09562657 19 26
1.0348878 -0.102659 0.06992881 12 25
0.99740905 -0.23112728 0.046117589 89 24
1.0270327 -0.10243533 0.023152767 55 23
1.0032835 -0.23268646 0 76 22
1.0319898 -0.10309975 -0.023268819 52 21
1.0045819 -0.23336026 -0.046466965 11 20
1.0174643 -0.1016893 -0.068369426 11 19
0.99168307 -0.23395053 0.22771581 83 30
0.99564546 -0.23454621 0.15453795 12 28
1.0320401 -0.10584581 0.12238815 8 27
1.0053375 -0.23686415 0.095388688 21 26
1.032023 -0.10620193 0.069755293 12 25
1.0038438 -0.2365151 0.046466965 85 24
1.0241822 -0.10576888 0.02309474 56 23
0.99999177 -0.23578317 0 73 22
1.031605 -0.10688148 -0.023268819 48 21
0.99404395 -0.23455054 -0.046001129 12 20
1.0146034 -0.10516664 -0.068196774 11 19
0.98849303 -0.23683797 0.22715214 76 30
0.99241978 -0.23744029 0.1541516 15 28
1.0267277 -0.10893577 0.12178227 10 27
1.0069658 -0.24078061 0.09562657 45 26
1.0366071 -0.1103199 0.070102334 36 25
1.0054395 -0.2406041 0.046583425 85 24
1.0262926 -0.10960282 0.023152767 55 23
0.99673265 -0.23868494 0 48 22
1.0237877 -0.10952199 -0.02309474 22 21
0.99079186 -0.23743173 -0.045884673 12 20
1.0142301 -0.10870763 -0.068196774 11 19
0.98770219 -0.24011463 0.22715214 73 30
1.0012227 -0.24308158 0.15569697 21 28
1.0238934 -0.11207578 0.12147932 11 27
1.0061193 -0.24429409 0.09562657 80 26
1.0312762 -0.11322418 0.069755293 50 25
1.0022107 -0.24334252 0.046466965 85 24
1.0308933 -0.11354102 0.023268819 54 23
0.99350762 -0.2413934 0 14 22
1.0333385 -0.11416951 -0.023326848 12 21
0.98514843 -0.23952548 -0.045651756 15 20
1.0113845 -0.11180228 -0.068024121 11 19
0.98685801 -0.24356091 0.22715214 70 30
0.99557436 -0.24538247 0.15492429 23 28
1.0259625 -0.1159219 0.12178227 11 27
1.0004301 -0.24660303 0.095150813 84 26
1.0308746 -0.11682331 0.069755293 52 25
1.0037786 -0.24744229 0.046583425 87 24
1.0255024 -0.11676496 0.023152767 54 23
0.98780704 -0.24365202 0 14 22
1.0279659 -0.11722124 -0.023210794 12 21
0.99637955 -0.2461554 -0.046234049 15 20
1.010988 -0.11533199 -0.068024121 11 19
0.98831999 -0.24777377 0.22771581 70 30
0.98508954 -0.24660954 0.15337892 29 28
1.0181341 -0.1188361 0.12087344 11 27
1.0043453 -0.2514874 0.09562657 84 26
1.0254842 -0.12003276 0.069408253 51 25
1.0101284 -0.2529549 0.046932798 81 24
1.0201226 -0.11977286 0.023036713 55 23
0.99417853 -0.2491094 0 15 22
1.0200808 -0.12012894 -0.023036713 11 21
0.99309313 -0.24901928 -0.046117589 18 20
1.0130361 -0.11932246 -0.068196774 11 19
0.98980808 -0.25182784 0.22827944 72 30
0.98183 -0.2494332 0.15299256 29 28
1.0201776 -0.12267972 0.12117638 11 27
0.99622923 -0.2531375 0.094912939 88 26
1.0324891 -0.12448974 0.06992881 45 25
0.99714404 -0.25337836 0.046350509 89 24
1.0172163 -0.12303881 0.022978684 56 23
0.99572456 -0.25319952 0 14 22
1.024619 -0.12427907 -0.023152767 11 21
0.99221784 -0.25248432 -0.046117589 21 20
1.01509 -0.12315233 -0.068369426 11 19
0.98892301 -0.25528139 0.22827944 67 30
0.97856295 -0.25223714 0.15260622 50 28
1.0197432 -0.12624006 0.12117638 11 27
0.99779296 -0.25706577 0.095150813 80 26
1.0270969 -0.12749036 0.069581769 29 25
1.0010873 -0.25811478 0.046583425 87 24
1.0242234 -0.12749739 0.023152767 50 23
0.98515713 -0.25415471 0 18 22
1.0142777 -0.126463 -0.022920657 11 21
0.99374723 -0.25657576 -0.046234049 21 20
1.019605 -0.12730107 -0.06871473 12 19
0.98571622 -0.25793761 0.22771581 63 30
0.98966295 -0.25862926 0.15453795 70 28
1.0143939 -0.12900664 0.1205705 23 27
0.99207669 -0.2592783 0.094675057 81 26
1.0217191 -0.13027652 0.069234729 14 25
0.99056679 -0.25888646 0.046117589 90 24
1.0213151 -0.13058206 0.02309474 44 23
0.98914343 -0.25869575 0 17 22
1.0163099 -0.13031465 -0.022978684 15 21
0.99047631 -0.25923222 -0.046117589 30 20
1.0167028 -0.13037021 -0.068542078 40 19
0.98480982 -0.26137683 0.22771581 51 30
0.99114019 -0.26272023 0.15492429 72 28
1.0237831 -0.13380975 0.12178227 28 27
1.0007824 -0.26531109 0.09562657 81 26
1.0262053 -0.13447857 0.069581769 12 25
0.99206966 -0.2629877 0.046234049 39 24
1.0158955 -0.13350683 0.022978684 54 23
0.98823434 -0.26214692 0 19 22
1.0183276 -0.13418207 -0.023036713 41 21
0.99197775 -0.26333401 -0.046234049 83 20
1.0187149 -0.13423832 -0.06871473 47 19
0.98149472 -0.26434597 0.22715214 41 30
0.99255449 -0.26699799 0.15531063 73 28
1.0183653 -0.13691168 0.12117638 18 27
0.99740142 -0.26832566 0.095388688 83 26
1.0257055 -0.13823888 0.069581769 11 25
0.99591935 -0.26792988 0.046466965 25 24
1.017877 -0.13755822 0.023036713 58 23
0.98485428 -0.26511216 0 17 22
1.0252614 -0.13890257 -0.023210794 51 21
0.9910059 -0.26696798 -0.046234049 87 20
1.0132717 -0.1373132 -0.068369426 33 19
0.98761058 -0.26971084 0.22884311 59 30
1.0511459 -0.14406522 0.19796291 52 29
0.98923481 -0.26980594 0.15492429 74 28
1.0203402 -0.14079893 0.12147932 12 27
0.99410641 -0.2709721 0.095150813 73 26
1.0227455 -0.14148256 0.069408253 12 25
0.99257016 -0.27074233 0.046350509 43 24
1.0173906 -0.14111042 0.023036713 62 23
0.99115396 -0.27053875 0 19 22
1.0198423 -0.14162591 -0.02309474 54 21
0.99247563 -0.27108878 -0.046350509 89 20
1.007844 -0.14017411 -0.068024121 12 19
0.97967267 -0.27102062 0.22715214 76 30
1.0336407 -0.14520033 0.19464774 55 29
0.99071407 -0.27374786 0.15531063 70 28
1.0223258 -0.14452325 0.12178227 11 27
0.99555188 -0.27510852 0.095388688 45 26
1.0222707 -0.14487332 0.069408253 12 25
0.98926133 -0.27336201 0.046234049 77 24
1.0168918 -0.14466093 0.023036713 62 23
0.9902513 -0.27382407 0 47 22
1.021817 -0.14553148 -0.023152767 54 21
0.98911798 -0.27387998 -0.046234049 89 20
1.0049037 -0.14316966 -0.067851476 11 19
0.98570359 -0.27659902 0.22884311 78 30
1.0306711 -0.14864323 0.19417414 63 29
0.98495036 -0.27603379 0.15453795 72 28
1.0217892 -0.1482693 0.12178227 8 27
0.99214208 -0.27807876 0.095150813 26 26
1.0291393 -0.14967854 0.06992881 12 25
0.99065584 -0.27766511 0.046350509 89 24
1.0163807 -0.14820966 0.023036713 62 23
0.99164671 -0.27813196 0 73 22
1.0237505 -0.14963128 -0.023210794 54 21
0.98575294 -0.27665097 -0.046117589 90 20
1.0142468 -0.14827129 -0.068542078 10 19
0.98473203 -0.28003806 0.22884311 81 30
1.0350045 -0.1529462 0.19512133 61 29
0.98872977 -0.28083017 0.15531063 67 28
1.008988 -0.15003966 0.12026756 10 27
0.99355775 -0.28222543 0.095388688 21 26
1.0335457 -0.15399349 0.070275851 12 25
0.98968059 -0.28112146 0.046350509 90 24
1.0109116 -0.15102981 0.022920657 65 23
0.98586327 -0.28021437 0 88 22
1.0207493 -0.15283966 -0.023152767 51 21
0.9871819 -0.28077859 -0.046234049 90 20
1.0063208 -0.15072033 -0.068024121 10 19
0.98608744 -0.28415322 0.22940676 84 30
1.0271804 -0.15547343 0.19370054 58 29
0.98774344 -0.28427976 0.15531063 66 28
1.0158207 -0.15466374 0.12117638 10 27
0.99022621 -0.28482556 0.095150813 30 26
1.0280693 -0.15685958 0.06992881 34 25
0.98629487 -0.28387851 0.046234049 90 24
1.0128497 -0.15492965 0.022978684 65 23
0.9920817 -0.28574517 0 70 22
1.0152941 -0.15547888 -0.023036713 22 21
0.98379761 -0.28352603 -0.046117589 90 20
1.0057886 -0.15423213 -0.068024121 11 19
0.98046637 -0.28604713 0.22827944 85 30
1.0339395 -0.15998767 0.19512133 58 29
0.97968584 -0.2854653 0.1541516 67 28
1.0177552 -0.15840727 0.12147932 11 27
0.99638927 -0.29038459 0.095864438 80 26
1.0226133 -0.15951085 0.069581769 54 25
0.98774415 -0.28785145 0.046350509 89 24
1.0148007 -0.15866774 0.023036713 63 23
0.9767375 -0.28480336 0 18 22
1.0221555 -0.16016516 -0.023210794 12 21
0.98524779 -0.28749153 -0.046234049 90 20
1.0077364 -0.15794687 -0.068196774 11 19
0.97946191 -0.28946784 0.22827944 77 30
1.0285238 -0.16283965 0.19417414 55 29
0.98105085 -0.28958771 0.15453795 66 28
1.0098412 -0.16080588 0.1205705 11 27
0.99059892 -0.2924414 0.095388688 85 26
1.0245141 -0.1634666 0.069755293 55 25
0.98673332 -0.29129755 0.046350509 89 24
1.0092746 -0.16160759 0.022920657 65 23
0.97813344 -0.28892446 0 12 22
1.0117152 -0.16217341 -0.022978684 11 21
0.98897392 -0.29252765 -0.046466965 87 20
1.002252 -0.16068584 -0.067851476 12 19
0.9737311 -0.29164785 0.22715214 77 30
1.02792 -0.16660829 0.19417414 55 29
0.98234755 -0.29389453 0.15492429 67 28
1.0116953 -0.16489938 0.12087344 12 27
0.99190325 -0.29678863 0.09562657 85 26
1.0165211 -0.16603208 0.069234729 56 25
0.98804998 -0.29563314 0.046466965 85 24
1.0136393 -0.16592538 0.023036713 63 23
0.97467446 -0.29178536 0 12 22
1.0111139 -0.16588044 -0.022978684 11 21
0.98555607 -0.29525623 -0.046350509 87 20
1.0065805 -0.16515397 -0.068196774 12 19
0.97736549 -0.29646924 0.22827944 72 30
1.0273322 -0.17019537 0.19417414 55 29
0.97422892 -0.29515785 0.15376526 52 28
1.0111135 -0.16842985 0.12087344 12 27
0.9885332 -0.2993499 0.095388688 88 26
1.0183963 -0.16998412 0.069408253 59 25
0.98940045 -0.29980958 0.046583425 85 24
1.0130539 -0.16946262 0.023036713 58 23
0.97843182 -0.29664689 0 12 22
1.0031604 -0.16801177 -0.022804603 11 21
0.98451936 -0.29869461 -0.046350509 84 20
1.0059979 -0.16866659 -0.068196774 12 19
0.97637701 -0.29970866 0.22827944 70 30
1.0243409 -0.17319773 0.19370054 54 29
0.97324479 -0.29838687 0.15376526 43 28
1.0105494 -0.1717819 0.12087344 14 27
0.98986006 -0.30353341 0.09562657 89 26
1.0227461 -0.17418613 0.069755293 55 25
0.98601484 -0.30235168 0.046466965 80 24
1.0100217 -0.17240644 0.022978684 56 23
0.96788889 -0.29693609 0 12 22
1.0074968 -0.17234348 -0.022920657 11 21
0.98113775 -0.30121973 -0.046234049 88 20
1.0078923 -0.17241631 -0.068369426 14 19
0.97532493 -0.30311504 0.22827944 65 30
1.0213101 -0.1763604 0.19322695 51 29
0.97926915 -0.30399445 0.15492429 73 28
1.0123895 -0.17572688 0.12117638 21 27
0.98641926 -0.30624378 0.095388688 88 26
1.0196737 -0.17733362 0.069581769 55 25
0.98256999 -0.30504611 0.046350509 80 24
1.0118769 -0.17635429 0.023036713 52 23
0.96923232 -0.30105963 0 12 22
1.004426 -0.17543511 -0.02286263 11 21
0.98484659 -0.30613545 -0.046466965 88 20
1.0097421 -0.17635669 -0.068542078 44 19
0.97890437 -0.30798984 0.22940676 59 30
1.0134329 -0.17866331 0.19180615 41 29
0.97584742 -0.3066653 0.15453795 77 28
1.0166591 -0.18011387 0.12178227 52 27
0.98297173 -0.30893394 0.095150813 90 26
1.0165919 -0.18046181 0.069408253 58 25
0.97911847 -0.30772024 0.046234049 43 24
1.0038388 -0.17876495 0.02286263 22 23
0.96340913 -0.30293089 0 12 22
1.0038077 -0.17894015 -0.02286263 12 21
1.006664 -0.17944847 -0.068369426 55 19
0.9777689 -0.31157559 0.22940676 55 30
1.0176049 -0.18323494 0.19275334 33 29
0.98177278 -0.31250259 0.15569697 81 28
1.0159922 -0.18383889 0.12178227 58 27
0.98894221 -0.31481448 0.095864438 81 26
1.0183786 -0.18462566 0.069581769 56 25
0.97798401 -0.3113068 0.046234049 12 24
1.0007485 -0.18182704 0.022804603 12 23
0.97895557 -0.31180665 0 14 22
1.010525 -0.1839433 -0.023036713 12 21
1.0035448 -0.18269607 -0.068196774 65 19
0.97899187 -0.31573945 0.22997043 34 30
1.0097129 -0.185473 0.19133258 28 29
0.97832662 -0.31516528 0.15531063 83 28
1.0104614 -0.18649513 0.12117638 65 27
0.98552561 -0.3173244 0.09562657 81 26
1.0177281 -0.18817933 0.069581769 58 25
0.98639262 -0.31780219 0.046699882 11 24
1.0001076 -0.1853192 0.022804603 11 23
0.97786117 -0.31522197 0 14 22
1.012368 -0.1877432 -0.02309474 12 21
1.002901 -0.18619798 -0.068196774 67 19
0.9802534 -0.31974447 0.23053406 11 30
1.0090923 -0.1888203 0.19133258 40 29
0.97727615 -0.31840777 0.15531063 85 28
1.0122774 -0.19029756 0.12147932 63 27
0.9844119 -0.32076257 0.09562657 81 26
1.0195503 -0.19200897 0.069755293 55 25
0.98296064 -0.32029268 0.046583425 10 24
1.0044019 -0.18954988 0.022920657 11 23
0.98393607 -0.32080296 0 14 22
1.0141633 -0.19173434 -0.023152767 12 21
1.002278 -0.1895227 -0.068196774 69 19
0.97681999 -0.32239586 0.22997043 8 30
1.0253137 -0.19552007 0.19464774 52 29
0.97850275 -0.3225956 0.15569697 80 28
1.0140452 -0.1942911 0.12178227 62 27
0.98800975 -0.32576546 0.09610232 81 26
1.0115229 -0.19417372 0.069234729 58 25
0.98657662 -0.32529598 0.046816342 10 24
0.9963342 -0.19183007 0.022746576 11 23
0.98281026 -0.32423559 0 14 22
1.0183984 -0.19620734 -0.023268819 12 21
1.0016103 -0.19302016 -0.068196774 69 19
0.98024863 -0.32752764 0.23109773 11 30
1.0197687 -0.19835089 0.19370054 63 29
0.97731382 -0.3261798 0.15569697 80 28
1.0108896 -0.19753632 0.12147932 65 27
0.98680919 -0.32938451 0.09610232 80 26
1.0157017 -0.19882645 0.069581769 56 25
0.98537773 -0.32890978 0.046816342 10 24
0.9981122 -0.19578195 0.022804603 11 23
0.97924572 -0.32703862 0 14 22
1.015219 -0.19946261 -0.023210794 12 21
0.99844778 -0.1962149 -0.068024121 72 19
0.97909945 -0.33094737 0.23109773 11 30
1.0214794 -0.20238067 0.19417414 67 29
0.98084623 -0.33117965 0.15646966 74 28
1.0101939 -0.2010638 0.12147932 65 27
0.98099893 -0.33105356 0.09562657 72 26
1.0198953 -0.20333441 0.06992881 50 25
0.98658788 -0.33315131 0.046932798 11 24
0.99742281 -0.19926481 0.022804603 11 23
0.97573149 -0.32964957 0 17 22
1.0022919 -0.20040724 -0.022920657 44 21
1.0002035 -0.20018253 -0.068196774 69 19
0.98029971 -0.33498496 0.23166139 14 30
1.0183951 -0.20528759 0.19370054 69 29
0.97273523 -0.33202165 0.15531063 67 28
1.0046549 -0.20343927 0.12087344 63 27
0.97277689 -0.33204886 0.094912939 18 26
1.0118794 -0.20524548 0.069408253 21 25
0.98075444 -0.33479753 0.046699882 11 24
1.0041078 -0.20404689 0.022978684 11 23
0.9817251 -0.33532265 0 80 22
1.0089372 -0.20538285 -0.02309474 55 21
0.99953413 -0.20349821 -0.068196774 69 19
0.97452372 -0.33680359 0.23053406 19 30
1.0176723 -0.2088412 0.19370054 69 29
0.9739033 -0.33622617 0.15569697 66 28
1.0063703 -0.20744009 0.12117638 63 27
0.97396255 -0.33625969 0.095150813 12 26
1.0111568 -0.20877634 0.069408253 12 25
0.98429734 -0.33985904 0.046932798 12 24
1.0106992 -0.20922834 0.023152767 12 23
0.97346497 -0.33628348 0 87 22
1.0057656 -0.20840217 -0.023036713 58 21
0.99881774 -0.20698601 -0.068196774 67 19
0.98247218 -0.34360924 0.2327887 15 30
1.019304 -0.21306628 0.19417414 67 29
0.96567446 -0.33733466 0.15453795 65 28
1.008033 -0.2116313 0.12147932 59 27
0.97741884 -0.34147882 0.09562657 12 26
1.007943 -0.21197358 0.069234729 12 25
0.96891057 -0.33849233 0.046234049 12 24
1.002622 -0.21122687 0.022978684 12 23
0.97222596 -0.33984911 0 89 22
1.004995 -0.21208709 -0.023036713 61 21
1.0029354 -0.2116638 -0.068542078 63 19
0.97438323 -0.34458548 0.23109773 18 30
1.0209563 -0.21712795 0.19464774 65 29
0.96449107 -0.3407034 0.15453795 61 28
1.0048602 -0.21463615 0.12117638 59 27
0.97153145 -0.34322053 0.095150813 14 26
1.0120769 -0.21652259 0.069581769 14 25
0.96772301 -0.34187239 0.046234049 12 24
1.0141039 -0.21731503 0.023268819 12 23
0.96867836 -0.34240255 0 90 22
1.0066934 -0.21611267 -0.02309474 58 21
0.99975073 -0.21464571 -0.068369426 63 19
0.97317445 -0.34798464 0.23109773 17 30
1.0105903 -0.21863723 0.19275334 61 29
0.96097165 -0.34323218 0.1541516 51 28
1.0089574 -0.21918453 0.12178227 59 27
0.96798563 -0.34576753 0.094912939 14 26
1.0210677 -0.22215204 0.070275851 34 25
0.97592354 -0.34862873 0.046699882 12 24
1.010896 -0.22032715 0.023210794 12 23
0.97218204 -0.34747463 0 88 22
1.0059329 -0.21962538 -0.02309474 58 21
0.99655747 -0.21760799 -0.068196774 63 19
0.97430408 -0.3520425 0.23166139 17 30
1.0146571 -0.22302976 0.19370054 58 29
0.96447098 -0.34810412 0.15492429 12 28
1.0033759 -0.221471 0.12117638 61 27
0.9715116 -0.35067549 0.095388688 14 26
1.0130161 -0.22393909 0.069755293 50 25
0.96537358 -0.34845155 0.046234049 11 24
0.99795228 -0.22100537 0.022920657 29 23
0.96397573 -0.34813392 0 90 22
1.0076404 -0.22349535 -0.023152767 54 21
1.0031388 -0.22251433 -0.06871473 47 19
0.97306931 -0.35544133 0.23166139 26 30
1.0066818 -0.22498135 0.19227977 58 29
0.96788692 -0.35317191 0.15569697 8 28
1.0074421 -0.22604714 0.12178227 43 27
0.96794564 -0.35320646 0.095150813 14 26
1.0146627 -0.22801489 0.06992881 54 25
0.97118378 -0.35440242 0.046583425 41 24
1.0068936 -0.22683559 0.023152767 23 23
0.96744776 -0.35322157 0 90 22
1.0068541 -0.22701132 -0.023152767 44 21
0.99505317 -0.22438625 -0.068196774 22 19
0.96034557 -0.35476041 0.22884311 44 30
1.0106404 -0.22974634 0.19322695 54 29
0.96890152 -0.35757723 0.15608333 8 28
1.0017655 -0.22864527 0.12117638 48 27
0.96197891 -0.35501847 0.094675057 14 26
1.0089551 -0.23063229 0.069581769 58 25
0.96987832 -0.3579596 0.046583425 78 24
0.99634528 -0.22814085 0.022920657 12 23
0.96614665 -0.35676506 0 89 22
1.0011405 -0.22959438 -0.023036713 21 21
1.0039531 -0.2302386 -0.068887375 29 19
0.96822101 -0.36153835 0.23109773 55 30
1.0146184 -0.23436625 0.19417414 52 29
0.96533501 -0.36008886 0.15569697 8 28
1.0009613 -0.23214069 0.12117638 54 27
0.96545625 -0.35995531 0.095150813 14 26
1.0081439 -0.23415279 0.069581769 59 25
0.9756366 -0.36397639 0.046932798 65 24
0.99797857 -0.23217787 0.022978684 12 23
0.96957606 -0.36189377 0 89 22
1.0028092 -0.23347397 -0.02309474 12 21
1.000713 -0.23318146 -0.06871473 47 19
0.95563149 -0.36042452 0.22827944 63 30
1.0018793 -0.23495606 0.19180615 48 29
0.96875453 -0.36503986 0.15646966 8 28
1.0026027 -0.23602158 0.12147932 59 27
0.96419394 -0.36332321 0.095150813 30 26
1.0073619 -0.23749463 0.069581769 59 25
0.96741933 -0.36455303 0.046583425 40 24
0.99233556 -0.2343488 0.02286263 11 23
0.96369588 -0.36333308 0 90 22
1.0019881 -0.236973 -0.02309474 12 21
0.99750578 -0.23593043 -0.068542078 55 19
0.96346366 -0.36724788 0.23053406 66 30
1.0106102 -0.24070401 0.19370054 19 29
0.96286154 -0.3666513 0.15569697 11 28
0.99935794 -0.23894858 0.12117638 63 27
0.96756744 -0.36846796 0.09562657 54 26
1.0041001 -0.24043454 0.069408253 56 25
0.96614087 -0.3679277 0.046583425 14 24
0.99390161 -0.23856185 0.022920657 11 23
0.96709025 -0.36848503 0 87 22
1.0011548 -0.24046916 -0.02309474 12 21
0.99424976 -0.23883422 -0.068369426 58 19
0.97346514 -0.37518066 0.23335233 59 30
1.0097213 -0.24440646 0.19370054 10 29
0.96611756 -0.3719627 0.15646966 11 28
0.99847543 -0.24260981 0.12117638 65 27
0.97085148 -0.37381005 0.09610232 72 26
1.010486 -0.24586482 0.06992881 55 25
0.96711445 -0.37236857 0.046699882 12 24
0.99792224 -0.24320178 0.023036713 11 23
0.96340221 -0.37112343 0 87 22
0.99783725 -0.24355011 -0.023036713 12 21
0.99336767 -0.24247672 -0.068369426 62 19
1.0136324 -0.24908982 0.19464774 8 29
0.96251333 -0.37443238 0.15608333 12 28
1.0000331 -0.24668223 0.12147932 65 27
0.96960658 -0.37702748 0.09610232 72 26
1.0071989 -0.24879822 0.069755293 54 25
0.96813416 -0.37665257 0.046816342 11 24
0.99706715 -0.24668369 0.023036713 12 23
0.96675646 -0.37630764 0 84 22
1.0091616 -0.24983221 -0.023326848 34 21
0.99493748 -0.24653679 -0.068542078 58 19
1.0032678 -0.25009763 0.19275334 7 29
0.96586037 -0.37943828 0.15685602 12 28
0.99920964 -0.24999711 0.12147932 65 27
0.96365595 -0.37857988 0.09562657 14 26
1.0087891 -0.25273722 0.06992881 28 25
0.96920216 -0.380779 0.046932798 11 24
1.0010949 -0.25119376 0.023152767 12 23
0.96317858 -0.37859195 0 85 22
0.99858177 -0.25093985 -0.02309474 54 21
0.99895495 -0.25103897 -0.068887375 59 19
1.0095322 -0.25538722 0.19417414 8 29
0.9599424 -0.38097531 0.15608333 12 28
0.99592429 -0.25287852 0.12117638 62 27
0.9646396 -0.38286436 0.095864438 11 26
1.0030637 -0.25503936 0.069581769 12 25
0.96090961 -0.38138127 0.046583425 12 24
1.0001675 -0.2548613 0.023152767 12 23
0.9641726 -0.38287938 0 84 22
0.99527645 -0.25381216 -0.023036713 61 21
0.99807262 -0.25452444 -0.068887375 58 19
1.0109684 -0.2596907 0.19464774 8 29
0.96082997 -0.38541558 0.15646966 12 28
0.99739516 -0.25714082 0.12147932 59 27
0.95861435 -0.38453442 0.095388688 10 26
1.0045384 -0.25933173 0.069755293 12 25
0.96182114 -0.38583532 0.046699882 12 24
0.99200803 -0.25649136 0.022978684 12 23
0.96508098 -0.38734677 0 83 22
0.99433947 -0.25745833 -0.023036713 65 21
0.99713302 -0.25818086 -0.068887375 58 19
1.0029252 -0.26137793 0.19322695 8 29
0.96176606 -0.38969961 0.15685602 12 28
0.99408925 -0.25999865 0.12117638 59 27
0.96648425 -0.39163631 0.096340194 10 26
0.99155658 -0.25970605 0.068887688 11 25
0.95353097 -0.38636205 0.046350509 14 24
0.99352574 -0.26058087 0.023036713 12 23
0.963723 -0.39071321 0 81 22
0.9958536 -0.2615568 -0.02309474 65 21
1.0010531 -0.26291552 -0.069232672 59 19
1.0115055 -0.26736388 0.19512133 10 29
0.96039981 -0.3930544 0.15685602 37 28
0.99797589 -0.26472822 0.12178227 54 27
0.96057749 -0.39294484 0.095864438 8 26
1.0002916 -0.2657038 0.069581769 11 25
0.959104 -0.3925406 0.046699882 14 24
0.99019319 -0.26341057 0.022978684 14 23
0.96466476 -0.39502707 0 80 22
0.99739748 -0.26549491 -0.023152767 65 21
1.0011228 -0.26819855 0.19322695 12 29
0.9568103 -0.39528906 0.15646966 55 28
0.99229646 -0.26675913 0.12117638 54 27
0.96379602 -0.39820585 0.096340194 10 26
0.99458539 -0.26773438 0.069234729 11 25
0.96010309 -0.39667749 0.046816342 14 24
0.9893142 -0.26669273 0.022978684 14 23
0.96334958 -0.39822385 0 84 22
0.9940502 -0.26832926 -0.02309474 65 21
1.0025508 -0.27232927 0.19370054 26 29
0.95086968 -0.39671457 0.15569697 63 28
0.98896348 -0.2695744 0.12087344 33 27
0.96698964 -0.40349406 0.096815944 10 26
1.0032748 -0.2738083 0.06992881 11 25
0.96331787 -0.40195948 0.047049258 48 24
0.99315488 -0.27162421 0.02309474 39 23
0.99793196 -0.27310556 -0.023210794 63 21
0.99444181 -0.27406248 0.19227977 40 29
0.95623118 -0.40308997 0.15685602 58 28
0.98557538 -0.27254167 0.1205705 14 27
0.96779543 -0.4080072 0.097053826 11 26
0.99264413 -0.27484456 0.069234729 11 25
0.96183813 -0.40548754 0.047049258 85 24
0.99220067 -0.27508929 0.02309474 59 23
0.99451441 -0.27609849 -0.023152767 65 21
0.99821079 -0.27884161 0.19322695 44 29
0.99418241 -0.27863634 0.12178227 10 27
0.96643716 -0.41121429 0.097053826 11 26
1.0012898 -0.2809805 0.06992881 11 25
0.96041679 -0.4088425 0.047049258 85 24
0.98641884 -0.27721015 0.022978684 67 23
0.99118578 -0.27872404 -0.02309474 65 21
0.99255329 -0.28082508 0.19227977 45 29
0.9884752 -0.28058776 0.12117638 10 27
0.96728027 -0.4155724 0.097291701 11 26
0.99555141 -0.28294709 0.069581769 11 25
0.95905584 -0.41202509 0.047049258 85 24
0.99030524 -0.28183657 0.02309474 67 23
0.99020684 -0.28218225 -0.02309474 65 21
0.99628961 -0.28562972 0.19322695 22 29
0.99226272 -0.28539699 0.12178227 8 27
0.96354282 -0.4179512 0.097053826 12 26
0.99695593 -0.28710502 0.069755293 11 25
0.95532274 -0.41437173 0.046932798 87 24
0.98686266 -0.2847771 0.023036713 69 23
0.99161863 -0.28632462 -0.023152767 62 21
0.99995363 -0.29063833 0.19417414 11 29
0.995978 -0.29040992 0.12238815 8 27
0.96655923 -0.42348695 0.097529583 11 26
0.99589688 -0.29075709 0.069755293 12 25
0.95608288 -0.41887736 0.047049258 87 24
0.98586255 -0.28822014 0.023036713 67 23
0.9905625 -0.28995717 -0.023152767 59 21
1.0162034 -0.29823005 0.27327579 52 31
1.0012895 -0.29481483 0.19464774 7 29
0.99257666 -0.29318744 0.1220852 10 27
0.95377928 -0.42163461 0.096340194 14 26
0.99726915 -0.29493332 0.06992881 12 25
0.95689672 -0.4232271 0.047165714 84 24
0.98485047 -0.29165971 0.023036713 66 23
0.99678963 -0.29535362 -0.023326848 51 21
0.99435502 -0.29545671 0.26747516 52 31
0.99559796 -0.2967425 0.19370054 4 29
0.9939782 -0.29718256 0.12238815 10 27
0.95684266 -0.42699933 0.096815944 74 26
1.0058491 -0.30107704 0.070622891 37 25
0.95776629 -0.42742047 0.047282174 81 24
0.98148197 -0.29421201 0.022978684 65 23
0.99096143 -0.29740572 -0.023210794 26 21
0.99331766 -0.29892588 0.26747516 54 31
0.99455607 -0.30021593 0.19370054 7 29
0.99293476 -0.30065036 0.12238815 11 27
0.95307946 -0.42930982 0.096578076 83 26
0.99523848 -0.3017146 0.06992881 51 25
0.95171893 -0.42870018 0.047049258 85 24
0.98279029 -0.29852811 0.023036713 62 23
0.9827382 -0.29869959 -0.023036713 14 21
0.98759097 -0.30116662 0.26618612 52 31
1.0028455 -0.30670866 0.19559494 7 29
0.99657452 -0.30573207 0.12299403 11 27
0.95376271 -0.43383533 0.096815944 83 26
0.99412596 -0.30536032 0.06992881 52 25
0.95014131 -0.43218553 0.047049258 87 24
0.97935158 -0.30122775 0.022978684 62 23
0.97924638 -0.30156958 -0.022978684 12 21
0.9865337 -0.30461213 0.26618612 52 31
0.99707562 -0.30876625 0.19464774 7 29
0.990758 -0.3077479 0.12238815 11 27
0.99305403 -0.30882862 0.06992881 52 25
0.95316154 -0.43759292 0.047282174 83 24
0.98545837 -0.30685672 0.023152767 58 23
0.98773903 -0.30793893 -0.023210794 12 21
0.98315716 -0.30733883 0.26554158 52 31
0.99833584 -0.31297356 0.19512133 7 29
0.99678493 -0.31342074 0.12329696 11 27
0.99435055 -0.31303641 0.070102334 47 25
0.95389193 -0.44197199 0.047398631 80 24
0.97961032 -0.30880329 0.023036713 59 23
0.98671246 -0.31121269 -0.023210794 12 21
0.98443741 -0.31132013 0.26618612 51 31
1.0019757 -0.31775549 0.19606853 8 29
0.98390716 -0.31299132 0.12178227 11 27
0.99568522 -0.31708333 0.070275851 30 25
0.95694143 -0.44725701 0.047631547 62 24
0.98334688 -0.31355736 0.023152767 52 23
0.99276817 -0.31691846 -0.023384873 12 21
0.98564708 -0.31548533 0.26683062 51 31
0.99384332 -0.31901702 0.19464774 8 29
0.97571671 -0.31415924 0.12087344 25 27
0.98982131 -0.31903797 0.06992881 12 25
0.95086139 -0.44845462 0.047398631 70 24
0.98219103 -0.31715938 0.023152767 44 23
0.97975564 -0.31656808 -0.02309474 23 21
0.98218453 -0.3183566 0.26618612 51 31
0.98799473 -0.32115099 0.19370054 10 29
0.98164225 -0.32002398 0.12178227 34 27
0.98627263 -0.32189554 0.069755293 11 25
0.95371646 -0.45409325 0.047631547 67 24
0.98345548 -0.32135662 0.023210794 52 23
0.9857204 -0.32247141 -0.023268819 47 21
0.9787702 -0.32103589 0.26554158 50 31
0.99386877 -0.32688197 0.19512133 10 29
0.97344363 -0.3211332 0.12087344 25 27
0.98514301 -0.32533628 0.069755293 11 25
0.95662302 -0.45959184 0.047864471 73 24
0.98232776 -0.32478759 0.023210794 55 23
0.98227102 -0.32495901 -0.023210794 54 21
0.98228925 -0.32578954 0.26683062 43 31
0.99277925 -0.33017597 0.19512133 11 29
0.98415303 -0.32825753 0.12238815 14 27
0.98642612 -0.32938567 0.06992881 11 25
0.9550938 -0.46276158 0.047864471 78 24
0.97887307 -0.32725647 0.023152767 56 23
0.97875875 -0.32759812 -0.023152767 61 21
0.97885424 -0.32845351 0.26618612 39 31
0.98230702 -0.33053032 0.19322695 41 29
0.98300123 -0.33169082 0.12238815 11 27
0.97817636 -0.33044919 0.069408253 11 25
0.97529775 -0.3300465 0.02309474 59 23
0.97760928 -0.33101267 -0.023152767 61 21
0.99137807 -0.33666646 0.27005324 33 31
0.9880656 -0.33648586 0.19464774 51 29
0.97707832 -0.33369866 0.12178227 10 27
0.98876739 -0.33803841 0.070275851 11 25
0.97887278 -0.33505651 0.023210794 58 23
0.97875577 -0.33539817 -0.023210794 58 21
0.98791057 -0.33934572 0.2694087 19 31
0.98223943 -0.33834496 0.19370054 54 29
0.9852975 -0.3403258 0.12299403 10 27
0.98522246 -0.3406783 0.070102334 12 25
0.97769725 -0.33847138 0.023210794 55 23
0.97521555 -0.33799973 -0.023152767 58 21
0.99585438 -0.34594089 0.27198675 11 31
0.98569238 -0.34337556 0.19464774 54 29
0.97941422 -0.34213737 0.12238815 10 27
0.98873949 -0.34575072 0.070449375 33 25
0.97414887 -0.34106177 0.023152767 56 23
0.97881079 -0.34287319 -0.023268819 55 21
0.98329687 -0.34526753 0.2687642 29 31
0.98223096 -0.34583268 0.19417414 54 29
0.9759323 -0.34456277 0.1220852 10 27
0.98994076 -0.3498531 0.070622891 51 25
0.97772872 -0.34594655 0.023268819 55 23
0.97996593 -0.3471168 -0.023326848 55 21
0.98892021 -0.35110596 0.27069774 40 31
0.98333234 -0.35007697 0.19464774 52 29
0.98174089 -0.35045364 0.12299403 10 27
0.98166215 -0.35080528 0.070102334 54 25
0.97409928 -0.34869102 0.023210794 55 23
0.97874832 -0.35053539 -0.023326848 54 21
0.98307627 -0.35310599 0.2694087 44 31
0.98666567 -0.35533127 0.19559494 52 29
0.96876961 -0.34986278 0.12147932 10 27
0.97567499 -0.35271627 0.069755293 56 25
0.97758055 -0.35377908 0.023326848 54 23
0.97980875 -0.3549661 -0.023384873 54 21
0.99774456 -0.36226854 0.27392033 45 31
0.98311067 -0.35793889 0.19512133 51 29
0.96287632 -0.35155135 0.12087344 11 27
0.98381561 -0.35952199 0.070449375 54 25
0.97164124 -0.35548297 0.023210794 54 23
0.97961247 -0.36035502 0.19464774 51 29
0.97102636 -0.35815528 0.1220852 12 27
0.97793478 -0.36106583 0.070102334 55 25
0.97280329 -0.35956404 0.023268819 52 23
0.97374284 -0.36207223 0.19370054 48 29
0.96977019 -0.36154264 0.1220852 26 27
0.97666848 -0.36447728 0.070102334 55 25
0.97382218 -0.36399671 0.023326848 43 23
0.97010964 -0.36478034 0.19322695 41 29
0.97308683 -0.36683434 0.12269108 48 27
0.97999686 -0.36980459 0.070449375 54 25
0.9772259 -0.36914921 0.023442902 14 23
0.9665336 -0.36729792 0.19275334 33 29
0.96947932 -0.36935082 0.12238815 54 27
0.97170299 -0.37057358 0.06992881 54 25
0.96892011 -0.36990041 0.023268819 11 23
0.9652456 -0.37066948 0.19275334 25 29
0.96818411 -0.3727327 0.12238815 55 27
0.97506201 -0.37574586 0.070275851 54 25
0.96995711 -0.37417442 0.023326848 10 23
0.96859264 -0.37563255 0.19370054 40 29
0.96925783 -0.37683502 0.12269108 55 27
0.9714843 -0.37807816 0.070102334 54 25
0.97570378 -0.38009417 0.023500927 10 23
0.97185093 -0.38079143 0.19464774 45 29
0.9702484 -0.38111791 0.12299403 55 27
0.97712803 -0.38418838 0.070622891 52 25
0.97430408 -0.38366777 0.023500927 10 23
0.97273314 -0.38524938 0.19512133 50 29
0.96422786 -0.38285089 0.12238815 55 27
0.97339368 -0.38685158 0.070449375 51 25
0.98225671 -0.39074013 0.023733035 8 23
0.98735118 -0.39498755 0.19843651 48 29
0.9582749 -0.38437763 0.12178227 54 27
0.97435385 -0.39117071 0.070622891 33 25
0.97392315 -0.39138684 0.023558956 10 23
0.96620429 -0.39125726 0.12299403 54 27
0.97073793 -0.39346823 0.070449375 12 25
0.97725624 -0.39648283 0.02367501 10 23
0.9648326 -0.39462754 0.12299403 52 27
0.97628915 -0.39967281 0.070969932 11 25
0.96892166 -0.39706466 0.023500927 10 23
0.95426601 -0.39422485 0.12178227 54 27
0.96796733 -0.40023559 0.070449375 10 25
0.97439408 -0.40346572 0.02367501 11 23
0.95739931 -0.39962068 0.12238815 52 27
0.97340417 -0.40664867 0.070969932 11 25
0.96143937 -0.40207016 0.023384873 11 23
0.9582876 -0.40391865 0.12269108 52 27
0.96507859 -0.40715194 0.070449375 22 25
0.96003002 -0.40542376 0.023384873 12 23
0.95694286 -0.40709424 0.12269108 51 27
0.9729107 -0.41423669 0.071143456 40 25
0.96558481 -0.4115288 0.023558956 36 23
0.95551604 -0.4104321 0.12269108 51 27
0.96916521 -0.41665053 0.070969932 47 25
0.95947409 -0.41309911 0.023442902 50 23
0.95856303 -0.41589621 0.12329696 50 27
0.96763164 -0.42019987 0.070969932 50 25
0.96032083 -0.41743675 0.023500927 52 23
0.95938087 -0.42023 0.12359991 50 27
0.96615893 -0.42357501 0.070969932 51 25
0.95885783 -0.42078638 0.023500927 52 23
0.96467447 -0.42694494 0.070969932 51 25
0.96195811 -0.42614481 0.023616981 51 23
0.96325338 -0.43014157 0.070969932 51 25
0.95825559 -0.4283179 0.023558956 52 23
0.96174604 -0.4335013 0.070969932 51 25
0.95675462 -0.43166023 0.023558956 51 23
0.96469539 -0.43907923 0.07131698 50 25
0.9551661 -0.435164 0.023558956 52 23
0.96315688 -0.44244397 0.07131698 50 25
0.9581877 -0.44057319 0.02367501 50 23
0.96168441 -0.4456355 0.07131698 51 25
0.97487944 -0.45211917 0.024139225 50 23
1.0824242 0.021480687 0.10014623 11 26
1.0600938 0.017566668 0.098005332 11 26
1.0551717 0.013811418 0.097529583 76 26
1.0552135 0.010128098 0.097529583 85 26
1.0477774 0.0062318109 0.096815944 85 26
1.0453037 0.0027559188 0.096578076 84 26
1.0502843 -0.00090765744 0.097053826 76 26
1.0502747 -0.0045738281 0.097053826 61 26
1.0463037 -0.0045542782 0.047165714 10 24
1.0502509 -0.0084232464 0.097053826 12 26
1.0512743 -0.0084397001 0.047398631 47 24
1.0502151 -0.012089255 0.097053826 8 26
1.0462445 -0.01204129 0.047165714 87 24
1.0501693 -0.015571828 0.097053826 8 26
1.0486929 -0.015736004 0.047282174 87 24
1.0550847 -0.019339139 0.097529583 8 26
1.0411446 -0.019060532 0.046932798 90 24
1.045055 -0.022966349 0.096578076 8 26
1.0460609 -0.022996677 0.047165714 89 24
1.0499439 -0.026751371 0.097053826 10 26
1.0459743 -0.02664797 0.047165714 90 24
1.0470684 -0.026861023 0 10 22
1.0523369 -0.03030983 0.097291701 10 26
1.0483711 -0.030376513 0.047282174 88 24
1.0519657 -0.030671991 0 10 22
1.0472503 -0.033811882 0.096815944 11 26
1.0457686 -0.033767018 0.047165714 87 24
1.0418643 -0.033814762 0 80 22
1.0471194 -0.037650023 0.096815944 12 26
1.0431424 -0.037504733 0.047049258 89 24
1.0342388 -0.037346561 0 90 22
1.0395221 -0.040994879 0.09610232 12 26
1.0479954 -0.041353162 0.047282174 87 24
1.0341022 -0.040956497 0 87 22
1.0344081 -0.044218656 0.09562657 12 26
1.0428551 -0.044786263 0.047049258 89 24
1.033953 -0.044565942 0 85 22
1.0317616 -0.047708876 0.095388688 14 26
1.0377122 -0.048002884 0.046816342 89 24
1.0337994 -0.047994409 0 84 22
1.0340742 -0.051439054 0.09562657 29 26
1.0425261 -0.051883664 0.047049258 87 24
1.0361222 -0.051732711 0 65 22
