# .PCD v0.7 - Point Cloud Data file format
VERSION 0.7
FIELDS x y z intensity ring
SIZE 4 4 4 4 2
TYPE F F F F U
COUNT 1 1 1 1 1
WIDTH 1396
HEIGHT 1
VIEWPOINT 0 0 0 1 0 0 0
POINTS 1396
DATA ascii
5.5778074 1.9251072 0.56067616 39 26
6.5649672 3.2933502 0.50858897 28 25
5.5993981 1.9325436 0.2746093 38 24
6.5354648 3.2756889 0.16891654 28 23
5.6057858 1.9336511 0 38 22
6.6148119 3.3126035 -0.17094749 23 21
5.5410419 1.9102633 -0.27169782 29 20
1.717916 0.85827535 -0.13052346 2 19
5.193913 1.7877017 -0.48999864 8 18
nan nan nan 0 17
4.7631555 1.6377796 -0.69496793 1 16
1.6987551 0.84938627 -0.32505041 7 15
nan nan nan 0 13
1.6658138 0.83320504 -0.41859397 3 14
2.2218125 0.75921631 -0.80005842 6 12
1.561334 0.78511244 -0.69268358 3 11
2.1707513 0.73390573 -1.1983184 12 9
1.5647588 0.78884876 -0.80671734 3 10
1.9271528 0.64814413 -1.2078496 14 8
1.5603703 0.79501456 -1.1616248 3 7
1.5426499 0.51406389 -1.2116991 21 6
1.3038658 0.66996932 -1.2114825 21 5
1.2485107 0.410671 -1.2230852 20 4
nan nan nan 0 3
nan nan nan 0 2
1.8446594 0.97094119 -2.6906888 3 1
nan nan nan 0 0
6.6749358 3.3368418 1.9818941 78 31
5.5682802 1.8979625 1.3533309 37 30
6.6650009 3.3246303 1.4302583 40 29
5.5474672 1.8930193 0.91138756 38 28
6.6649375 3.3173645 0.90458167 39 27
5.5656486 1.8992028 0.55877316 39 26
6.6813612 3.3226423 0.51674443 37 25
5.577745 1.9033191 0.27321178 38 24
6.6900854 3.3240788 0.17263028 38 23
5.5793705 1.9027863 0 38 22
6.7001982 3.3261914 -0.17286238 40 21
5.5760441 1.9005669 -0.27309531 38 20
1.6940989 0.83895695 -0.12845165 2 19
5.1647582 1.7575426 -0.48664555 8 18
nan nan nan 0 17
4.7477403 1.6139796 -0.69187158 2 16
1.7083255 0.84674126 -0.32633859 6 15
nan nan nan 0 13
1.6752576 0.83064145 -0.42026833 4 14
2.2222099 0.75070214 -0.79924119 6 12
1.5661377 0.7806946 -0.69362092 3 11
2.1691108 0.72492856 -1.1959734 12 9
1.5654805 0.78236735 -0.80565453 3 10
1.9314343 0.64208567 -1.2091427 14 8
1.566829 0.79143584 -1.1644272 3 7
1.5463251 0.50929511 -1.2132138 21 6
1.3095933 0.66715288 -1.2147131 21 5
1.2516563 0.40686551 -1.2248126 19 4
nan nan nan 0 3
nan nan nan 0 2
nan nan nan 0 1
nan nan nan 0 0
6.6475916 3.2942028 1.9702928 39 31
5.5356283 1.8653072 1.3437488 38 30
6.6127634 3.2697709 1.4165241 35 29
5.5282936 1.8649684 0.90713775 38 28
6.6319752 3.2721047 0.89852291 36 27
5.5368681 1.8678446 0.55520499 39 26
6.6504235 3.2783346 0.51344758 36 25
5.5559559 1.8742692 0.27181429 39 24
6.6568127 3.278605 0.17146973 36 23
5.5575476 1.8737253 0 38 22
6.1601982 3.0311379 -0.15858775 13 21
5.5637102 1.8747193 -0.27216366 42 20
nan nan nan 0 19
5.1472578 1.7315739 -0.48441017 8 18
1.7926755 0.88014281 -0.22460377 4 17
5.5303893 1.8581465 -0.80575001 34 16
1.7488247 0.85928428 -0.33363828 3 15
nan nan nan 0 13
1.6759613 0.82371086 -0.41971022 3 14
2.213608 0.73920977 -0.79515511 6 12
1.5709296 0.77625281 -0.69455826 3 11
2.1758223 0.71873325 -1.1983184 12 9
1.57428 0.7799207 -0.80884308 3 10
1.933664 0.6353398 -1.2091427 14 8
1.5751317 0.7887516 -1.1686311 3 7
1.5424166 0.50205642 -1.2086699 20 6
1.3119141 0.66257751 -1.2147131 21 5
1.2461821 0.4002974 -1.2179025 19 4
1.087956 0.55493885 -1.2590469 7 3
nan nan nan 0 2
nan nan nan 0 1
nan nan nan 0 0
6.6021237 3.2444227 1.9535353 35 31
5.5140519 1.8377098 1.3369849 37 30
6.5750895 3.2240314 1.4061049 34 29
5.5063281 1.8372551 0.90250158 39 28
6.5803852 3.2195361 0.89004052 35 27
5.5123382 1.8392451 0.55211258 39 26
6.6007724 3.2266705 0.50876248 35 25
5.5337105 1.8463606 0.27041677 39 24
6.6143212 3.2290156 0.17007709 35 23
5.5305233 1.8442262 0 39 22
6.1410198 2.9964347 -0.1578334 5 21
5.5441546 1.8466159 -0.27088261 42 20
nan nan nan 0 19
nan nan nan 0 18
1.8024329 0.87714857 -0.2254567 3 17
5.5506215 1.8444768 -0.80781424 38 16
1.7407492 0.84776855 -0.33149132 3 15
nan nan nan 0 13
1.7049534 0.83099538 -0.42640772 3 14
2.2206638 0.73295498 -0.79678959 5 12
1.5757095 0.77178699 -0.69549555 3 11
2.1739948 0.7101472 -1.1959734 12 9
1.5709043 0.77141929 -0.80565453 3 10
1.9358699 0.62858617 -1.2091427 14 8
1.5797282 0.784172 -1.1700321 3 7
1.5517372 0.49909341 -1.2147284 20 6
1.314219 0.65799397 -1.2147131 20 5
1.2561898 0.3986606 -1.2265402 19 4
1.0914145 0.55191529 -1.2608663 7 3
nan nan nan 0 2
nan nan nan 0 1
nan nan nan 0 0
6.5662003 3.1969242 1.939356 33 31
5.4976125 1.8098801 1.3313483 38 30
6.5427103 3.1784434 1.396633 33 29
5.4801793 1.8062491 0.89709276 39 28
6.5497193 3.1748159 0.88428462 35 27
5.4906759 1.8096917 0.54925805 38 26
6.5654249 3.1796117 0.50511855 35 25
5.5119753 1.8166963 0.26901928 39 24
6.5760651 3.181942 0.1688005 35 23
5.5087481 1.8145684 0 38 22
nan nan nan 0 21
5.5220981 1.8178921 -0.26948512 40 20
1.6983012 0.81899816 -0.12810634 3 19
nan nan nan 0 18
1.7786541 0.85787004 -0.222045 3 17
5.5244031 1.8133214 -0.80299765 38 16
1.7614306 0.85027468 -0.33492646 3 15
nan nan nan 0 13
1.7101806 0.82580328 -0.42696583 3 14
nan nan nan 0 12
1.5783939 0.76628208 -0.69549555 3 11
2.1786849 0.70285016 -1.1971459 12 9
1.5796866 0.76891124 -0.80884308 3 10
1.9421287 0.6231274 -1.2117292 14 8
1.5843122 0.77956998 -1.1714334 4 7
1.5515735 0.49307442 -1.2132138 21 6
1.3182153 0.6542542 -1.2163284 20 5
1.2558483 0.39373609 -1.2248126 18 4
1.0856804 0.54424089 -1.2517691 7 3
nan nan nan 0 2
nan nan nan 0 1
nan nan nan 0 0
6.5251169 3.1487713 1.9238874 32 31
5.4761 1.7816471 1.3245846 39 30
6.5029044 3.1310751 1.3857404 32 29
5.453568 1.7764118 0.89168394 38 28
6.5205064 3.1325769 0.87883174 34 27
5.4709268 1.7820461 0.54664141 39 26
6.5382676 3.1383152 0.50216872 34 25
5.4850359 1.7866294 0.26738885 39 24
6.5308018 3.1319301 0.16734983 34 23
5.4865184 1.7860526 0 39 22
3.8320854 1.8349599 -0.097833484 1 21
5.4951596 1.7878015 -0.26785469 40 20
1.6944033 0.80982971 -0.12758839 3 19
4.639297 1.5070356 -0.43478435 3 18
1.790596 0.85595208 -0.22318223 3 17
5.5024304 1.7848688 -0.79886913 39 16
1.7399644 0.83239818 -0.33020315 3 15
nan nan nan 0 13
1.7042658 0.81560922 -0.42473334 3 14
2.8398206 0.91471642 -1.0198905 7 12
1.5852331 0.76278377 -0.69737023 3 11
2.185334 0.69657755 -1.1994909 12 9
1.5843976 0.76437867 -0.80990601 3 10
1.9381709 0.61441195 -1.2078496 14 8
1.5870237 0.77403492 -1.1714334 4 7
1.5532851 0.4876554 -1.2132138 21 6
1.3187807 0.64880306 -1.2147131 20 5
1.2520331 0.38775682 -1.2196301 19 4
1.0875735 0.54044783 -1.2517691 7 3
nan nan nan 0 2
nan nan nan 0 1
nan nan nan 0 0
6.4946733 3.1061592 1.9116417 33 31
5.4498186 1.752097 1.3166933 38 30
6.4628477 3.084024 1.3748477 33 29
5.4385719 1.7505615 0.88820684 40 28
6.4731555 3.0820405 0.87095529 34 27
5.4460082 1.7539879 0.543549 39 26
6.4951406 3.0897427 0.4980042 34 25
5.4674644 1.7598298 0.26622427 39 24
6.5055828 3.0919366 0.1664214 34 23
5.4665375 1.758479 0 40 22
3.847178 1.826535 -0.0980656 2 21
5.4752111 1.7602113 -0.26657364 40 20
1.6927145 0.80176902 -0.1272431 3 19
4.7391114 1.5220571 -0.44372597 8 18
nan nan nan 0 17
5.4776621 1.7567931 -0.79439658 36 16
1.7473074 0.82843536 -0.33106193 3 15
2.2814713 0.72916341 -0.67545396 5 13
1.6849587 0.79947734 -0.41915208 5 14
2.2957754 0.7311042 -0.82130617 3 12
1.5919346 0.75952488 -0.69924492 3 11
2.1813121 0.68734276 -1.1959734 12 9
1.593176 0.76178086 -0.81309456 3 10
1.9401978 0.60798144 -1.2078496 14 8
1.589716 0.76849043 -1.1714334 4 7
1.5529933 0.48191535 -1.2116991 20 6
1.3174984 0.64274621 -1.2114825 20 5
1.255041 0.38412812 -1.2213576 19 4
1.0770717 0.5307439 -1.2372136 7 3
nan nan nan 0 2
nan nan nan 0 1
nan nan nan 0 0
6.4612942 3.0638909 1.8987513 34 31
5.4207768 1.7229623 1.3082385 38 30
6.4308867 3.0426137 1.3658494 34 29
5.4160995 1.7235399 0.88357067 39 28
6.4451966 3.0425358 0.86580527 33 27
5.4260077 1.7266759 0.54093236 40 26
6.4647546 3.0490236 0.49488083 34 25
5.43995 1.7311004 0.26459384 39 24
6.4728498 3.0500898 0.16531888 34 23
5.4389811 1.7297472 0 39 22
3.8218782 1.79818 -0.097253226 2 21
5.452455 1.7329788 -0.26517612 40 20
1.6885958 0.79296213 -0.12672515 4 19
4.5355101 1.4393231 -0.42405447 7 18
1.7042605 0.80033672 -0.21152559 3 17
5.4672356 1.7324324 -0.79198825 9 16
1.6809913 0.79006875 -0.31775072 2 15
2.2655361 0.71581811 -0.66995126 7 13
1.6877393 0.7935909 -0.41915208 3 14
2.2846613 0.71924311 -0.81640285 3 12
1.6050448 0.75893199 -0.70393151 3 11
2.1836982 0.6797244 -1.1959734 12 9
1.5956935 0.75649351 -0.81309456 3 10
1.9463975 0.60246551 -1.210436 14 8
1.5941212 0.76411235 -1.1728346 5 7
1.5565685 0.47707132 -1.2132138 21 6
1.3248824 0.64064544 -1.2163284 20 5
1.261567 0.38130277 -1.2265402 19 4
1.0896883 0.53227609 -1.2499497 8 3
nan nan nan 0 2
nan nan nan 0 1
nan nan nan 0 0
6.4216766 3.0176723 1.8839273 32 31
5.4058414 1.6974709 1.3031657 38 30
6.3970246 2.9992905 1.3563775 33 29
5.391448 1.6950058 0.8785482 39 28
6.4130764 3.0000255 0.86004937 34 27
5.4058838 1.6995251 0.53831571 39 26
6.4346967 3.0074174 0.49175748 35 25
5.4149861 1.7023765 0.26307988 39 24
6.4409618 3.0062461 0.16421635 34 23
5.4187469 1.7025183 0 39 22
3.8054855 1.7742537 -0.096672952 2 21
5.4277911 1.7032748 -0.26366219 40 20
1.6800543 0.78178704 -0.1258619 5 19
4.443078 1.3929875 -0.41488937 5 18
1.686926 0.78463054 -0.20896681 4 17
nan nan nan 0 16
1.686107 0.78494465 -0.31818014 3 15
nan nan nan 0 13
1.6882915 0.78666258 -0.41859397 3 14
2.3075943 0.71715611 -0.82375783 3 12
1.6057181 0.75205809 -0.70299417 3 11
2.1881688 0.67274433 -1.1971459 12 9
1.6107361 0.75642926 -0.81947184 3 10
1.9506395 0.59595031 -1.2117292 14 8
1.5931734 0.75648248 -1.1700321 6 7
1.5544971 0.4702172 -1.2101845 20 6
1.3237832 0.6341297 -1.2130978 20 5
1.2629561 0.37667632 -1.2265402 19 4
1.091632 0.52827865 -1.2499497 8 3
nan nan nan 0 2
nan nan nan 0 1
nan nan nan 0 0
6.3910928 2.9747343 1.8716815 33 31
5.3841066 1.6690034 1.2964019 38 30
6.3723583 2.959269 1.3487999 34 29
5.3693128 1.666459 0.87391204 39 28
6.3767533 2.9545753 0.85368764 34 27
5.3787971 1.6693858 0.53498542 39 26
6.3913665 2.9586492 0.48759294 34 25
5.3997211 1.6758645 0.26203176 39 24
6.406054 2.9627459 0.16305582 35 23
5.3986816 1.6745095 0 39 22
3.8074255 1.7581956 -0.096556902 2 21
5.4074621 1.6761948 -0.26238114 40 20
1.6783811 0.77353024 -0.12551659 5 19
4.4053316 1.3634622 -0.41086563 3 18
1.6941632 0.78082252 -0.20953542 3 17
nan nan nan 0 16
1.6933069 0.78112352 -0.31903893 3 15
nan nan nan 0 13
1.7000086 0.78456581 -0.42082646 3 14
2.3123429 0.70978796 -0.82457507 3 12
1.6188378 0.75134224 -0.70768076 3 11
2.1863925 0.66344196 -1.1948009 12 9
1.6133667 0.75080216 -0.81947184 3 10
1.9486094 0.58790648 -1.2091427 14 8
1.6014202 0.75357014 -1.1742359 6 7
1.5561291 0.46478817 -1.2101845 20 6
1.3242667 0.62868333 -1.2114825 20 5
1.2677324 0.37327927 -1.2299953 19 4
1.0965574 0.52595574 -1.2535886 7 3
nan nan nan 0 2
nan nan nan 0 1
nan nan nan 0 0
6.3619618 2.9341834 1.8600801 33 31
5.3619485 1.6416537 1.289638 38 30
6.3358274 2.915442 1.3388543 33 29
5.3491178 1.6397539 0.86966228 39 28
6.3486943 2.9146831 0.84853762 34 27
5.3581285 1.6435225 0.53236878 40 26
6.3653913 2.9196723 0.48481661 35 25
5.3721066 1.646772 0.26040134 39 24
6.3754654 2.9216104 0.16201134 34 23
5.3781972 1.6476096 0 39 22
3.767797 1.724728 -0.095396362 2 21
5.3822341 1.6478171 -0.26086718 39 20
1.6697345 0.76247174 -0.12465335 6 19
nan nan nan 0 18
1.6878467 0.77076507 -0.20839819 5 17
nan nan nan 0 16
1.6960231 0.77520794 -0.31903893 4 15
nan nan nan 0 13
1.6981716 0.77689052 -0.41971022 5 14
2.3170679 0.70239526 -0.82539219 3 12
1.6129042 0.74208277 -0.70393151 3 11
2.1970434 0.65871555 -1.1994909 12 9
1.6118708 0.74326473 -0.8173461 3 10
1.9464463 0.58022404 -1.2065564 14 8
1.6077909 0.74973136 -1.1770383 5 7
1.5595704 0.4601852 -1.2116991 20 6
1.3280689 0.62510437 -1.2130978 20 5
1.2637544 0.36756983 -1.2248126 19 4
1.0967489 0.52157617 -1.2517691 8 3
nan nan nan 0 2
nan nan nan 0 1
nan nan nan 0 0
6.3277287 2.8929675 1.8471898 35 31
5.3370533 1.6147069 1.2823106 39 30
6.3074994 2.8770835 1.3308033 33 29
5.3285198 1.61414 0.86541247 39 28
6.3176756 2.8750975 0.84308469 35 27
5.3400116 1.6176034 0.52999002 40 26
6.3341794 2.8799529 0.48169327 34 25
5.3560257 1.6224411 0.25935319 39 24
6.3350644 2.8776941 0.16073474 35 23
5.3501287 1.6196381 0 39 22
3.7487626 1.7001947 -0.094758064 2 21
5.3661537 1.6234602 -0.25981906 39 20
nan nan nan 0 19
nan nan nan 0 18
3.5583105 1.6136682 -0.44323707 4 17
2.8211153 0.85190928 -0.4045952 2 16
nan nan nan 0 15
nan nan nan 0 13
1.80291 0.81737292 -0.445384 8 14
2.335232 0.6994381 -0.8311128 3 12
1.6133772 0.73548371 -0.70299417 3 11
2.1929758 0.64916885 -1.1959734 12 9
1.6143266 0.73791546 -0.8173461 3 10
1.952566 0.57462925 -1.2091427 14 8
1.5971227 0.73829365 -1.1672298 6 7
1.5611674 0.45473844 -1.2116991 20 6
1.3302426 0.62046474 -1.2130978 21 5
1.2685058 0.36414641 -1.2282677 19 4
1.100112 0.51847953 -1.2535886 8 3
nan nan nan 0 2
nan nan nan 0 1
nan nan nan 0 0
6.2937903 2.8509126 1.8342994 33 31
5.3193173 1.5891048 1.276674 39 30
6.2705364 2.8338027 1.3208578 34 29
5.3057218 1.5870475 0.86077631 39 28
6.2756486 2.8295484 0.83611703 35 27
5.3146267 1.5896945 0.52689761 40 26
6.2964487 2.8362975 0.47804934 35 25
5.3329425 1.5951586 0.2579557 40 24
6.3091054 2.8380377 0.15980631 35 23
5.3341894 1.5945171 0 40 22
3.715929 1.6696615 -0.093771607 2 21
5.3553157 1.5987872 -0.25900385 33 20
3.5534744 1.5965425 -0.26726231 1 19
nan nan nan 0 18
3.5302241 1.5853313 -0.43897244 6 17
2.8216984 0.84135079 -0.40425119 2 16
3.51368 1.5793438 -0.66555899 7 15
2.4460592 0.7255168 -0.72016317 2 13
1.7879784 0.80306441 -0.44091898 8 14
2.3400462 0.69154179 -0.83192998 3 12
1.628728 0.73530561 -0.70861816 3 11
2.1973484 0.6421271 -1.1971459 12 9
1.6211405 0.73386616 -0.81947184 3 10
1.9567146 0.56806296 -1.210436 14 8
1.6054614 0.73502946 -1.1714334 7 7
1.5666482 0.45010588 -1.2147284 20 6
1.3325078 0.61558503 -1.2130978 21 5
1.2663523 0.35851723 -1.2248126 19 4
1.102005 0.51444399 -1.2535886 8 3
nan nan nan 0 2
nan nan nan 0 1
nan nan nan 0 0
6.2601256 2.8080375 1.8214091 33 31
5.2994041 1.5620333 1.2704738 39 30
6.2405567 2.7927375 1.312333 34 29
5.2783341 1.5578158 0.85536748 39 28
6.2519932 2.7913404 0.83157289 34 27
5.2917714 1.5617629 0.52404308 40 26
6.2703652 2.7969325 0.47527301 36 25
5.3124027 1.5678368 0.25667465 40 24
6.2756057 2.7966523 0.15870379 34 23
5.3136187 1.5671867 0 39 22
3.6969123 1.6448396 -0.093133308 3 21
5.3345113 1.5723279 -0.2577228 9 20
3.5547464 1.5814773 -0.26691702 6 19
2.8232782 0.83163184 -0.26109415 2 18
3.5334675 1.5719879 -0.43868813 7 17
2.815259 0.82821488 -0.40287501 2 16
3.5214207 1.5680723 -0.66598839 4 15
2.4439623 0.71562725 -0.71878755 2 13
1.8242903 0.81140262 -0.44929087 10 14
2.3379085 0.68205023 -0.83029556 4 12
1.6249418 0.72676784 -0.70580614 3 11
2.1975648 0.63345981 -1.1959734 12 9
1.6298822 0.73098987 -0.82266039 3 10
1.956628 0.5606423 -1.2091427 14 8
1.6004808 0.72598779 -1.1658285 7 7
1.5701244 0.4451741 -1.2162429 20 6
1.3311819 0.60933471 -1.2098671 20 5
1.2675961 0.35409468 -1.2248126 18 4
1.0944682 0.50625139 -1.242672 8 3
nan nan nan 0 2
nan nan nan 0 1
nan nan nan 0 0
6.2323704 2.7694798 1.8104523 33 31
5.2837739 1.5374098 1.2654009 40 30
6.1986609 2.7480364 1.3014404 33 29
5.2576509 1.531792 0.85111767 40 28
6.2185855 2.7504127 0.82581705 35 27
5.2732949 1.5363303 0.52166432 39 26
6.2367544 2.7558603 0.4719761 34 25
5.2914667 1.5416102 0.25539362 40 24
6.2350359 2.7525053 0.15742721 34 23
5.2902489 1.5402544 0 39 22
3.6637619 1.6147655 -0.092146851 3 21
2.9154596 0.84931284 -0.13998319 1 20
3.5442739 1.5620084 -0.26570845 7 19
2.8357301 0.82454538 -0.26198831 3 18
3.548022 1.5636566 -0.43982536 5 17
2.8086188 0.81562763 -0.40149882 2 16
3.5268729 1.5557708 -0.66598839 3 15
2.4718509 0.71441036 -0.7263537 2 13
1.8226538 0.80305898 -0.4481746 10 14
2.3516304 0.67714345 -0.8343817 4 12
1.6338217 0.72391713 -0.70861816 3 11
2.1997628 0.62578505 -1.1959734 12 9
1.6344905 0.72621793 -0.82372332 3 10
1.9565138 0.55322939 -1.2078496 14 8
1.5916826 0.71528673 -1.1574211 8 7
1.5620875 0.43702632 -1.2086699 20 6
1.335037 0.6054759 -1.2114825 20 5
1.2705677 0.35014436 -1.2265402 18 4
1.1008991 0.504583 -1.2481302 9 3
nan nan nan 0 2
nan nan nan 0 1
nan nan nan 0 0
6.2022119 2.730176 1.7988509 33 31
5.2586718 1.5102291 1.2580734 39 30
6.1745081 2.7115643 1.2943364 34 29
5.2392259 1.5066137 0.84725428 39 28
6.1849675 2.7097523 0.82006115 35 27
5.2520499 1.5112755 0.51904768 40 26
6.2029338 2.7150569 0.46867922 35 25
5.2704124 1.5155491 0.25411257 40 24
6.2125521 2.7166936 0.15661483 35 23
5.2691598 1.5141939 0 40 22
3.6553576 1.5965962 -0.091798685 3 21
nan nan nan 0 20
3.5634153 1.5556229 -0.26674435 3 19
2.8432362 0.81650823 -0.26243541 2 18
3.5625613 1.5552428 -0.44096258 4 17
2.8041658 0.80426693 -0.40046668 2 16
3.5300262 1.5424626 -0.66555899 2 15
2.4465866 0.69789064 -0.71809971 2 13
1.8253068 0.79701042 -0.4481746 10 14
2.4267244 0.689529 -0.8605327 6 12
1.6425753 0.72129983 -0.71143007 3 11
2.2018256 0.61848688 -1.1959734 12 9
1.641155 0.72233719 -0.825849 3 10
1.9562761 0.54616547 -1.2065564 14 8
1.5884993 0.70719111 -1.1532173 8 7
1.5692823 0.43342337 -1.2132138 21 6
1.3387761 0.6018312 -1.2130978 21 5
1.2717217 0.34592909 -1.2265402 19 4
1.099448 0.49950314 -1.2444913 8 3
nan nan nan 0 2
nan nan nan 0 1
nan nan nan 0 0
6.1758137 2.6941276 1.7885387 33 31
5.2331853 1.4841559 1.2507459 40 30
6.1429577 2.6734271 1.2858118 35 29
5.2180538 1.4818201 0.84300447 41 28
6.1597805 2.6743901 0.81551707 36 27
5.2309556 1.4854656 0.51643103 40 26
6.1707258 2.6765935 0.46555585 36 25
5.248981 1.4905701 0.25283152 40 24
6.180254 2.678174 0.15557034 35 23
5.2476945 1.4892156 0 40 22
3.6379764 1.5738889 -0.091218412 3 21
2.8803256 0.81788206 -0.13800339 2 20
3.5571122 1.5388391 -0.26588109 8 19
2.8245039 0.80048424 -0.26042354 2 18
3.5927684 1.5542842 -0.44409001 3 17
2.7974236 0.79178333 -0.3990905 2 16
nan nan nan 0 15
2.4604583 0.69302154 -0.7215389 3 13
1.8303133 0.79160428 -0.44873273 10 14
2.4858828 0.69738197 -0.88096321 6 12
1.6450831 0.71556181 -0.71143007 3 11
2.2060997 0.61138481 -1.1971459 12 9
1.6393957 0.71507549 -0.82372332 3 10
1.9622973 0.5404647 -1.2091427 14 8
1.5832642 0.69856435 -1.1476125 13 7
1.5746253 0.42898247 -1.2162429 20 6
1.3426104 0.59793407 -1.2147131 20 5
1.2781606 0.34288183 -1.2317227 18 4
1.1058699 0.49778551 -1.2499497 9 3
nan nan nan 0 2
1.8917012 0.86489028 -2.6847229 3 1
nan nan nan 0 0
6.1386228 2.652416 1.7750037 33 31
5.2125306 1.4586701 1.2445458 39 30
6.1116829 2.6344621 1.277287 35 29
5.201787 1.4576074 0.83952737 41 28
6.1326094 2.6371734 0.81067002 36 27
5.2121429 1.460492 0.51405221 40 26
6.143374 2.6392729 0.46277952 36 25
5.2325072 1.4661831 0.2517834 40 24
6.1463943 2.6367667 0.15446782 36 23
5.2287836 1.4641573 0 41 22
3.6227777 1.5523084 -0.090696178 3 21
2.8784931 0.80597651 -0.13777047 3 20
3.5739212 1.5313317 -0.26674435 6 19
2.8200853 0.7886138 -0.25975293 2 18
3.5733321 1.5303338 -0.44096258 1 17
2.7834721 0.77736402 -0.3966822 2 16
5.7743015 2.4769468 -1.0893698 5 15
2.4560325 0.68207562 -0.71947539 3 13
1.8285874 0.78328568 -0.44761646 10 14
2.5180323 0.69642764 -0.89158708 6 12
1.6583314 0.71412599 -0.71611673 3 11
2.2082205 0.60368031 -1.1971459 13 9
1.65031 0.71266258 -0.82797474 3 10
1.9621997 0.53271091 -1.2078496 14 8
1.5877099 0.69358855 -1.1490136 14 7
1.5723436 0.4221828 -1.2132138 21 6
1.3430485 0.59223574 -1.2130978 20 5
1.2741647 0.33682004 -1.2265402 18 4
1.107687 0.493729 -1.2499497 9 3
nan nan nan 0 2
1.8962374 0.85857809 -2.6867115 3 1
nan nan nan 0 0
6.1149955 2.6156373 1.7653359 35 31
5.1967082 1.4337344 1.239473 39 30
6.082922 2.5956519 1.2692358 36 29
5.1832843 1.4319646 0.83566391 42 28
6.0942917 2.5942492 0.80430824 35 27
5.1958694 1.4354234 0.51191139 41 26
6.1094069 2.5981781 0.45948264 37 25
5.2065501 1.4383631 0.25026944 40 24
6.1164613 2.5986667 0.15348136 35 23
5.2100134 1.4383398 0 39 22
3.6261425 1.5380424 -0.090638146 4 21
2.8668432 0.79194474 -0.13707173 2 20
3.5932825 1.5240741 -0.26778024 5 19
2.8133531 0.77563244 -0.25885877 2 18
6.0726714 2.577527 -0.75114328 15 17
2.779139 0.76519048 -0.39565009 2 16
5.7987776 2.4635229 -1.0923755 4 15
2.4723098 0.67729628 -0.72360235 4 13
1.8314461 0.77657831 -0.44761646 10 14
nan nan nan 0 12
1.6544224 0.70559621 -0.71330476 3 11
2.210418 0.59558272 -1.1971459 12 9
1.6507083 0.70600462 -0.82691187 3 10
1.9619797 0.52530742 -1.2065564 14 8
1.6072108 0.69546932 -1.1616248 13 7
1.5738077 0.41669172 -1.2132138 20 6
1.3451076 0.58754402 -1.2130978 20 5
1.2753326 0.33237034 -1.2265402 18 4
1.1047035 0.48776975 -1.2444913 9 3
nan nan nan 0 2
1.8964603 0.85070926 -2.6827343 3 1
nan nan nan 0 0
6.0885086 2.5791874 1.7550237 35 31
5.1781774 1.4091998 1.2338364 39 30
6.0625553 2.5619695 1.2630792 36 29
5.1644177 1.4073786 0.83180046 42 28
6.0667281 2.557523 0.79946119 35 27
5.1741872 1.4109942 0.50929475 40 26
6.0885634 2.5642412 0.45722684 37 25
5.1898518 1.4142796 0.24922132 42 24
6.0886421 2.5617783 0.15255293 35 23
5.1860528 1.4122739 0 39 22
3.9905736 1.6772878 -0.099690363 9 21
2.8551307 0.77800417 -0.13637298 2 20
3.5939829 1.5095873 -0.26743495 3 19
2.8111033 0.76499468 -0.25841168 2 18
6.1091042 2.5678735 -0.75455499 28 17
2.7792714 0.75532269 -0.39530605 2 16
5.8913226 2.4786375 -1.108263 3 15
2.4630549 0.6655376 -0.72016317 6 13
1.8385024 0.77239418 -0.44873273 10 14
nan nan nan 0 12
1.6695546 0.7055372 -0.71892869 3 11
2.2081122 0.58711916 -1.1948009 12 9
1.6635742 0.70466632 -0.83222622 3 10
1.9657803 0.51934242 -1.2078496 14 8
1.6172354 0.6931293 -1.1672298 19 7
1.5751809 0.41147053 -1.2132138 20 6
1.345299 0.58231884 -1.2114825 21 5
1.2746764 0.32769296 -1.2248126 19 4
1.111022 0.4861778 -1.2499497 9 3
nan nan nan 0 2
1.8965042 0.84318042 -2.6787567 3 1
nan nan nan 0 0
6.0569434 2.5421412 1.7434223 34 31
5.1569438 1.3850819 1.2276362 39 30
6.0370588 2.5276182 1.2559751 35 29
5.1452012 1.3838398 0.82793707 40 28
6.0362544 2.5211174 0.79431117 36 27
5.1574488 1.3871158 0.50715381 40 26
6.0579119 2.5276957 0.45427701 36 25
5.1679826 1.3899379 0.24794027 41 24
6.0601983 2.5261738 0.1516245 36 23
5.1665626 1.3885897 0 40 22
4.02178 1.6739262 -0.10032865 15 21
2.8528707 0.76723844 -0.13614005 2 20
3.6035731 1.4995801 -0.26778024 1 19
2.8017297 0.75195944 -0.25729397 2 18
5.4573307 2.2723575 -0.67267412 2 17
2.7579682 0.73922443 -0.39186558 2 16
nan nan nan 0 15
2.4745402 0.65983504 -0.72291458 6 13
1.8366896 0.76409411 -0.44761646 10 14
nan nan nan 0 12
1.6720071 0.69970506 -0.71892869 3 11
2.2101479 0.57940787 -1.1948009 12 9
1.6596463 0.69650972 -0.82903761 3 10
1.9696521 0.51301408 -1.2091427 14 8
1.6176206 0.68695021 -1.1658285 22 7
1.5746806 0.40547663 -1.2116991 20 6
1.3508278 0.57913005 -1.2147131 21 5
1.2758125 0.32324153 -1.2248126 19 4
1.1079981 0.48023903 -1.2444913 9 3
nan nan nan 0 2
nan nan nan 0 1
nan nan nan 0 0
6.0211768 2.5024254 1.7305319 34 31
5.1287818 1.3583561 1.219745 40 30
6.0005012 2.48771 1.2465034 36 29
5.1261239 1.3595493 0.82407361 40 28
6.0060401 2.4838943 0.78916121 37 27
5.126174 1.35955 0.5035857 41 26
6.0298238 2.4912829 0.45150065 37 25
5.1510763 1.3661371 0.24689214 43 24
6.0227814 2.4859154 0.15046397 36 23
5.1496267 1.3647915 0 41 22
nan nan nan 0 21
2.8482888 0.75536031 -0.13579068 3 20
5.1210947 2.1112475 -0.3810387 21 19
2.7874844 0.73772848 -0.2557292 2 18
6.0598612 2.4987478 -0.74631006 38 17
2.7557425 0.72833109 -0.39117754 2 16
2.643991 1.089795 -0.49251363 6 15
2.4791532 0.65180236 -0.72360235 5 13
1.8415977 0.75860924 -0.4481746 9 14
nan nan nan 0 12
1.6829987 0.69742554 -0.72267801 3 11
2.212157 0.57168949 -1.1948009 12 9
1.666244 0.69245511 -0.83116335 3 10
1.9735041 0.50666523 -1.210436 14 8
1.6295449 0.68532771 -1.1728346 26 7
1.5799434 0.40094993 -1.2147284 20 6
1.3493315 0.57291281 -1.2114825 20 5
1.2821958 0.32008854 -1.2299953 18 4
1.1049464 0.47432736 -1.2390331 10 3
nan nan nan 0 2
nan nan nan 0 1
nan nan nan 0 0
5.9986076 2.4685113 1.7215086 35 31
5.1122789 1.3349158 1.2146722 40 30
5.9773612 2.4536867 1.2398731 36 29
5.1069388 1.335409 0.82021016 40 28
5.9802313 2.4487956 0.78461707 36 27
5.1140318 1.3372481 0.50192052 42 26
5.9946327 2.4522619 0.4482038 37 25
5.1316504 1.3418409 0.24572757 42 24
6.0064049 2.4534187 0.14982568 36 23
5.1301684 1.3404974 0 42 22
5.6505446 2.3067541 -0.14088951 28 21
2.8317049 0.73987979 -0.13485901 3 20
5.1330504 2.0952458 -0.38138402 18 19
2.775584 0.72423303 -0.25438797 2 18
6.0229917 2.4577348 -0.74062383 38 17
2.7414916 0.71434981 -0.38876924 2 16
2.6456883 1.079165 -0.49208426 7 15
2.4838531 0.64331198 -0.72429025 2 13
1.8419793 0.75125307 -0.44761646 9 14
2.2529156 0.58123165 -0.79270345 9 12
1.6812575 0.68948746 -0.72080338 3 11
2.2162795 0.56450683 -1.1959734 12 9
1.6855023 0.69325334 -0.83966631 3 10
1.9732727 0.49890655 -1.2091427 13 8
1.6358659 0.68094778 -1.1756371 24 7
1.5794722 0.39467734 -1.2132138 21 6
1.3531798 0.56870615 -1.2130978 20 5
1.2798488 0.31453151 -1.2265402 19 4
1.1129825 0.47297275 -1.2463108 11 3
nan nan nan 0 2
nan nan nan 0 1
nan nan nan 0 0
5.9673533 2.4300947 1.7099073 35 31
5.0959058 1.3107179 1.2095993 40 30
5.9453845 2.415117 1.2313483 36 29
5.0878778 1.3105313 0.81634665 40 28
5.9546728 2.4128683 0.78007299 36 27
5.0923862 1.3116779 0.49930388 41 26
5.9735322 2.4180973 0.445948 37 25
5.1099296 1.3161824 0.24444652 43 24
5.9778657 2.4174314 0.14889725 37 23
5.113255 1.3160861 0 43 22
5.6659126 2.2888396 -0.1410636 21 21
2.8294325 0.72874874 -0.13462609 3 20
5.1476316 2.0792234 -0.38190192 10 19
2.7709832 0.71220112 -0.25371736 2 18
5.9808774 2.4162085 -0.7343691 21 17
2.7392933 0.70306945 -0.38808113 2 16
2.6562874 1.0726957 -0.49337244 8 15
2.4860835 0.63463783 -0.72429025 3 13
1.8266512 0.73717815 -0.4431515 8 14
2.2457693 0.57104409 -0.78943455 9 12
1.6922386 0.68711448 -0.72455269 3 11
2.2161913 0.55584508 -1.1948009 12 9
1.687912 0.68736559 -0.83966631 3 10
1.9646188 0.48944202 -1.2026768 13 8
1.6324941 0.67285746 -1.1714334 22 7
1.5827721 0.38963392 -1.2147284 20 6
1.3586771 0.56545258 -1.2163284 19 5
1.2791817 0.30964053 -1.2248126 19 4
1.1098908 0.46707749 -1.2408525 13 3
nan nan nan 0 2
nan nan nan 0 1
nan nan nan 0 0
5.9489207 2.3984013 1.7021732 36 31
5.0744767 1.2863498 1.2033992 40 30
5.9196215 2.3805974 1.2242442 37 29
5.0684786 1.286696 0.81248319 41 28
5.9285164 2.3781958 0.77552879 36 27
5.075222 1.2883922 0.497163 41 26
5.9472165 2.383302 0.44334519 37 25
5.0975471 1.2940434 0.24363132 44 24
5.9445086 2.3798139 0.14785275 37 23
5.0887356 1.2908652 0 40 22
5.69243 2.2764797 -0.14152782 22 21
2.8198543 0.7158047 -0.1340438 3 20
5.1455965 2.0575342 -0.38121134 11 19
2.7613814 0.6994766 -0.25259966 2 18
5.9708285 2.3879309 -0.73209459 38 17
2.7345276 0.69168729 -0.38704902 2 16
2.6577296 1.0625008 -0.49294305 9 15
2.4976091 0.62829316 -0.72704154 3 13
1.8292133 0.73079747 -0.4431515 5 14
2.2477489 0.56320137 -0.78943455 9 12
1.6924775 0.68033582 -0.72361535 3 11
2.2202623 0.54863322 -1.1959734 12 9
1.6944959 0.68316776 -0.84179199 3 10
1.9746293 0.48461103 -1.2078496 9 8
1.6290859 0.66479909 -1.1672298 21 7
1.5841227 0.38410664 -1.2147284 21 6
1.3553545 0.55851501 -1.2114825 21 5
1.2802547 0.30517346 -1.2248126 18 4
1.1115144 0.46320039 -1.2408525 12 3
0.16551837 0.041221194 -0.16027881 4 2
nan nan nan 0 1
nan nan nan 0 0
5.9168811 2.3614886 1.6905718 37 31
5.0529399 1.2621471 1.197199 40 30
5.8959713 2.3471961 1.2176139 37 29
5.0441828 1.2618153 0.80784708 42 28
5.8952737 2.3409855 0.77007592 36 27
5.0553226 1.2655218 0.49478421 40 26
5.9160957 2.3468788 0.44039536 37 25
5.0729585 1.2689818 0.2422338 42 24
5.9156089 2.3443022 0.14692432 37 23
5.0738053 1.2682525 0 40 22
5.7301512 2.2695673 -0.14228216 22 21
2.8150661 0.70414484 -0.13369443 3 20
5.1736145 2.0478306 -0.3827652 10 19
2.7491884 0.68670642 -0.25125843 2 18
5.9468007 2.3542621 -0.72811425 37 17
2.7223878 0.67903113 -0.38498473 2 16
2.6705794 1.0568501 -0.49466062 11 15
2.5067873 0.62129956 -0.72910506 3 13
nan nan nan 0 14
2.249701 0.55535185 -0.78943455 10 12
1.7011803 0.67730051 -0.72642732 3 11
2.2199235 0.54074723 -1.1948009 12 9
1.6947701 0.67640692 -0.84072918 3 10
1.9367024 0.46854973 -1.1832787 8 8
1.6313964 0.6591084 -1.1672298 21 7
1.5853876 0.37885138 -1.2147284 20 6
1.3589642 0.55474198 -1.2130978 21 5
1.2847798 0.30174544 -1.2282677 19 4
1.1162107 0.46082866 -1.2444913 17 3
0.17667857 0.043184876 -0.17363538 4 2
nan nan nan 0 1
nan nan nan 0 0
5.8842516 2.3258557 1.6789705 37 31
5.0358109 1.2401514 1.192126 41 30
5.8649063 2.31231 1.2095628 36 29
5.0291529 1.240358 0.80475634 41 28
5.8683677 2.3077865 0.76553178 37 27
5.0403767 1.2431086 0.49288121 41 26
5.8890324 2.313555 0.43779254 37 25
5.0528893 1.2461826 0.24106921 40 24
5.8931088 2.3127906 0.14616996 37 23
5.0537076 1.2454485 0 41 22
5.7845688 2.2678146 -0.14344271 23 21
2.8076856 0.69242144 -0.13322859 3 20
5.1919851 2.035219 -0.38362843 10 19
2.7370586 0.67354715 -0.24991718 2 18
5.9198942 2.3209167 -0.72384965 36 17
2.7247412 0.66952407 -0.38498473 2 16
2.6671925 1.0452864 -0.49337244 16 15
2.511169 0.61355174 -0.72979289 3 13
4.6600237 1.8291943 -1.1385756 8 14
2.2515304 0.54788852 -0.78943455 10 12
1.7035342 0.67135817 -0.72642732 3 11
2.2175024 0.53196925 -1.1924559 9 9
1.7075198 0.67495733 -0.84604353 3 10
1.9320804 0.46030664 -1.1793991 9 8
1.6258893 0.65060598 -1.1616248 20 7
1.5808901 0.3719576 -1.2101845 20 6
1.3608923 0.54999489 -1.2130978 20 5
1.2805407 0.29604861 -1.2230852 19 4
1.116227 0.45627671 -1.242672 17 3
0.18313289 0.043981768 -0.18126771 5 2
nan nan nan 0 1
nan nan nan 0 0
5.865345 2.2947302 1.6712363 36 31
5.0235381 1.2185537 1.1881806 42 30
5.8340731 2.276638 1.2015117 36 29
5.0070467 1.2163926 0.80050653 40 28
5.8463287 2.2755744 0.76159358 37 27
5.0204997 1.2196423 0.49050242 42 26
5.8645353 2.2803187 0.43536326 37 25
5.0353665 1.2232409 0.24002108 44 24
5.8642735 2.2766888 0.14524153 38 23
5.0361567 1.2225018 0 42 22
5.8506927 2.2702348 -0.14489338 36 21
2.802923 0.68036443 -0.13287921 3 20
5.1967325 2.0161798 -0.38345578 9 19
2.7224505 0.65989637 -0.24835241 2 18
5.8866839 2.2830215 -0.71873206 36 17
2.717433 0.65768659 -0.38360855 2 16
2.6733015 1.0363959 -0.49380183 20 15
2.5274258 0.60770297 -0.73391992 4 13
4.6822782 1.819102 -1.1424824 8 14
2.2558217 0.5401805 -0.79025179 10 12
1.7146159 0.66848946 -0.73017663 3 11
nan nan nan 0 9
1.701557 0.66538596 -0.84179199 3 10
1.9316708 0.45273647 -1.178106 9 8
1.6224916 0.64234692 -1.1574211 24 7
1.5841813 0.36660624 -1.2116991 21 6
1.3664397 0.54642731 -1.2163284 20 5
1.2833803 0.29175016 -1.2248126 18 4
1.1194798 0.45282951 -1.2444913 19 3
0.20221394 0.047517829 -0.20416467 5 2
nan nan nan 0 1
nan nan nan 0 0
5.8331747 2.2575083 1.6596349 35 31
5.0066471 1.1950532 1.1831076 41 30
5.8103218 2.2428513 1.1948814 36 29
4.9898486 1.1928735 0.79702944 43 28
5.8198977 2.2407432 0.75704944 38 27
5.0007296 1.1954573 0.48812369 44 26
5.8379431 2.2453656 0.43276045 37 25
5.0203829 1.2001404 0.23908941 42 24
5.8348618 2.2418478 0.1443131 37 23
5.0187168 1.198817 0 42 22
5.8543081 2.2469828 -0.14477731 52 21
2.7858462 0.66594636 -0.13194755 3 20
4.934032 1.8933465 -0.36342838 11 19
2.7224283 0.64933783 -0.24812886 2 18
5.8505664 2.2455318 -0.71333027 37 17
2.6957326 0.64200473 -0.38016814 2 16
2.6837988 1.0297107 -0.49509001 24 15
2.53421 0.59998024 -0.73529559 5 13
4.6934624 1.803679 -1.1435987 8 14
2.2070904 0.52042472 -0.77227294 9 12
1.7212611 0.66417497 -0.73205125 3 11
nan nan nan 0 9
1.7123059 0.6627214 -0.84604353 3 10
1.9749469 0.45555854 -1.20397 9 8
1.6305032 0.63895482 -1.1616248 22 7
1.5854512 0.36107418 -1.2116991 20 6
1.3665659 0.54094845 -1.2147131 21 5
1.2826265 0.28687772 -1.2230852 19 4
1.1194634 0.44827756 -1.242672 18 3
0.20554404 0.047460727 -0.20798086 5 2
nan nan nan 0 1
nan nan nan 0 0
5.8162093 2.2276196 1.6525452 36 31
4.9823322 1.1708953 1.1763438 40 30
5.7860174 2.210279 1.1882511 37 29
4.9747458 1.1709297 0.7939387 42 28
5.7952232 2.2080319 0.75280827 38 27
4.9804401 1.1731721 0.48574489 45 26
5.8061266 2.2098765 0.42981058 38 25
5.0026612 1.1774687 0.23804128 44 24
5.8146219 2.2107966 0.14361678 38 23
5.0009665 1.1761494 0 42 22
5.8266878 2.2142258 -0.14390692 40 21
2.7808599 0.65450704 -0.13159817 3 20
4.8869934 1.8557235 -0.35945743 15 19
2.7027473 0.63519675 -0.24611703 2 18
5.8421173 2.2189159 -0.71134007 37 17
2.6978464 0.63306189 -0.38016814 2 16
2.6942821 1.0229647 -0.49637818 28 15
2.5316067 0.59004349 -0.73391992 5 13
4.6857548 1.7828987 -1.14025 8 14
2.1950812 0.50952607 -0.76736957 13 12
1.7061435 0.65182197 -0.72455269 6 11
nan nan nan 0 9
1.7230564 0.65998989 -0.85029501 4 10
1.9701858 0.44759247 -1.2000904 14 8
1.6385109 0.63551462 -1.1658285 29 7
1.5846984 0.35538244 -1.2101845 21 6
1.363027 0.53431392 -1.2098671 20 5
1.2888676 0.28377771 -1.2282677 18 4
1.1209438 0.44456282 -1.242672 19 3
0.2183385 0.049474411 -0.22324549 5 2
nan nan nan 0 1
nan nan nan 0 0
5.7806592 2.1920304 1.6402993 36 31
4.9672031 1.1499804 1.1718346 41 30
5.7588801 2.1780405 1.1811471 36 29
4.9593506 1.1499712 0.7908479 44 28
5.7700119 2.176527 0.7485671 38 27
4.9651084 1.1512911 0.4838419 45 26
5.7784214 2.1774056 0.42720777 37 25
4.9895077 1.1569314 0.23722608 43 24
5.7891788 2.1791627 0.1428044 39 23
4.9853535 1.1550533 0 41 22
5.8016348 2.181545 -0.14309454 39 21
2.7781487 0.64415741 -0.13136525 3 20
4.8837838 1.8359926 -0.35876682 18 19
2.6976688 0.62408066 -0.24544638 2 18
5.7401919 2.1584003 -0.69797754 1 17
2.6734951 0.61753196 -0.37638363 2 16
2.7022686 1.0157615 -0.49723697 31 15
2.5522938 0.58593136 -0.73942262 3 13
4.6896696 1.7656716 -1.1396918 8 14
2.1622028 0.49438044 -0.75511134 19 12
1.7170752 0.64915299 -0.728302 6 11
nan nan nan 0 9
1.7167771 0.65105081 -0.84604353 6 10
1.9821792 0.4430334 -1.2065564 15 8
1.6406095 0.6300776 -1.1658285 31 7
1.5937009 0.35155028 -1.2162429 20 6
1.3719939 0.53232777 -1.2163284 20 5
1.2845495 0.2781406 -1.2230852 19 4
1.1161114 0.43812487 -1.2353942 21 3
0.21850987 0.048711967 -0.22324549 5 2
nan nan nan 0 1
nan nan nan 0 0
5.7588801 2.1607957 1.6319207 36 31
4.9450622 1.1266943 1.1656344 42 30
5.7342663 2.1458671 1.1745168 37 29
4.9392514 1.1271681 0.78698444 44 28
5.747355 2.1450803 0.74462891 37 27
4.9521117 1.1300844 0.48217675 42 26
5.7602854 2.1476278 0.42529908 38 25
4.9691668 1.1339624 0.23606151 43 24
5.7643399 2.1457102 0.14199203 39 23
4.9625401 1.1315421 0 42 22
5.77174 2.1473212 -0.14216611 38 21
2.7683146 0.63120431 -0.13078296 3 20
4.8925004 1.8198044 -0.35893947 17 19
2.6828327 0.61080462 -0.24388163 2 18
5.6875434 2.1148155 -0.69058555 1 17
2.6635592 0.60546142 -0.37466341 2 16
2.7105889 1.0075705 -0.49809575 33 15
2.540354 0.57340968 -0.73529559 3 13
4.6843886 1.7450316 -1.1369011 8 14
2.1317205 0.47923106 -0.74367023 20 12
1.7302916 0.64692861 -0.7329886 5 11
nan nan nan 0 9
nan nan nan 0 10
1.98797 0.43667838 -1.2091427 15 8
1.6545137 0.62848979 -1.1742359 31 7
1.59109 0.34487015 -1.2132138 20 6
1.3650357 0.5238595 -1.2082518 21 5
1.2890971 0.27417529 -1.2265402 19 4
1.1193063 0.4346559 -1.2372136 21 3
0.22658904 0.049578466 -0.23278591 5 2
nan nan nan 0 1
nan nan nan 0 0
5.7373257 2.1287382 1.6235418 36 31
4.9325194 1.104843 1.1616888 42 30
5.7029614 2.1103373 1.1664656 36 29
4.9192472 1.1036608 0.78312105 41 28
5.7156072 2.1093788 0.73947889 38 27
4.9343634 1.1070328 0.48003587 40 26
5.7306838 2.1126831 0.42252275 38 25
4.9513574 1.1108313 0.23501338 43 24
5.7342744 2.1117413 0.1410636 38 23
4.9471364 1.1089797 0 43 22
5.7467375 2.1140587 -0.14135373 38 21
2.7485669 0.61663431 -0.12973483 3 20
4.8944573 1.8001363 -0.35859421 18 19
2.6777625 0.59934169 -0.243211 2 18
5.7368441 2.1104019 -0.69570309 38 17
2.6488411 0.59192848 -0.37225512 2 16
2.7164001 0.99895477 -0.49852514 34 15
2.5329528 0.56246269 -0.73254424 3 13
4.6861806 1.726164 -1.135785 8 14
2.1172285 0.46823281 -0.73794967 20 12
2.7167075 1.0065026 -1.1575971 7 11
2.2368731 0.4868933 -1.1971459 12 9
nan nan nan 0 10
1.9915743 0.43018568 -1.210436 15 8
1.6566973 0.62271059 -1.1742359 33 7
1.5981218 0.34054857 -1.2177576 20 6
1.3686383 0.51977241 -1.2098671 20 5
1.2865069 0.26894149 -1.2230852 20 4
1.1224157 0.43136534 -1.2390331 21 3
0.23785216 0.050988398 -0.24614246 5 2
nan nan nan 0 1
nan nan nan 0 0
5.7061777 2.0945325 1.6125851 35 31
4.9125581 1.0823885 1.1560524 41 30
5.6826363 2.0802798 1.1607826 37 29
4.9061837 1.082764 0.78041661 41 28
5.6903048 2.0774865 0.73523766 37 27
4.9163232 1.0849845 0.47789496 43 26
5.7028823 2.0798347 0.41991991 38 25
4.9308157 1.0881701 0.2338488 42 24
5.7110872 2.0805783 0.14030924 37 23
4.9265618 1.0863315 0 44 22
5.7259026 2.0837183 -0.14065741 37 21
2.7433856 0.60542756 -0.12938546 3 20
4.8819642 1.7762096 -0.35721296 17 19
2.6603808 0.58572364 -0.2414227 2 18
5.7348413 2.0869625 -0.69456589 37 17
2.6436346 0.58108991 -0.371223 2 16
2.7244983 0.99115473 -0.49938396 34 15
2.5255063 0.55157447 -0.72979289 5 13
4.6944661 1.7106308 -1.136343 8 14
2.1049948 0.45784131 -0.73304641 22 12
2.7658868 1.0138034 -1.1772809 9 11
2.2363994 0.47862235 -1.1959734 12 9
2.4093676 0.8855896 -1.1893501 12 10
1.9909701 0.42278919 -1.2091427 15 8
1.6608002 0.61764854 -1.1756371 33 7
1.5954059 0.3341586 -1.2147284 20 6
1.3740138 0.51634133 -1.2130978 20 5
1.2909796 0.26516908 -1.2265402 19 4
1.1175106 0.42499039 -1.2317554 22 3
0.24119744 0.050786983 -0.24995862 5 2
nan nan nan 0 1
nan nan nan 0 0
5.6748629 2.0605707 1.6016283 36 31
4.8996415 1.0616308 1.1521066 41 30
5.6552472 2.0478797 1.1536785 38 29
4.8882079 1.0609264 0.77693945 44 28
5.6718512 2.0483284 0.73190534 38 27
4.8955727 1.0634037 0.47551617 43 26
5.679615 2.0489011 0.41766417 38 25
4.9150586 1.066723 0.23291713 44 24
5.6901031 2.050451 0.13961293 39 23
4.9083328 1.0643693 0 42 22
5.6904612 2.0494578 -0.13961293 33 21
2.7210736 0.59057027 -0.12822089 3 20
4.8717108 1.7532382 -0.35600442 15 19
2.6525731 0.57479692 -0.24052854 3 18
5.7140512 2.0568252 -0.69115418 35 17
2.6310229 0.56919044 -0.36915872 2 16
2.7325747 0.98330998 -0.50024271 35 15
2.5297668 0.54325807 -0.73048073 5 13
4.6863608 1.6900868 -1.1329943 8 14
2.099647 0.4490158 -0.73059469 23 12
2.7605214 1.0014566 -1.1735315 9 11
2.2379744 0.47120354 -1.1959734 12 9
2.4337025 0.88492811 -1.1999788 10 10
1.9944563 0.4166196 -1.210436 14 8
1.6707138 0.61471933 -1.181242 33 7
1.5965053 0.32886621 -1.2147284 20 6
1.3757185 0.51178217 -1.2130978 20 5
1.2918519 0.26088658 -1.2265402 19 4
1.1253258 0.42371535 -1.2390331 23 3
0.25087702 0.051842801 -0.26140711 5 2
nan nan nan 0 1
nan nan nan 0 0
5.6521177 2.0311089 1.5932496 36 31
4.8793125 1.0403092 1.1464702 40 30
5.6319714 2.018337 1.1475219 38 29
4.8675423 1.0395627 0.77307606 43 28
5.6412292 2.0161307 0.72705829 37 27
4.8773489 1.0416402 0.47337529 43 26
5.6605453 2.0208211 0.41575542 39 25
4.8965869 1.0457337 0.231869 44 24
5.663918 2.0198045 0.13880055 39 23
4.8922739 1.0439217 0 43 22
5.6693306 2.019506 -0.1389166 2 21
2.7108037 0.5789454 -0.12763858 3 20
4.8939409 1.7429383 -0.35721296 15 19
2.6472557 0.56398362 -0.2398579 3 18
5.0470853 1.7975545 -0.60927331 1 17
2.6257267 0.55846363 -0.3681266 3 16
2.7381399 0.97507131 -0.5006721 35 15
2.5244985 0.53338176 -0.72841728 8 13
4.6922317 1.6737182 -1.1329943 8 14
2.0872495 0.43914694 -0.72569144 23 12
2.7661815 0.99259919 -1.1744689 9 11
2.2417681 0.46383381 -1.1971459 12 9
nan nan nan 0 10
1.9938018 0.40922737 -1.2091427 14 8
1.6824647 0.61273324 -1.1882483 32 7
1.5937436 0.32250851 -1.2116991 21 6
1.3721286 0.50498903 -1.2082518 21 5
1.2927547 0.25637558 -1.2265402 19 4
1.1203777 0.41737396 -1.2317554 23 3
0.25105649 0.050966758 -0.26140711 5 2
nan nan nan 0 1
nan nan nan 0 0
5.6295896 2.0008385 1.5848708 37 31
4.8590732 1.018286 1.1408336 40 30
5.606595 1.9871712 1.1408916 37 29
4.8518014 1.0185146 0.76998532 42 28
5.6201591 1.9864912 0.723423 38 27
4.8663402 1.0215476 0.47194803 43 26
5.6346455 1.9894122 0.41332614 38 25
4.8782091 1.0240273 0.23082086 44 24
5.6382871 1.9873859 0.13798817 38 23
4.8763118 1.0227414 0 43 22
5.6386342 1.9864017 -0.13798817 24 21
2.7031295 0.56696326 -0.12717275 3 20
4.8976431 1.725015 -0.35704035 16 19
2.6345832 0.55168951 -0.23851667 3 18
5.6369152 1.9846765 -0.68006617 33 17
2.6155388 0.54677129 -0.36640638 3 16
2.7463403 0.96666837 -0.50153089 34 15
2.5264363 0.5241254 -0.72841728 3 13
4.6842599 1.652458 -1.1296456 7 14
2.0795877 0.42959189 -0.72242254 25 12
2.7850862 0.98789072 -1.1810302 9 11
2.2390454 0.45513067 -1.1948009 12 9
nan nan nan 0 10
1.9952883 0.40191704 -1.2091427 14 8
1.6905398 0.60867578 -1.1924521 24 7
1.5988177 0.31743354 -1.2147284 20 6
1.3739703 0.49995652 -1.2082518 21 5
1.2883619 0.25061145 -1.2213576 19 4
1.1218997 0.41326475 -1.2317554 23 3
0.26075807 0.051879574 -0.27285561 5 2
nan nan nan 0 1
nan nan nan 0 0
5.6118207 1.9713749 1.5777811 37 31
4.8460712 0.99704134 1.1368881 42 30
5.5837278 1.9560455 1.1347347 38 29
4.8313084 0.99575001 0.76612186 44 28
5.5899243 1.952769 0.71857595 37 27
4.8456755 0.99869192 0.46956927 42 26
5.6089387 1.9572297 0.41089687 38 25
4.862361 1.0021169 0.2298892 44 24
5.6097946 1.9553385 0.13711776 38 23
4.862886 1.0013402 0 42 22
5.6151967 1.9550258 -0.13723381 38 21
2.7099845 0.55852836 -0.12740566 3 20
4.9204183 1.7128 -0.35824889 19 19
2.6195116 0.53853369 -0.23695189 3 18
5.6344266 1.9617172 -0.67892885 40 17
2.615099 0.53668529 -0.36606231 4 16
2.7566738 0.95951056 -0.50281912 35 15
2.5423832 0.51817095 -0.73254424 5 13
4.6948857 1.6368849 -1.1307619 8 14
2.0741265 0.42092794 -0.71997082 25 12
2.7382324 0.96047449 -1.1594718 10 11
2.2450299 0.44778031 -1.1971459 12 9
nan nan nan 0 10
1.9987788 0.39536238 -1.210436 14 8
1.7043502 0.60695636 -1.2008594 17 7
1.5960106 0.3110958 -1.2116991 20 6
1.3775011 0.49580723 -1.2098671 20 5
1.2874532 0.24577749 -1.2196301 19 4
1.1185071 0.40757248 -1.226297 25 3
0.27365544 0.053262915 -0.28812027 5 2
nan nan nan 0 1
nan nan nan 0 0
5.5753202 1.9366958 1.5655352 38 31
4.8304214 0.97626799 1.1323789 41 30
5.5626922 1.9268895 1.1290517 38 29
4.8178072 0.97545624 0.76341748 43 28
5.570909 1.9243213 0.71524358 38 27
4.832056 0.97832203 0.46790412 41 26
5.5803771 1.9254224 0.40829402 38 25
4.8462467 0.98118228 0.22895753 43 24
5.5905972 1.9267761 0.13647945 38 23
4.8418455 0.97941363 0 42 22
5.5959949 1.9264534 -0.13659552 38 21
2.6972296 0.54610372 -0.12670691 3 20
4.9405146 1.7004908 -0.35928479 21 19
2.60917 0.52693224 -0.23583421 5 18
4.7324953 1.6287766 -0.56890148 4 17
2.5975344 0.52365506 -0.36330998 4 16
2.7646625 0.95148909 -0.50367785 36 15
2.5276763 0.50600511 -0.72772944 4 13
4.7005715 1.6204869 -1.1307619 8 14
2.0570426 0.41001078 -0.71343309 27 12
2.7590802 0.95700192 -1.1669704 7 11
2.2444122 0.4395189 -1.1959734 12 9
nan nan nan 0 10
1.9980457 0.38797757 -1.2091427 14 8
1.7259761 0.60791117 -1.2148718 18 7
1.6009948 0.30626404 -1.2147284 21 6
1.3828158 0.49228284 -1.2130978 20 5
1.2883033 0.24128194 -1.2196301 19 4
1.1215346 0.40425128 -1.2281165 24 3
0.27383968 0.052307352 -0.28812027 5 2
nan nan nan 0 1
nan nan nan 0 0
5.5546379 1.9077953 1.557801 37 31
4.8099079 0.95466989 1.1267424 43 30
5.5322332 1.8947188 1.1214741 38 29
4.7993779 0.95430762 0.75994033 42 28
5.5470672 1.8944246 0.71130538 39 27
4.8108635 0.9574464 0.46552536 44 26
5.5611038 1.8970635 0.40638533 39 25
4.8275962 0.95988655 0.2279094 42 24
5.5665383 1.896757 0.13572511 38 23
4.8280687 0.95910442 0 44 22
5.573966 1.8982058 -0.1358992 39 21
2.6819713 0.53328991 -0.1258917 3 20
4.962945 1.6888669 -0.36049333 10 19
2.5815899 0.51248354 -0.23315172 6 18
4.7452049 1.614651 -0.56975436 1 17
2.5822508 0.51168364 -0.36090168 6 16
2.7772903 0.94501406 -0.50539541 35 15
2.5530152 0.50179374 -0.73460776 3 13
4.7105312 1.6064658 -1.131878 8 14
2.0561421 0.40237668 -0.71261591 23 12
2.2406623 0.76835591 -0.94388682 6 11
2.2436886 0.43165886 -1.1948009 12 9
nan nan nan 0 10
1.9993212 0.38134968 -1.2091427 14 8
1.7241793 0.60051471 -1.2120693 17 7
1.6000466 0.30058914 -1.2132138 20 6
1.380844 0.4864195 -1.2098671 20 5
1.2908742 0.23733157 -1.2213576 19 4
1.1212555 0.39994967 -1.226297 24 3
0.27719277 0.051962193 -0.29193643 6 2
nan nan nan 0 1
nan nan nan 0 0
5.535779 1.8808064 1.5507113 37 31
4.7939205 0.93499309 1.1222332 42 30
5.5059409 1.8653218 1.1148437 37 29
4.7855458 0.9350791 0.75723594 42 28
5.5227599 1.8656815 0.70736718 39 27
4.7946348 0.93683839 0.46362233 45 26
5.5366478 1.868233 0.40412953 39 25
4.8111434 0.94005013 0.22697774 44 24
5.5396447 1.867098 0.13491274 38 23
4.8115916 0.93926567 0 45 22
5.5474005 1.8675593 -0.13508682 38 21
2.7082381 0.52916253 -0.12705629 3 20
4.9685178 1.6723996 -0.36049333 9 19
2.568697 0.5006234 -0.23181048 9 18
4.7858377 1.6108081 -0.57401901 6 17
2.571866 0.50031286 -0.35918146 6 16
2.7827425 0.93658668 -0.5058248 35 15
2.5759079 0.49740791 -0.74079823 3 13
4.7091842 1.5876741 -1.1302037 8 14
2.0412204 0.39245138 -0.70689535 25 12
2.2213895 0.75306469 -0.93451357 6 11
2.2451816 0.42382431 -1.1948009 12 9
nan nan nan 0 10
2.0006402 0.37436843 -1.2091427 14 8
1.7261611 0.59479386 -1.2120693 17 7
1.5971727 0.29428738 -1.2101845 20 6
1.3879354 0.48349032 -1.2147131 19 5
1.2934738 0.23314103 -1.2230852 19 4
1.1242602 0.39660791 -1.2281165 24 3
0.28214711 0.051822446 -0.29766065 5 2
nan nan nan 0 1
nan nan nan 0 0
5.5102582 1.8506912 1.5416881 37 31
4.7828007 0.91551268 1.1188512 42 30
5.4891448 1.8382858 1.1101078 38 29
4.7669463 0.91419178 0.75375885 44 28
5.5009971 1.8369483 0.70373183 39 27
4.7783213 0.91635537 0.4617193 45 26
5.51475 1.8394139 0.40204731 39 25
4.7947731 0.91949654 0.22604607 44 24
5.5132565 1.8357136 0.13410035 38 23
4.7927408 0.91824055 0 44 22
5.5230613 1.8379121 -0.13433246 39 21
2.7101595 0.51923281 -0.12705629 4 20
4.9530306 1.6479501 -0.35893947 10 19
2.5851049 0.49444827 -0.23315172 8 18
nan nan nan 0 17
2.5808945 0.49271914 -0.36021358 8 16
2.7908294 0.92793918 -0.50668365 35 15
nan nan nan 0 13
4.7586155 1.5858872 -1.140808 2 14
2.0310338 0.38279215 -0.70280921 29 12
2.2285285 0.74639487 -0.93638825 3 11
2.2466474 0.4159846 -1.1948009 12 9
nan nan nan 0 10
2.0019989 0.36703321 -1.2091427 14 8
1.7244121 0.58712262 -1.2092669 16 7
1.6041142 0.28948197 -1.2147284 20 6
1.3842894 0.47652602 -1.2098671 20 5
1.2907592 0.22777788 -1.2196301 19 4
1.1208539 0.39077863 -1.2226583 25 3
0.29188129 0.052460223 -0.30910915 5 2
nan nan nan 0 1
nan nan nan 0 0
5.4849124 1.8198195 1.5326648 38 31
4.7621837 0.89349633 1.1132147 41 30
5.4678836 1.8088909 1.1044247 38 29
4.750844 0.89307237 0.75066811 45 28
5.4770603 1.8066549 0.69979364 38 27
4.7571869 0.89424932 0.45934054 44 26
5.488297 1.8082488 0.399618 39 25
4.7809296 0.89869499 0.22523086 45 24
5.4982662 1.8094169 0.13357811 39 23
4.7788734 0.89744598 0 45 22
5.5012722 1.808279 -0.13363613 39 21
4.4817729 0.84098172 -0.2110229 1 20
4.9424539 1.6243265 -0.35773093 14 19
2.6040339 0.48816738 -0.2347165 4 18
5.214829 1.7139778 -0.62434161 9 17
2.5826831 0.48325637 -0.36021358 6 16
2.8080859 0.92281693 -0.50926 35 15
3.9596834 0.73403519 -1.1424938 1 13
nan nan nan 0 14
2.0253863 0.37441945 -0.70035756 27 12
2.2531142 0.74591917 -0.9457615 4 11
2.2525027 0.40853092 -1.1971459 12 9
nan nan nan 0 10
2.0032678 0.36004266 -1.2091427 14 8
1.7303731 0.58242661 -1.2120693 16 7
1.603156 0.28353754 -1.2132138 20 6
1.3877494 0.47230941 -1.2114825 20 5
1.2915463 0.22327091 -1.2196301 19 4
1.12545 0.38798976 -1.226297 24 3
0.29525858 0.05191939 -0.31292531 5 2
nan nan nan 0 1
nan nan nan 0 0
5.4636927 1.7916188 1.5249306 37 31
4.7437129 0.87291068 1.1081418 40 30
5.4485035 1.781391 1.099215 39 29
4.739357 0.87380302 0.74834996 45 28
5.4526653 1.7775131 0.69585538 39 27
4.7429943 0.87531537 0.4576754 43 26
5.4661226 1.779802 0.39753577 39 25
4.7668447 0.87883925 0.22441566 44 24
5.4736557 1.7801516 0.13282377 39 23
4.7647648 0.87759709 0 43 22
5.4858489 1.7830639 -0.13311389 39 21
nan nan nan 0 20
4.9480939 1.6070642 -0.35773093 21 19
2.5958419 0.47773486 -0.23382235 6 18
4.9751377 1.6158555 -0.59477359 10 17
2.6013224 0.47780642 -0.3626219 4 16
2.8042648 0.91072112 -0.50797182 35 15
4.0189819 0.73049331 -1.1590019 8 13
nan nan nan 0 14
2.0290062 0.36776608 -0.7011748 23 12
nan nan nan 0 11
2.2538455 0.40105912 -1.1971459 12 9
nan nan nan 0 10
2.0044508 0.35339764 -1.2091427 14 8
1.7304322 0.57572627 -1.210668 16 7
