# .PCD v0.7 - Point Cloud Data file format
VERSION 0.7
FIELDS x y z intensity ring
SIZE 4 4 4 4 2
TYPE F F F F U
COUNT 1 1 1 1 1
WIDTH 1480
HEIGHT 1
VIEWPOINT 0 0 0 1 0 0 0
POINTS 1480
DATA ascii
1.6066589 1.5710222 -0.1531406 8 19
nan nan nan 0 18
nan nan nan 0 17
1.5581492 1.1667132 -0.26560163 3 16
nan nan nan 0 15
1.3086582 0.9771927 -0.45741025 16 13
1.442452 1.4120201 -0.45431396 9 14
1.2783688 0.95259678 -0.53936523 10 12
1.1374402 1.1176537 -0.6308201 3 11
1.314625 0.97326022 -0.85007918 3 9
nan nan nan 0 10
1.2745866 0.94034123 -0.93627739 5 8
1.1370329 1.1287498 -1.0607358 2 7
1.3066695 0.95774513 -1.2071552 15 6
1.0526181 1.0528885 -1.2308662 4 5
nan nan nan 0 4
nan nan nan 0 3
nan nan nan 0 2
nan nan nan 0 1
nan nan nan 0 0
4.9426107 4.8349643 1.8355885 3 31
5.6828289 4.2247696 1.6306481 5 30
4.9214034 4.8058376 1.3203841 8 29
5.8126187 4.3243232 1.1277406 3 28
4.9436288 4.8191671 0.83854061 9 27
nan nan nan 0 26
4.9412975 4.8135376 0.47752875 8 25
nan nan nan 0 24
4.9624829 4.830822 0.1599804 6 23
1.7543223 1.3065691 0 2 22
2.7273583 2.6516063 -0.087504692 4 21
nan nan nan 0 20
1.6029242 1.5569873 -0.15227735 7 19
nan nan nan 0 18
nan nan nan 0 17
1.5801131 1.1745422 -0.26869801 3 16
nan nan nan 0 15
1.3157568 0.97570562 -0.45878595 17 13
1.43341 1.3933704 -0.44984895 8 14
1.2777183 0.94554693 -0.53773081 7 12
1.1512716 1.1234041 -0.63644409 3 11
1.3197954 0.96997035 -0.85125166 3 9
1.1445483 1.1191088 -0.73550516 2 10
1.2657648 0.92705578 -0.92722499 20 8
1.1481279 1.1322547 -1.067742 3 7
1.3132249 0.9555136 -1.2101845 16 6
1.0522338 1.0451658 -1.2260202 4 5
nan nan nan 0 4
nan nan nan 0 3
nan nan nan 0 2
nan nan nan 0 1
nan nan nan 0 0
4.9230857 4.7823238 1.8220536 8 31
5.6975412 4.2049069 1.6306481 5 30
4.9434342 4.7937579 1.321805 25 29
5.8415895 4.3142743 1.1304451 4 28
4.9461617 4.7880678 0.83611703 15 27
6.075819 4.4871378 0.7186265 4 26
4.9294004 4.7685056 0.47475243 12 25
6.2776313 4.6360822 0.36230257 4 24
4.9729686 4.8056507 0.15974829 20 23
1.724673 1.2752053 0 6 22
2.7401915 2.6455438 -0.087620743 8 21
1.5926212 1.1769181 -0.09072122 5 20
nan nan nan 0 19
1.5784262 1.165609 -0.17301959 4 18
nan nan nan 0 17
1.5582799 1.1499348 -0.26422545 6 16
nan nan nan 0 15
1.3173864 0.96945471 -0.45809808 18 13
1.2841606 1.2392292 -0.40073395 3 14
nan nan nan 0 12
1.1537192 1.1175617 -0.63550675 3 11
1.3053172 0.95236999 -0.83952641 7 9
1.1502633 1.116485 -0.73656803 3 10
nan nan nan 0 8
1.1522701 1.128039 -1.067742 3 7
1.3215613 0.95417917 -1.2147284 22 6
1.0560573 1.0413021 -1.2260202 4 5
nan nan nan 0 4
nan nan nan 0 3
nan nan nan 0 2
nan nan nan 0 1
nan nan nan 0 0
4.945796 4.76928 1.8239871 22 31
5.7247071 4.192627 1.63403 5 30
4.9097028 4.7262187 1.3080707 83 29
5.7856274 4.240294 1.1165366 2 28
4.9296927 4.7372255 0.83036119 82 27
6.0299845 4.4192524 0.71125233 3 26
4.9504409 4.7538629 0.47509947 75 25
6.1273613 4.4905663 0.35263652 2 24
4.9284205 4.7294035 0.15777536 82 23
1.7313527 1.2703524 0 8 22
2.7390497 2.6250997 -0.087272584 11 21
1.5725371 1.1536527 -0.089323714 6 20
nan nan nan 0 19
1.5545466 1.1392424 -0.16989005 4 18
nan nan nan 0 17
1.5544863 1.1383728 -0.26284927 6 16
nan nan nan 0 15
1.3207623 0.96485025 -0.45809808 20 13
1.2693628 1.2159437 -0.39459458 6 14
nan nan nan 0 12
1.1576132 1.1135278 -0.63550675 3 11
1.299847 0.94111836 -0.83366382 7 9
1.1606603 1.1187549 -0.74081951 3 10
nan nan nan 0 8
1.1576825 1.1254556 -1.0691432 3 7
1.3248839 0.94956023 -1.2147284 22 6
nan nan nan 0 5
nan nan nan 0 4
nan nan nan 0 3
nan nan nan 0 2
nan nan nan 0 1
nan nan nan 0 0
4.9170694 4.7085338 1.8072296 66 31
5.7353663 4.169755 1.6329027 5 30
4.9474564 4.7294149 1.3137538 75 29
5.7844119 4.2084527 1.1134459 2 28
4.9587617 4.731986 0.83248174 76 27
5.9950528 4.3615894 0.7053054 2 26
4.9652004 4.7348313 0.47492597 74 25
6.0117102 4.373693 0.34506673 1 24
4.9738393 4.739769 0.15870379 72 23
nan nan nan 0 22
2.759052 2.6258678 -0.087620743 1 21
1.5603919 1.1364135 -0.088392049 6 20
2.1466174 2.0422382 -0.20269118 7 19
1.5383617 1.1191839 -0.16765465 7 18
nan nan nan 0 17
1.5404093 1.1198561 -0.25975287 6 16
nan nan nan 0 15
1.3221744 0.95882571 -0.45741025 22 13
1.2683096 1.2064593 -0.3929202 6 14
1.3222009 0.95677328 -0.55244076 3 12
1.1681863 1.1158943 -0.639256 3 11
1.2995344 0.93400335 -0.83131874 6 9
1.1678225 1.1178313 -0.74294525 3 10
nan nan nan 0 8
1.1511949 1.1113238 -1.0593345 3 7
1.3265681 0.94377935 -1.2132138 22 6
nan nan nan 0 5
nan nan nan 0 4
nan nan nan 0 3
nan nan nan 0 2
nan nan nan 0 1
nan nan nan 0 0
4.9474745 4.7046628 1.8123858 72 31
5.7617393 4.158258 1.6362846 5 30
4.9657145 4.7138066 1.3142275 71 29
5.8010693 4.1896811 1.1138322 3 28
4.9770498 4.7163548 0.83278471 76 27
6.0344563 4.3581138 0.70815992 3 26
4.9889393 4.7243323 0.47562006 77 25
6.0613642 4.3775272 0.34704649 2 24
4.9903541 4.7223778 0.15870379 73 23
6.068687 4.3812017 0 1 22
2.7300792 2.5801454 -0.086402178 2 21
1.5521964 1.122195 -0.087693296 6 20
2.1519217 2.0330184 -0.20251852 6 19
1.5119544 1.0919751 -0.16430154 7 18
nan nan nan 0 17
1.5201933 1.0971115 -0.25562435 8 16
nan nan nan 0 15
1.3216081 0.95140159 -0.45603457 23 13
1.2725133 1.2020247 -0.3929202 6 14
1.3312951 0.95627928 -0.55489242 3 12
1.1687165 1.1086143 -0.63738137 3 11
nan nan nan 0 9
1.1635295 1.10594 -0.7376309 3 10
nan nan nan 0 8
1.1640195 1.1159108 -1.067742 3 7
1.3347338 0.94257742 -1.2177576 22 6
1.0669037 1.0301862 -1.2260202 4 5
nan nan nan 0 4
nan nan nan 0 3
nan nan nan 0 2
nan nan nan 0 1
nan nan nan 0 0
4.9708886 4.6940007 1.8149639 71 31
5.7841411 4.1437922 1.6385392 6 30
4.9857092 4.6998129 1.3151746 72 29
5.8256979 4.1765985 1.1157639 4 28
4.9934821 4.6989532 0.83278471 76 27
6.0759311 4.3558655 0.71125233 4 26
5.0090322 4.7103076 0.47596711 75 25
6.2227702 4.4610615 0.35543153 3 24
5.0086284 4.7066417 0.15876181 74 23
6.1286578 4.3920155 0 2 22
2.434906 2.2847722 -0.07671167 6 21
1.5561041 1.1167699 -0.087693296 6 20
2.1626401 2.0289102 -0.20286383 6 19
1.499554 1.0751034 -0.16251324 5 18
nan nan nan 0 17
1.4998378 1.074522 -0.25149584 8 16
1.7584811 1.6502358 -0.41436413 7 15
1.3268785 0.94817716 -0.45672244 25 13
1.2802514 1.200915 -0.39403647 6 14
1.3288482 0.94751936 -0.55244076 3 12
1.1776327 1.1093036 -0.64019334 3 11
nan nan nan 0 9
1.169026 1.1034276 -0.73869377 3 10
1.3589108 0.95875794 -0.98412579 2 8
1.1664106 1.1104107 -1.0663407 3 7
1.3363854 0.93677342 -1.2162429 22 6
1.067744 1.0238091 -1.2227896 3 5
nan nan nan 0 4
nan nan nan 0 3
nan nan nan 0 2
nan nan nan 0 1
nan nan nan 0 0
4.9872437 4.676621 1.8149639 72 31
5.7945995 4.1207542 1.637412 6 30
5.0020843 4.6823812 1.3151746 71 29
5.9247808 4.216361 1.1319904 6 28
5.0134797 4.6848841 0.83339059 76 27
6.1539698 4.3793426 0.7186265 5 26
5.0272655 4.6944971 0.47614059 77 25
6.421464 4.5695739 0.3659128 6 24
5.0250273 4.6891298 0.15876181 74 23
6.290657 4.4748921 0 4 22
2.4264212 2.2609127 -0.076189429 5 21
1.5416725 1.0983115 -0.086645171 6 20
nan nan nan 0 19
1.4829936 1.055449 -0.16027784 5 18
2.1572752 2.0097377 -0.33349395 11 17
1.4813629 1.0535207 -0.24771136 4 16
1.7138298 1.5970219 -0.40234116 7 15
1.3282179 0.94215184 -0.45603457 28 13
1.2773124 1.1897845 -0.39180395 6 14
1.3302172 0.94151282 -0.55162352 3 12
1.1814978 1.1051862 -0.64019334 3 11
1.2911617 0.90767294 -0.81959355 7 9
1.171222 1.0977902 -0.7376309 3 10
1.3657578 0.95645803 -0.98671222 2 8
1.1717815 1.1077573 -1.067742 3 7
1.3412817 0.9332363 -1.2177576 21 6
nan nan nan 0 5
nan nan nan 0 4
nan nan nan 0 3
nan nan nan 0 2
nan nan nan 0 1
nan nan nan 0 0
5.007072 4.6624765 1.8162529 71 31
5.8208895 4.1089258 1.6407938 6 30
5.0183983 4.6648917 1.3151746 73 29
5.8910346 4.1614661 1.1227182 3 28
5.0316205 4.6690435 0.8336935 76 27
6.0817957 4.2961187 0.70839781 3 26
5.0454502 4.6786165 0.47631413 75 25
nan nan nan 0 24
5.0468626 4.6766596 0.1589359 74 23
6.1550856 4.34624 0 3 22
2.3903008 2.211658 -0.074796781 2 21
1.5495782 1.0958024 -0.086878091 6 20
1.6206284 1.4984262 -0.15037821 7 19
1.4764916 1.0430948 -0.15916014 3 18
2.1752088 2.0123246 -0.33519983 18 17
1.4587107 1.0298105 -0.24323879 4 16
1.6796643 1.5541883 -0.39289448 7 15
1.3275642 0.93474782 -0.4546589 24 13
1.288604 1.1919479 -0.39403647 6 14
1.3218848 0.92873079 -0.54672021 3 12
1.1870439 1.1026351 -0.64113069 3 11
1.2961348 0.90442121 -0.82076609 14 9
1.1750469 1.0936952 -0.7376309 3 10
1.3638123 0.94802904 -0.98283261 2 8
1.1726271 1.1008209 -1.0649395 3 7
1.3428928 0.92742091 -1.2162429 21 6
nan nan nan 0 5
nan nan nan 0 4
nan nan nan 0 3
nan nan nan 0 2
nan nan nan 0 1
nan nan nan 0 0
5.0250893 4.6466107 1.8168974 72 31
5.8332019 4.0871854 1.6402302 6 30
5.0418644 4.6540093 1.3170691 72 29
5.8832741 4.1252856 1.1184683 3 28
5.0533609 4.6564984 0.8346023 77 27
6.0389495 4.235929 0.70173723 3 26
5.0617504 4.6609759 0.47631413 76 25
6.0523582 4.2437453 0.34308693 2 24
5.0649953 4.660707 0.15899393 74 23
6.0903616 4.2687907 0 2 22
nan nan nan 0 21
1.5554395 1.0918193 -0.086994544 6 20
1.6148372 1.4826272 -0.1493423 7 19
1.4575005 1.0224904 -0.15670121 3 18
2.1730812 1.9963102 -0.33377826 18 17
1.4580588 1.0221298 -0.2425507 3 16
1.6343508 1.501603 -0.3808715 7 15
1.3367349 0.93423039 -0.45672244 22 13
1.2853813 1.1810628 -0.39180395 6 14
1.3115394 0.91466963 -0.54099965 18 12
1.1906939 1.0986928 -0.64113069 3 11
nan nan nan 0 9
1.1788574 1.0895869 -0.7376309 4 10
1.361661 0.93986297 -0.978953 3 8
1.1794866 1.0995498 -1.067742 3 7
1.3459609 0.92296261 -1.2162429 20 6
nan nan nan 0 5
nan nan nan 0 4
nan nan nan 0 3
nan nan nan 0 2
nan nan nan 0 1
nan nan nan 0 0
5.0440273 4.6331911 1.8181864 72 31
5.8587222 4.0761619 1.6436121 6 30
5.0645041 4.6439028 1.3189634 72 29
5.9009767 4.1085753 1.119241 3 28
5.065115 4.636363 0.83399642 75 27
6.0598273 4.2190876 0.70245087 2 26
5.0826983 4.6492171 0.47683468 75 25
6.0848465 4.2364888 0.34413505 2 24
5.0830779 4.6446843 0.15905197 75 23
6.0470181 4.2086005 0 2 22
2.257719 2.0604353 -0.070154622 7 21
1.5571905 1.084958 -0.086878091 6 20
1.6307901 1.4873602 -0.15037821 3 19
1.436519 1.0003523 -0.15401873 6 18
2.1727023 1.9820108 -0.33264104 13 17
1.4351717 0.99868089 -0.23807815 5 16
1.5977789 1.4576634 -0.37099543 7 15
1.3419646 0.93092585 -0.45741025 33 13
1.2948896 1.181504 -0.39347833 6 14
nan nan nan 0 12
1.1930063 1.0927532 -0.64019334 3 11
nan nan nan 0 9
1.1859829 1.0885309 -0.73975664 4 10
1.3527271 0.92642188 -0.96990061 3 8
1.1772499 1.0897895 -1.062137 3 7
1.3509808 0.9191395 -1.2177576 20 6
nan nan nan 0 5
nan nan nan 0 4
nan nan nan 0 3
nan nan nan 0 2
nan nan nan 0 1
nan nan nan 0 0
5.0645432 4.6179285 1.8194755 71 31
5.8836474 4.0615764 1.6464304 6 30
5.081491 4.6253085 1.3189634 72 29
5.9566483 4.1149845 1.126968 4 28
5.0875821 4.6227756 0.83490527 76 27
6.0998259 4.2138157 0.7053054 3 26
5.097858 4.6288791 0.47666118 75 25
6.1291046 4.2340212 0.34576547 3 24
5.1029606 4.6302738 0.15916802 72 23
6.1241298 4.2290082 0 3 22
2.2745101 2.0605438 -0.070444755 7 21
1.5691907 1.0851879 -0.087343924 6 20
nan nan nan 0 19
1.4360752 0.99225473 -0.15357165 5 18
2.1851254 1.9794215 -0.33349395 14 17
1.4388224 0.99341393 -0.23807815 5 16
1.5663905 1.4189647 -0.36240759 7 15
1.345206 0.92623585 -0.45741025 34 13
1.2901921 1.1685576 -0.3906877 6 14
nan nan nan 0 12
1.1933893 1.0854576 -0.63831872 3 11
nan nan nan 0 9
1.1847656 1.0798033 -0.73656803 4 10
1.3417827 0.91209316 -0.95955497 8 8
1.1856122 1.0898849 -1.0663407 3 7
1.3525308 0.91330761 -1.2162429 20 6
nan nan nan 0 5
nan nan nan 0 4
nan nan nan 0 3
nan nan nan 0 2
1.539798 1.4541612 -2.7344401 2 1
nan nan nan 0 0
5.0824223 4.6018443 1.8201201 71 31
5.9018078 4.043766 1.6475577 6 30
5.0994258 4.6091895 1.3194369 62 29
6.0259891 4.1318631 1.1373992 5 28
5.1276317 4.6266084 0.83884346 60 27
6.1719804 4.2318854 0.71196592 5 26
5.1380563 4.6327753 0.47891691 64 25
6.4837561 4.4455152 0.36498114 6 24
5.135798 4.6274958 0.15969025 64 23
6.2131062 4.2584648 0 5 22
2.2724051 2.0442269 -0.070154622 8 21
1.5729691 1.0797037 -0.087343924 6 20
nan nan nan 0 19
1.4436405 0.99004728 -0.15401873 6 18
2.1994026 1.9784324 -0.3346312 15 17
1.4463701 0.99117982 -0.23876624 4 16
1.5237776 1.3706082 -0.35124338 7 15
1.3504173 0.92288798 -0.45809808 36 13
1.2942635 1.1640469 -0.3906877 6 14
nan nan nan 0 12
1.1937362 1.078173 -0.63644409 3 11
nan nan nan 0 9
1.1818266 1.0695765 -0.73231655 5 10
1.3449582 0.90740389 -0.95955497 3 8
1.1833025 1.0801458 -1.0607358 3 7
1.3557107 0.90858078 -1.2162429 20 6
nan nan nan 0 5
nan nan nan 0 4
nan nan nan 0 3
nan nan nan 0 2
1.5492784 1.4529294 -2.7423947 2 1
nan nan nan 0 0
5.1002502 4.585691 1.8207645 54 31
5.9259596 4.0299854 1.650376 6 30
5.1629658 4.6340094 1.3317505 7 29
6.0056543 4.0871897 1.1308314 4 28
5.1622267 4.6252475 0.84187287 7 27
6.1242523 4.1693978 0.70482963 4 26
5.1969185 4.65309 0.48290792 9 25
nan nan nan 0 24
5.1835737 4.6378822 0.16067672 9 23
6.1969213 4.2156677 0 5 22
2.2791717 2.03668 -0.070154622 7 21
1.5767285 1.0742065 -0.087343924 6 20
nan nan nan 0 19
1.4963535 1.0188271 -0.15938367 8 18
2.2174015 1.9806801 -0.33633706 15 17
1.4537469 0.98915893 -0.23945431 5 16
1.5285527 1.3652809 -0.35124338 7 15
1.3556215 0.91951501 -0.45878595 39 13
1.3071911 1.1678793 -0.39347833 6 14
nan nan nan 0 12
1.20075 1.0773095 -0.63831872 3 11
1.3739291 0.92368627 -0.86063182 2 9
1.1754696 1.0563531 -0.72593933 5 10
nan nan nan 0 8
1.1947236 1.0829743 -1.067742 3 7
1.358716 0.90408009 -1.2162429 20 6
nan nan nan 0 5
nan nan nan 0 4
nan nan nan 0 3
nan nan nan 0 2
1.551874 1.4457152 -2.7384174 2 1
nan nan nan 0 0
5.174861 4.6218719 1.8420336 6 31
5.9433293 4.0130367 1.6515032 6 30
5.2222638 4.6560841 1.3431168 2 29
5.9946113 4.0506649 1.1261953 3 28
5.2238646 4.6493659 0.84944642 4 27
6.0810194 4.1089993 0.69816905 3 26
5.2737975 4.6905479 0.48863411 3 25
6.1020117 4.123167 0.34180588 3 24
5.2530842 4.6688371 0.16235951 4 23
6.0989733 4.119565 0 3 22
2.286267 2.0287118 -0.070154622 6 21
1.5844222 1.0717657 -0.087576836 6 20
nan nan nan 0 19
1.535002 1.0372559 -0.16318385 11 18
nan nan nan 0 17
1.5003215 1.0131265 -0.24667923 5 16
1.5073076 1.3372899 -0.34523189 4 15
1.3606586 0.91635442 -0.45947376 40 13
1.3130804 1.1649292 -0.39403647 6 14
1.3624789 0.91554284 -0.5557096 2 12
1.1975912 1.0669336 -0.63456941 3 11
1.3844986 0.92377603 -0.86532193 3 9
1.1654817 1.0403715 -0.71743643 22 10
nan nan nan 0 8
1.1890914 1.0706782 -1.0593345 3 7
1.3651867 0.90151876 -1.2192723 20 6
1.1140814 1.0104885 -1.2437887 2 5
nan nan nan 0 4
nan nan nan 0 3
nan nan nan 0 2
1.5569111 1.4402891 -2.7384174 2 1
nan nan nan 0 0
5.1783171 4.5925565 1.837522 1 31
5.9552774 3.9909108 1.6509396 6 30
5.2329731 4.6329432 1.341696 1 29
6.0271802 4.0420909 1.1296724 3 28
5.2363443 4.6278148 0.84884053 3 27
6.0911913 4.0849762 0.69769335 3 26
5.2639756 4.6489882 0.48620477 1 25
6.0956225 4.0879388 0.34064129 3 24
5.2420568 4.6247396 0.1614891 3 23
6.1070848 4.0940762 0 3 22
2.3064518 2.0322957 -0.070560813 5 21
1.5841894 1.0631728 -0.087343924 6 20
nan nan nan 0 19
1.5613793 1.0471205 -0.16564278 11 18
nan nan nan 0 17
1.5367873 1.0299003 -0.25218391 4 16
nan nan nan 0 15
1.3640081 0.91136116 -0.45947376 42 13
1.3244438 1.1667924 -0.39626896 5 14
1.3697608 0.91315854 -0.55734408 3 12
1.2014937 1.062537 -0.63456941 4 11
1.3895575 0.92015409 -0.86649448 3 9
nan nan nan 0 10
1.3972948 0.9214769 -0.99059182 2 8
1.1914662 1.0649304 -1.0579333 4 7
1.3651507 0.89433432 -1.2162429 20 6
1.1191933 1.007678 -1.245404 2 5
nan nan nan 0 4
nan nan nan 0 3
nan nan nan 0 2
1.5599512 1.4325204 -2.7344401 2 1
nan nan nan 0 0
5.2349887 4.608675 1.8517014 3 31
5.9779797 3.9744487 1.6531942 6 30
5.2591348 4.6218381 1.344064 2 29
6.0872054 4.0500603 1.1381719 5 28
5.2849736 4.6364241 0.85399055 2 27
6.1061225 4.0626235 0.69769335 4 26
5.2622323 4.6132169 0.48446959 2 25
6.13344 4.0807796 0.34192231 3 24
5.2732029 4.6195941 0.16195332 3 23
6.1199679 4.070281 0 3 22
2.3138852 2.0238283 -0.070560813 5 21
1.594131 1.0617824 -0.087693296 6 20
1.3991988 1.2225088 -0.1262072 7 19
1.5714308 1.0455211 -0.16631341 14 18
nan nan nan 0 17
1.5549974 1.0338404 -0.25459221 4 16
1.4186848 1.2404218 -0.32247406 7 15
1.3671809 0.90659428 -0.45947376 43 13
1.3433686 1.1747843 -0.40073395 5 14
1.3788567 0.91227454 -0.55979574 3 12
1.1982393 1.0522084 -0.6308201 4 11
1.3892266 0.91263562 -0.86414939 3 9
nan nan nan 0 10
1.4058785 0.92010087 -0.99447149 2 8
1.1998146 1.0648961 -1.062137 4 7
1.3682642 0.88956356 -1.2162429 20 6
1.1141838 0.99611783 -1.2357121 2 5
nan nan nan 0 4
nan nan nan 0 3
nan nan nan 0 2
1.5627064 1.4250213 -2.7304626 3 1
nan nan nan 0 0
5.2564979 4.5951447 1.8536351 3 31
6.0080838 3.964283 1.6577035 6 30
5.2807832 4.6082964 1.3454847 2 29
6.2105684 4.1008873 1.1586483 7 28
5.2674556 4.5885959 0.84853762 3 27
6.1161122 4.0385427 0.69721758 6 26
5.2783036 4.59482 0.48446959 3 25
6.1476469 4.0593448 0.34192231 5 24
5.2968364 4.6077228 0.16218542 2 23
6.1195297 4.039258 0 5 22
2.3247068 2.0190196 -0.070676863 5 21
1.593658 1.053462 -0.087460376 6 20
1.3771138 1.1947007 -0.1237901 7 19
1.5750707 1.0400295 -0.16631341 13 18
nan nan nan 0 17
1.5710076 1.0365741 -0.2566565 6 16
1.4155757 1.2289939 -0.32075649 9 15
1.3723469 0.903135 -0.46016163 42 13
1.3603257 1.1812904 -0.40464085 7 14
1.3879631 0.91133803 -0.5622474 3 12
1.1844612 1.0327593 -0.62144685 8 11
1.394255 0.90898395 -0.86532193 3 9
nan nan nan 0 10
1.3965098 0.90704846 -0.98541903 3 8
1.1461421 1.0099517 -1.0102913 14 7
1.3696882 0.88370633 -1.2147284 20 6
1.1233521 0.99730086 -1.2421734 2 5
nan nan nan 0 4
nan nan nan 0 3
nan nan nan 0 2
1.5654283 1.4175205 -2.7264853 3 1
1.6742048 1.0512669 -2.7327158 2 0
5.2962117 4.5973611 1.8620137 2 31
6.0259609 3.9459538 1.6588306 6 30
5.3580379 4.6429048 1.3611134 5 29
6.2641053 4.1048937 1.1659887 7 28
5.3397288 4.6189051 0.85762584 5 27
nan nan nan 0 26
5.3678727 4.6399989 0.4912369 5 25
6.0740342 3.9803982 0.33703107 9 24
5.3317966 4.6055493 0.16276568 4 23
6.0833921 3.9850094 0 9 22
2.3313892 2.0112996 -0.070676863 5 21
1.5952358 1.0465252 -0.087343924 6 20
1.3605142 1.171953 -0.12189095 7 19
1.5889308 1.0416143 -0.1674311 12 18
nan nan nan 0 17
1.5599257 1.0218776 -0.25424817 6 16
1.4105409 1.2159921 -0.31860951 10 15
1.3754909 0.89833909 -0.46016163 46 13
1.3752937 1.1863385 -0.40798959 8 14
1.3950982 0.90906173 -0.56388181 2 12
1.1791327 1.021225 -0.61676025 22 11
1.3991171 0.90555245 -0.86649448 3 9
nan nan nan 0 10
1.4157085 0.9128238 -0.99705786 3 8
nan nan nan 0 7
1.3742876 0.88022953 -1.2162429 20 6
1.1295103 0.99609989 -1.245404 3 5
nan nan nan 0 4
nan nan nan 0 3
nan nan nan 0 2
1.5622468 1.4052174 -2.7125645 3 1
1.6764516 1.044945 -2.7306781 2 0
5.3333735 4.5987091 1.869748 4 31
6.0492249 3.932584 1.661649 6 30
5.3882842 4.6379275 1.3649021 5 29
5.9070129 3.8431067 1.096833 14 28
5.4284005 4.6642709 0.8694405 5 27
5.9243822 3.8543851 0.6722405 18 26
5.379446 4.6189222 0.49088985 6 25
6.1186061 3.9806526 0.33877796 10 24
5.4399562 4.667623 0.165609 6 23
6.1259203 3.983887 0 10 22
2.336499 2.0015218 -0.070618838 5 21
1.6028857 1.0439504 -0.087576836 6 20
1.3625003 1.1658108 -0.12171829 7 19
1.5925572 1.0360614 -0.1674311 13 18
nan nan nan 0 17
1.5614054 1.0150789 -0.25390413 11 16
1.412697 1.2097036 -0.31818014 9 15
1.3845179 0.89768726 -0.46222511 46 13
nan nan nan 0 14
1.3961196 0.90314996 -0.56306463 3 12
1.1949731 1.0277013 -0.62332147 8 11
1.4004099 0.89947248 -0.86532193 3 9
nan nan nan 0 10
1.4152786 0.90557534 -0.99447149 3 8
nan nan nan 0 7
1.3739914 0.87329859 -1.2132138 20 6
1.1315473 0.99089122 -1.2437887 3 5
nan nan nan 0 4
nan nan nan 0 3
nan nan nan 0 2
1.5660143 1.3987446 -2.7105758 3 1
1.6776234 1.0375669 -2.7266026 2 0
5.3703728 4.5964141 1.8768376 4 31
nan nan nan 0 30
5.3436766 4.565506 1.3492736 3 29
5.871242 3.7893014 1.0875608 20 28
5.3378682 4.5525165 0.85217291 2 27
5.8966408 3.8056679 0.66748297 20 26
5.3621836 4.5700436 0.48776647 2 25
5.9002032 3.8079579 0.32585105 23 24
5.3543086 4.5601091 0.16247556 3 23
6.1762009 3.9844365 0 16 22
2.3514304 1.9994268 -0.070850946 5 21
1.6067011 1.0380687 -0.087576836 6 20
1.3610679 1.1559579 -0.12120035 7 19
1.6005312 1.0329129 -0.16787818 12 18
nan nan nan 0 17
1.542207 0.99461418 -0.25011966 9 16
1.3965025 1.186945 -0.3134568 7 15
1.3877988 0.89260679 -0.46222511 47 13
nan nan nan 0 14
1.4053911 0.90184677 -0.56551629 2 12
1.2110535 1.0338681 -0.62988275 4 11
1.4074249 0.89670122 -0.86766696 3 9
1.2266836 1.0494251 -0.74188238 3 10
1.4131639 0.8969503 -0.99059182 3 8
nan nan nan 0 7
1.377183 0.86825681 -1.2132138 20 6
1.1351714 0.98673725 -1.2437887 3 5
nan nan nan 0 4
nan nan nan 0 3
nan nan nan 0 2
1.5699984 1.3919888 -2.7085872 3 1
1.6851217 1.0336773 -2.7327158 2 0
5.3385439 4.5369534 1.8600801 3 31
5.8761244 3.7605963 1.6064111 19 30
5.3577094 4.5452361 1.3487999 3 29
5.8573885 3.7514744 1.0825382 32 28
5.3688722 4.5466919 0.85459644 2 27
5.8763518 3.7635968 0.66367692 24 26
5.3761997 4.5496864 0.48759294 3 25
5.8882189 3.7711847 0.32445353 18 24
5.3682861 4.5397768 0.16241753 3 23
6.1290002 3.9237816 0 9 22
2.3583953 1.9912066 -0.070850946 5 21
1.6103151 1.0324539 -0.087576836 6 20
1.3765208 1.1608624 -0.12223624 8 19
1.6167173 1.0353622 -0.16921942 17 18
nan nan nan 0 17
1.5352333 0.98256332 -0.24839944 10 16
nan nan nan 0 15
1.3909061 0.88775706 -0.46222511 47 13
1.2911299 1.0897534 -0.37896708 8 14
1.4105252 0.89820176 -0.56633347 3 12
1.2234824 1.0371418 -0.63456941 3 11
1.4124146 0.89296013 -0.8688395 3 9
1.2389503 1.0524756 -0.74719673 4 10
1.4235345 0.89656228 -0.99576461 3 8
nan nan nan 0 7
1.381893 0.86449635 -1.2147284 20 6
1.1357249 0.98026967 -1.240558 3 5
nan nan nan 0 4
nan nan nan 0 3
nan nan nan 0 2
1.5805252 1.3915142 -2.7185307 3 1
1.6812903 1.0232824 -2.7204888 2 0
5.3598843 4.5229659 1.8620137 2 31
5.8809896 3.7348416 1.6041564 28 30
5.3848033 4.5359993 1.3516414 3 29
5.8662782 3.7283571 1.0817657 37 28
5.3866096 4.5295205 0.85489935 3 27
5.8663449 3.7283852 0.66106027 34 26
5.3958664 4.5341024 0.48794001 3 25
5.8676176 3.7291863 0.3225902 21 24
5.3974943 4.5322652 0.16282372 3 23
6.1088905 3.8809242 0 34 22
nan nan nan 0 21
1.6075835 1.0228121 -0.087227464 6 20
1.3767446 1.152843 -0.12189095 8 19
1.6266309 1.0337119 -0.16989005 8 18
nan nan nan 0 17
1.5219184 0.96659839 -0.2456471 13 16
nan nan nan 0 15
1.4000933 0.88674623 -0.46428862 46 13
1.2650794 1.0601511 -0.37003705 8 14
1.4196491 0.89705074 -0.56878519 3 12
1.2377195 1.0418367 -0.64019334 4 11
1.4192671 0.8903659 -0.87118453 3 9
1.2443439 1.0496062 -0.7482596 5 10
1.4266554 0.89158773 -0.99576461 3 8
1.2423224 1.057012 -1.0803531 3 7
1.3865938 0.86071372 -1.2162429 20 6
1.1405861 0.97754389 -1.2421734 3 5
nan nan nan 0 4
nan nan nan 0 3
nan nan nan 0 2
1.5853729 1.3859887 -2.7185307 3 1
1.6786476 1.0136737 -2.7102997 2 0
5.3885965 4.5150928 1.8665253 3 31
5.9125409 3.7259712 1.6092293 26 30
5.4231925 4.5360823 1.3573246 5 29
5.9252281 3.7368295 1.0902652 29 28
5.4176221 4.5234194 0.85732287 4 27
5.8793235 3.7078848 0.66106027 34 26
5.4288898 4.5296259 0.48950168 4 25
5.8721485 3.7033558 0.32212439 29 24
5.434392 4.5310102 0.16346201 4 23
6.0800948 3.8329256 0 66 22
nan nan nan 0 21
1.6111439 1.0171943 -0.087227464 6 20
1.3711826 1.1400446 -0.12102769 8 19
1.6302292 1.0280277 -0.16989005 7 18
1.230221 1.0225086 -0.1791144 13 17
1.5210901 0.95864463 -0.24495901 9 16
1.2367685 1.0286748 -0.27438205 9 15
1.4011434 0.88057745 -0.46360075 47 13
1.2500637 1.0401136 -0.36445582 9 14
1.424775 0.89334208 -0.56960237 3 12
1.2395726 1.0360206 -0.639256 6 11
1.418614 0.88307804 -0.8688395 3 9
1.2376058 1.036522 -0.74188238 6 10
1.4279391 0.8854776 -0.99447149 3 8
1.2396874 1.0473135 -1.0747482 3 7
1.3912851 0.8569088 -1.2177576 21 6
1.1425407 0.97231698 -1.240558 4 5
nan nan nan 0 4
nan nan nan 0 3
nan nan nan 0 2
1.5947713 1.3844258 -2.7264853 3 1
nan nan nan 0 0
5.4191751 4.5086203 1.8716815 4 31
5.9399695 3.714345 1.6131748 29 30
5.544713 4.6049876 1.3838459 6 29
5.9466133 3.7213624 1.0918106 28 28
5.5135937 4.5710292 0.87004644 6 27
5.9591002 3.7306042 0.66867232 33 26
5.515707 4.5695415 0.49592197 6 25
5.8850398 3.6828358 0.32212439 25 24
5.5213866 4.5710082 0.165609 6 23
6.0446801 3.7811997 0 34 22
nan nan nan 0 21
1.6273917 1.0195044 -0.087926209 6 20
1.3982072 1.1543365 -0.12309949 6 19
1.6399657 1.0265721 -0.17056066 6 18
1.2261299 1.0118725 -0.17797717 37 17
1.5284625 0.95621669 -0.2456471 8 16
1.2213861 1.0086393 -0.27008814 36 15
1.408291 0.87821925 -0.46497643 45 13
1.2309934 1.0172987 -0.35775831 34 14
1.4319003 0.89085406 -0.57123679 3 12
1.2394397 1.0289381 -0.63738137 9 11
1.4290546 0.88300067 -0.87352961 3 9
1.236004 1.0278466 -0.73869377 7 10
1.4399858 0.88633174 -1.0009375 3 8
1.2480875 1.0469799 -1.0789518 4 7
1.394119 0.85229039 -1.2177576 21 6
1.1443039 0.9672882 -1.2389427 4 5
nan nan nan 0 4
nan nan nan 0 3
nan nan nan 0 2
1.5970619 1.3771474 -2.7225077 3 1
1.6593451 0.9867202 -2.6675057 2 0
5.4582949 4.5106368 1.8800603 5 31
5.9708819 3.7061815 1.6182477 20 30
5.4425845 4.4896865 1.354483 4 29
6.0155802 3.7367938 1.1022419 21 28
5.4808435 4.5132666 0.86247289 3 27
5.9847732 3.7176561 0.67009962 28 26
5.4865489 4.5147629 0.49193096 4 25
5.9990635 3.7265196 0.32771438 26 24
5.4601007 4.4881968 0.16328794 4 23
5.9870844 3.7176359 0 22 22
1.8952826 1.5552986 -0.056112096 3 21
1.6245733 1.0098697 -0.087576836 6 20
nan nan nan 0 19
1.6329557 1.0142845 -0.16944297 7 18
1.2296544 1.0075864 -0.17797717 48 17
1.5381073 0.9547857 -0.24667923 8 16
1.2306055 1.0090635 -0.27137631 49 15
1.411348 0.87329805 -0.46497643 45 13
1.2288926 1.0083493 -0.35608393 46 14
1.4309769 0.88337362 -0.56960237 3 12
1.2342713 1.017005 -0.63269478 37 11
1.4302441 0.87685549 -0.87235713 3 9
1.2326143 1.0177516 -0.73444229 31 10
1.4395691 0.87882358 -0.99835104 3 8
1.2453803 1.0373057 -1.0733469 5 7
1.3921263 0.84408939 -1.2132138 20 6
1.1463821 0.96185833 -1.2373275 5 5
nan nan nan 0 4
nan nan nan 0 3
nan nan nan 0 2
1.6020986 1.3712847 -2.7225077 3 1
1.6929164 0.99824071 -2.7164133 2 0
5.446784 4.4676123 1.8703924 4 31
5.9719791 3.676615 1.6148658 24 30
5.4514089 4.4634852 1.3525887 3 29
5.9745507 3.6810515 1.0921968 24 28
5.4646931 4.4664388 0.85732287 3 27
6.0661731 3.7374477 0.67771167 29 26
5.5127153 4.5025148 0.4927986 3 25
6.0254407 3.7123623 0.32841313 31 24
5.4718623 4.4659486 0.16317187 3 23
5.9815087 3.6838741 0 23 22
1.858372 1.5135742 -0.054835498 2 21
1.6344695 1.0081183 -0.087926209 6 20
nan nan nan 0 19
1.6430266 1.0122035 -0.17011358 6 18
1.2331642 1.0032879 -0.17797717 48 17
1.5437067 0.95043749 -0.24702327 9 16
1.2341202 1.0047617 -0.27137631 49 15
1.4184877 0.87087572 -0.46635211 45 13
1.2344674 1.0053804 -0.35664207 46 14
1.4380847 0.88083577 -0.57123679 3 12
1.2378137 1.0126903 -0.63269478 48 11
1.4334484 0.8716076 -0.87235713 3 9
1.2396544 1.0163176 -0.73656803 52 10
1.448123 0.8771106 -1.0022306 3 8
1.2474003 1.0316299 -1.0719457 5 7
1.3967701 0.84024733 -1.2147284 20 6
1.1541237 0.96152341 -1.2421734 5 5
nan nan nan 0 4
nan nan nan 0 3
nan nan nan 0 2
1.6068755 1.365684 -2.7225077 3 1
1.6913861 0.9894079 -2.708262 2 0
5.4529839 4.4409423 1.8671699 3 31
5.974381 3.6494012 1.6120474 26 30
5.4707646 4.4475279 1.3535359 3 29
5.9789329 3.6550236 1.0906515 30 28
5.4821773 4.4489012 0.85762584 3 27
6.0303369 3.6864111 0.6722405 23 26
5.4916039 4.4533854 0.48950168 3 25
6.0447564 3.6952126 0.32876253 24 24
5.485477 4.4452467 0.16311385 3 23
5.9857965 3.6577606 0 25 22
1.8442261 1.4913425 -0.054255228 3 21
1.6273208 0.99590123 -0.087343924 6 20
nan nan nan 0 19
1.6486759 1.0077583 -0.17033711 7 18
1.2385885 1.0005411 -0.17826149 46 17
1.5427855 0.94246656 -0.24633518 8 16
1.235707 0.99889648 -0.27094692 48 15
1.4235735 0.86716658 -0.46703994 42 13
1.2417542 1.0041356 -0.35775831 43 14
1.4371091 0.87336206 -0.56960237 3 12
1.2395446 1.0068991 -0.63175744 46 11
1.4421588 0.8700121 -0.87587464 3 9
1.241442 1.0105529 -0.73550516 58 10
1.4585178 0.87644792 -1.0074035 3 8
1.2430048 1.0206861 -1.0649395 10 7
1.3996946 0.83536661 -1.2147284 20 6
1.1545372 0.95505077 -1.2389427 5 5
nan nan nan 0 4
nan nan nan 0 3
nan nan nan 0 2
1.6116328 1.3600668 -2.7225077 2 1
1.6935757 0.98277283 -2.7062242 2 0
5.4778409 4.4294777 1.8703924 3 31
6.0370846 3.6588058 1.6255753 29 30
5.5110803 4.4484563 1.3596926 4 29
6.0402365 3.6635766 1.0995375 28 28
5.4899459 4.4235067 0.85641408 3 27
6.0127354 3.6483293 0.66891021 30 26
5.5090575 4.4357538 0.48967522 4 25
6.0490746 3.6689122 0.32829666 22 24
5.510694 4.4339089 0.16340399 3 23
6.0199099 3.6497984 0 23 22
1.8277446 1.4679806 -0.053616934 3 21
1.6350594 0.99280214 -0.087576836 6 20
nan nan nan 0 19
1.6456177 0.99841803 -0.1696665 7 18
1.2440087 0.99776852 -0.17854579 45 17
1.5459024 0.93734533 -0.24633518 9 16
1.2411047 0.99612153 -0.27137631 47 15
1.4245329 0.86095166 -0.46635211 39 13
1.2431794 0.9984833 -0.35720018 43 14
1.4381243 0.86712313 -0.56878519 3 12
1.2464796 1.0056995 -0.63363206 50 11
1.4488279 0.86748809 -0.87821966 3 9
1.2449619 1.0062134 -0.73550516 45 10
1.459577 0.87051314 -1.0061102 3 8
1.2449577 1.01503 -1.0635382 69 7
1.402457 0.83072048 -1.2147284 21 6
1.1606417 0.95364541 -1.2421734 6 5
nan nan nan 0 4
nan nan nan 0 3
nan nan nan 0 2
1.6138152 1.3527648 -2.7185307 3 1
1.7018498 0.98003465 -2.7143755 2 0
5.5019135 4.4188547 1.873615 4 31
6.0930223 3.665117 1.637412 22 30
5.6808901 4.5545831 1.3980538 7 29
6.1200809 3.6842704 1.1119004 24 28
5.6362987 4.5107622 0.87701404 6 27
6.0190368 3.6234703 0.66819662 25 26
5.6366739 4.507843 0.49973941 6 25
6.0355301 3.6333849 0.32689917 28 24
5.6374125 4.503603 0.16671152 7 23
6.0234103 3.6246619 0 21 22
1.8250477 1.4553505 -0.053384826 3 21
1.6427962 0.98966104 -0.087809756 6 20
1.7959175 1.4320633 -0.15659361 2 19
1.6512276 0.99394947 -0.16989005 6 18
1.2436028 0.99031949 -0.17797717 41 17
1.5512882 0.93321723 -0.24667923 8 16
1.2426506 0.9902454 -0.27094692 45 15
1.4295927 0.85720718 -0.46703994 37 13
1.2447546 0.99261546 -0.35664207 41 14
1.4431713 0.86330789 -0.56960237 3 12
1.2537707 1.0040275 -0.63550675 48 11
1.4575468 0.86580032 -0.88173729 3 9
1.2484666 1.0018615 -0.73550516 36 10
1.4627577 0.86515766 -1.0061102 3 8
1.2420654 1.0054562 -1.0579333 42 7
1.4054924 0.82557464 -1.2147284 20 6
1.1611764 0.94696736 -1.2389427 6 5
nan nan nan 0 4
nan nan nan 0 3
nan nan nan 0 2
1.6175994 1.34587 -2.7165418 3 1
1.7041715 0.9730742 -2.7123375 2 0
5.5218492 4.4016719 1.8749042 5 31
6.1838226 3.6889048 1.6582671 32 30
5.6418571 4.489387 1.3843195 5 29
6.2014203 3.7023091 1.1242635 33 28
5.6139407 4.4591913 0.87095529 5 27
6.1647835 3.6804378 0.68294495 27 26
5.6414409 4.4778461 0.49869829 6 25
6.0380826 3.6048417 0.32631686 29 24
5.6530986 4.4838972 0.16671152 6 23
6.0516849 3.6115243 0 21 22
1.78729 1.4144824 -0.052108228 3 21
1.6440957 0.98264188 -0.087693296 6 20
1.7855221 1.4130723 -0.1552124 2 19
1.6334649 0.97515213 -0.16765465 26 18
1.2528901 0.99060291 -0.1788301 38 17
1.5653387 0.93385565 -0.24839944 5 16
1.2480286 0.98743272 -0.27137631 39 15
1.4305089 0.85098565 -0.46635211 34 13
1.2770113 1.0107766 -0.36501396 41 14
1.450243 0.8606711 -0.57123679 3 12
1.2554561 0.99819952 -0.63456941 46 11
1.4588063 0.85933429 -0.88056475 3 9
1.2519561 0.99749744 -0.73550516 32 10
1.4676157 0.8611266 -1.0074035 3 8
1.2487905 1.0037142 -1.0607358 40 7
1.4083656 0.82066345 -1.2147284 20 6
1.167436 0.9453156 -1.2421734 6 5
nan nan nan 0 4
nan nan nan 0 3
nan nan nan 0 2
1.6222876 1.3402154 -2.7165418 3 1
1.6987296 0.96213704 -2.6980729 2 0
5.5428605 4.3868699 1.8768376 5 31
6.2029505 3.671016 1.659958 24 30
5.5592866 4.3920236 1.3601662 2 29
6.2058039 3.6756072 1.1227182 23 28
5.5476551 4.3749986 0.85823172 2 27
6.2311339 3.6905854 0.68889189 27 26
5.5591226 4.3809094 0.49002227 2 25
6.1043563 3.6155424 0.32922834 22 24
5.5744905 4.3898821 0.16392623 2 23
6.0986805 3.6107454 0 21 22
1.7882894 1.4051425 -0.051992178 3 21
1.6432166 0.97435451 -0.087460376 6 20
1.782606 1.4006591 -0.15452181 2 19
1.6282834 0.96437871 -0.16676049 21 18
1.2641457 0.99237019 -0.17996733 25 17
1.5749863 0.93216187 -0.24943158 5 16
1.2572709 0.98764354 -0.27266449 31 15
1.4355422 0.84720594 -0.46703994 31 13
1.2613943 0.99122614 -0.3594327 36 14
1.4593513 0.85919148 -0.57368851 3 12
1.2661999 0.99956691 -0.63831872 39 11
1.4694288 0.85868222 -0.8852548 3 9
1.2554305 0.99312121 -0.73550516 33 10
1.4706126 0.8559984 -1.0074035 3 8
1.2539026 1.0006433 -1.062137 40 7
1.4112217 0.81574231 -1.2147284 20 6
1.1662744 0.93763936 -1.2373275 6 5
nan nan nan 0 4
nan nan nan 0 3
nan nan nan 0 2
1.6257858 1.3335817 -2.7145531 3 1
1.7248238 0.96893471 -2.7347538 2 0
5.5505457 4.3615227 1.8742596 3 31
6.1863165 3.6320865 1.6520669 20 30
5.5687914 4.3680444 1.3587453 3 29
6.1823878 3.6326616 1.1161503 21 28
5.5843801 4.3724432 0.86156404 3 27
6.1961303 3.6421716 0.6836586 21 26
5.5920539 4.3753152 0.49158394 3 25
6.2009263 3.6435261 0.33377025 22 24
5.5819058 4.3642359 0.16369411 2 23
6.1543689 3.6147444 0 27 22
1.7693151 1.3807274 -0.051295854 2 21
1.640146 0.96482158 -0.087111004 6 20
1.7717662 1.382139 -0.1531406 2 19
1.6422127 0.96527022 -0.16787818 6 18
1.2910825 1.0063096 -0.18337904 7 17
1.588752 0.93319154 -0.2511518 5 16
nan nan nan 0 15
1.4405664 0.84340119 -0.46772778 28 13
nan nan nan 0 14
1.4684669 0.85765862 -0.57614011 3 12
1.2658646 0.99249679 -0.63644409 31 11
1.4665334 0.85048968 -0.88173729 3 9
1.2571121 0.98733228 -0.73444229 30 10
1.4697348 0.84898192 -1.004817 3 8
1.2573879 0.99626017 -1.062137 40 7
1.4121925 0.81007123 -1.2132138 20 6
1.1649112 0.93018603 -1.2324815 7 5
nan nan nan 0 4
nan nan nan 0 3
nan nan nan 0 2
1.6278533 1.3262656 -2.7105758 3 1
1.7191653 0.95828718 -2.7204888 2 0
5.5611706 4.3401184 1.8729706 3 31
6.1709642 3.5956197 1.6447394 21 30
5.5967975 4.3601184 1.3620607 3 29
6.1538525 3.5885127 1.1088097 27 28
5.6066828 4.3599973 0.86277586 3 27
6.1679516 3.5967145 0.6791389 27 26
5.6085014 4.3582783 0.49175748 3 25
6.1719785 3.5990541 0.33155751 29 24
5.6030273 4.3493247 0.1638682 2 23
6.1814432 3.6031241 0 20 22
1.7701756 1.3714771 -0.0511798 2 21
1.6478205 0.96160281 -0.087343924 6 20
1.7645204 1.3670779 -0.15210471 2 19
1.6563345 0.96579075 -0.16899589 6 18
nan nan nan 0 17
1.6048456 0.93510461 -0.25321606 5 16
nan nan nan 0 15
1.4455819 0.83957195 -0.46841562 24 13
1.5163037 1.1755511 -0.43143085 52 14
1.4775895 0.85607255 -0.57859182 3 12
1.2731473 0.99070293 -0.63831872 9 11
1.4771551 0.84975868 -0.88642734 3 9
1.2552043 0.97875506 -0.73125368 29 10
1.4784108 0.84677148 -1.0086967 3 8
1.2608578 0.99186504 -1.062137 38 7
1.4168822 0.80587029 -1.2147284 20 6
1.1653266 0.9235341 -1.2292509 8 5
1.173336 0.66126716 -1.2541806 6 4
nan nan nan 0 3
nan nan nan 0 2
1.6291739 1.3174269 -2.7046096 3 1
nan nan nan 0 0
5.5808587 4.3226666 1.8742596 3 31
6.1714449 3.565671 1.6413574 28 30
5.7467003 4.443224 1.3947387 6 29
6.1712408 3.5684052 1.1095824 25 28
5.7345738 4.4258795 0.88004345 6 27
6.1832476 3.5753288 0.67937678 24 26
5.6994629 4.3955956 0.49835125 6 25
6.2456722 3.6113918 0.33481836 29 24
5.8675451 4.5220585 0.17117961 6 23
6.2075973 3.5879462 0 24 22
1.765292 1.3573515 -0.050889663 3 21
1.6490043 0.95459634 -0.087227464 6 20
1.7655684 1.3575569 -0.15175942 2 19
1.6728054 0.96717668 -0.17033711 6 18
nan nan nan 0 17
1.6318632 0.94281495 -0.25700054 3 16
nan nan nan 0 15
1.4547564 0.83811188 -0.4704791 22 13
1.5263903 1.1744511 -0.43310523 56 14
1.4723686 0.84621149 -0.57532293 3 12
nan nan nan 0 11
1.482179 0.84543014 -0.88759989 3 9
1.2639743 0.97853196 -0.73444229 24 10
1.4757723 0.8384431 -1.004817 3 8
1.2659417 0.98873496 -1.0635382 35 7
1.4231542 0.80286878 -1.2177576 21 6
1.1685432 0.91946065 -1.2292509 8 5
1.1724788 0.65541029 -1.2507255 6 4
nan nan nan 0 3
nan nan nan 0 2
1.6337625 1.3117322 -2.7046096 3 1
nan nan nan 0 0
5.6246281 4.3252563 1.8839273 5 31
6.1859674 3.5453172 1.6419212 22 30
5.592814 4.2930408 1.3535359 8 29
6.2715187 3.5972002 1.1254226 28 28
5.6042604 4.294095 0.85762584 8 27
6.2820554 3.6032255 0.68889189 28 26
5.6217279 4.3043818 0.49019578 9 25
6.1867418 3.5485878 0.33097523 24 24
5.61341 4.294908 0.16328794 9 23
6.2396064 3.5774412 0 29 22
1.7600949 1.3435878 -0.05059953 3 21
1.6566606 0.9513166 -0.087460376 6 20
1.7465271 1.3331993 -0.14968762 2 19
1.6848168 0.96627688 -0.17123127 6 18
nan nan nan 0 17
1.6200955 0.92851174 -0.25459221 3 16
nan nan nan 0 15
1.4555846 0.83183897 -0.46979129 21 13
1.5285461 1.1676341 -0.43254712 50 14
1.4814757 0.84456885 -0.57777458 3 12
nan nan nan 0 11
1.4889674 0.8424204 -0.88994491 3 9
1.2548393 0.96444064 -0.7270022 13 10
1.4824209 0.83538193 -1.0074035 3 8
1.2612159 0.97795236 -1.0565321 18 7
1.4207367 0.79499072 -1.2132138 20 6
1.1717457 0.91537607 -1.2292509 8 5
1.1747595 0.6513136 -1.2507255 6 4
nan nan nan 0 3
nan nan nan 0 2
1.6359652 1.304129 -2.7006323 3 1
nan nan nan 0 0
5.6089811 4.2821331 1.873615 7 31
6.2978406 3.5802464 1.6684128 28 30
5.6097174 4.274981 1.3540095 9 29
6.2904792 3.578949 1.1265817 22 28
5.6172409 4.2730031 0.85732287 9 27
6.2853174 3.5774524 0.68794036 18 26
5.6347337 4.2832222 0.49002227 9 25
6.1882362 3.5207987 0.33039293 28 24
5.6363277 4.2813377 0.16352004 10 23
6.2585769 3.559345 0 27 22
1.7645408 1.3377439 -0.05059953 2 21
1.6664853 0.94922853 -0.087809756 6 20
1.733296 1.3135176 -0.14813375 3 19
1.7031702 0.96928871 -0.17279606 6 18
1.5739989 1.1925093 -0.222045 5 17
1.6339351 0.92924219 -0.25631246 4 16
nan nan nan 0 15
1.4584794 0.82675296 -0.46979129 21 13
1.5362889 1.1655097 -0.43366337 49 14
1.4823567 0.83823222 -0.57695735 3 12
1.2869643 0.9803552 -0.64019334 3 11
1.491753 0.83747816 -0.88994491 3 9
1.2779615 0.97518653 -0.73869377 11 10
1.4907898 0.83358604 -1.011283 3 8
nan nan nan 0 7
1.4251053 0.79123765 -1.2147284 21 6
1.170259 0.90796757 -1.2244049 9 5
1.1705725 0.64394307 -1.2438154 6 4
nan nan nan 0 3
nan nan nan 0 2
1.6426533 1.3005812 -2.7046096 3 1
nan nan nan 0 0
5.6154532 4.257669 1.8710369 9 31
6.3033137 3.5557544 1.6667219 23 30
5.6473446 4.2741394 1.3596926 9 29
6.2571368 3.5325828 1.1184683 19 28
5.639298 4.2603383 0.85853469 9 27
6.2045636 3.5029089 0.67771167 23 26
5.6648259 4.2765403 0.49141043 9 25
6.1998777 3.5002584 0.33039293 28 24
5.6584725 4.2686472 0.16375214 9 23
6.3400288 3.5778675 0 25 22
1.7452562 1.313514 -0.049903203 2 21
1.6630976 0.94001812 -0.087460376 6 20
1.6321172 1.228157 -0.13898331 4 19
1.7152221 0.96822393 -0.17369021 5 18
1.5700134 1.1812998 -0.22090778 5 17
1.6350108 0.92231905 -0.25596842 4 16
1.5173172 1.1423548 -0.32505041 6 15
1.4716952 0.82778943 -0.47323045 19 13
1.5422925 1.1616085 -0.43422148 49 14
1.4933763 0.83792537 -0.58022624 3 12
1.281147 0.96885222 -0.63550675 8 11
1.5043201 0.83762318 -0.89580756 3 9
1.2757847 0.96683437 -0.73550516 20 10
1.495563 0.8294121 -1.0125762 3 8
nan nan nan 0 7
1.4243711 0.78434497 -1.2116991 21 6
1.1779492 0.90737909 -1.2292509 8 5
1.169637 0.63812852 -1.2403604 6 4
nan nan nan 0 3
nan nan nan 0 2
1.6471833 1.2948393 -2.7046096 3 1
nan nan nan 0 0
5.647645 4.251122 1.8768376 9 31
6.2901754 3.5194666 1.659958 20 30
5.7034311 4.2853808 1.3696382 2 29
6.2327871 3.4902155 1.1119004 25 28
5.6977987 4.2733998 0.86519939 3 27
6.238471 3.4933825 0.68009043 29 26
nan nan nan 0 25
6.3014092 3.5285938 0.33516774 24 24
nan nan nan 0 23
6.4026623 3.5837843 0 35 22
1.7498306 1.3074139 -0.049903203 3 21
1.6687117 0.93513459 -0.087576836 5 20
1.5864877 1.1850766 -0.13466705 6 19
1.7425051 0.97558475 -0.17614914 6 18
1.5663792 1.1695833 -0.21977054 4 17
nan nan nan 0 16
1.5412046 1.1515528 -0.32934433 6 15
1.4684172 0.8188864 -0.47116697 19 13
1.546338 1.1562178 -0.43422148 39 14
1.4923049 0.8301546 -0.57859182 3 12
1.2846893 0.96415013 -0.63550675 8 11
1.5072348 0.83236706 -0.89580756 3 9
1.2919632 0.97169316 -0.74294525 9 10
1.5004691 0.82495308 -1.0138694 3 8
nan nan nan 0 7
1.4254891 0.77816886 -1.2101845 20 6
1.1797534 0.90189379 -1.2276356 9 5
1.1767418 0.63640666 -1.245543 7 4
nan nan nan 0 3
nan nan nan 0 2
1.6531109 1.2897272 -2.7065983 3 1
nan nan nan 0 0
5.6922078 4.2520871 1.8865054 2 31
6.2945123 3.4916651 1.6577035 18 30
5.8273048 4.3451896 1.3956859 4 29
6.226099 3.4565639 1.1084234 26 28
5.745266 4.2762051 0.87004644 4 27
6.288228 3.4910176 0.68413436 22 26
6.1774383 4.5947585 0.53322887 4 25
6.4103847 3.5587788 0.34029192 33 24
6.300539 4.6829729 0.18145037 4 23
6.3960776 3.5493815 0 28 22
1.724521 1.2786288 -0.0490328 7 21
1.6697816 0.92809325 -0.087460376 5 20
1.5768085 1.1688401 -0.13345851 6 19
1.7634966 0.97883987 -0.17793746 4 18
1.5664654 1.1611454 -0.21920192 4 17
1.7065725 0.94655365 -0.26628971 5 16
1.5215005 1.1285284 -0.32419163 4 15
1.477581 0.81723714 -0.47323045 17 13
1.5446998 1.1461786 -0.43254712 28 14
1.5055447 0.8306334 -0.5826779 3 12
1.3047535 0.97214884 -0.64394265 4 11
1.5025228 0.82260674 -0.89111745 3 9
nan nan nan 0 10
1.5070996 0.82175368 -1.0164558 3 8
nan nan nan 0 7
1.4351989 0.77696484 -1.2162429 20 6
1.1828945 0.89777023 -1.2276356 8 5
1.1757677 0.63059348 -1.242088 7 4
nan nan nan 0 3
nan nan nan 0 2
1.6552105 1.2820898 -2.702621 3 1
nan nan nan 0 0
5.6992569 4.2264338 1.8839273 3 31
6.272512 3.4508979 1.648685 29 30
5.8246846 4.3116717 1.3914235 5 29
6.287899 3.4621952 1.1173093 26 28
5.7880931 4.2767801 0.87428755 5 27
6.4153199 3.5337489 0.69674182 33 26
6.2054744 4.5820599 0.53426999 4 25
6.4227681 3.5363808 0.34029192 30 24
6.3429861 4.6802506 0.18220472 4 23
6.3733797 3.5077574 0 23 22
1.7287515 1.2729031 -0.0490328 8 21
1.6730111 0.92225903 -0.087460376 6 20
1.5728512 1.1574061 -0.1327679 4 19
1.751456 0.96459496 -0.17637268 4 18
1.5485235 1.1394495 -0.21607453 3 17
1.7596295 0.9682917 -0.2742027 7 16
1.5333557 1.1290621 -0.3259092 4 15
1.4846424 0.81438071 -0.47460613 17 13
1.5602518 1.1497388 -0.43589586 8 14
1.5084349 0.82537299 -0.5826779 3 12
nan nan nan 0 11
1.5149508 0.82287562 -0.89698005 3 9
nan nan nan 0 10
1.5192327 0.82182801 -1.0229218 3 8
nan nan nan 0 7
1.4360138 0.77126288 -1.2147284 21 6
1.1813005 0.89038813 -1.2227896 9 5
1.1810462 0.62838221 -1.245543 7 4
nan nan nan 0 3
nan nan nan 0 2
1.6618515 1.2784449 -2.7065983 3 1
nan nan nan 0 0
5.7501864 4.2347398 1.8961732 4 31
6.2817831 3.4289122 1.6481214 20 30
5.7479944 4.2254205 1.3696382 2 29
6.4120798 3.502866 1.1373992 30 28
5.7362356 4.2090931 0.86429054 2 27
6.4254322 3.5101414 0.69650394 23 26
5.999454 4.3991609 0.51518273 2 25
6.3774691 3.4839516 0.337264 23 24
6.0440426 4.4286423 0.17315252 1 23
6.3586426 3.4722333 0 31 22
nan nan nan 0 21
1.6694831 0.9131186 -0.087111004 5 20
1.5384561 1.1241771 -0.12948754 3 19
1.7635587 0.96324003 -0.17726684 6 18
1.5342616 1.1210964 -0.21351574 7 17
1.7760479 0.96924639 -0.27626696 8 16
1.5112715 1.1050391 -0.3203271 4 15
1.4957855 0.81403744 -0.47735748 14 13
1.5053064 1.1010462 -0.41915208 3 14
1.5173974 0.82373965 -0.58512956 3 12
nan nan nan 0 11
1.5178139 0.81758237 -0.89698005 3 9
1.3000804 0.95699364 -0.74188238 7 10
1.5220922 0.8165198 -1.0229218 3 8
1.3277335 0.98619348 -1.0957667 2 7
1.4386972 0.7662456 -1.2147284 20 6
1.1828761 0.88511306 -1.2211744 9 5
1.1816325 0.62341571 -1.2438154 7 4
nan nan nan 0 3
nan nan nan 0 2
1.6651014 1.2717148 -2.7046096 3 1
nan nan nan 0 0
5.7551856 4.2075105 1.8929505 3 31
6.3408442 3.4324577 1.6605216 29 30
5.7726202 4.2125688 1.3720061 2 29
6.3417287 3.4357779 1.1227182 23 28
5.7689419 4.2022004 0.86701697 3 27
6.3391623 3.4343748 0.68579948 27 26
5.9905829 4.3605714 0.5131005 2 25
6.3544536 3.442646 0.33540064 31 24
5.9975834 4.3608756 0.17135368 1 23
6.3575315 3.4428771 0 31 22
5.246448 3.8129413 -0.14976764 138 21
1.6816056 0.91174459 -0.087576836 5 20
1.5121168 1.0967948 -0.1268978 5 19
1.7340494 0.93932515 -0.17391375 4 18
1.5242981 1.1052411 -0.21152559 8 17
1.7859575 0.9665696 -0.27729911 8 16
1.5033627 1.0907985 -0.31775072 4 15
1.496642 0.80741119 -0.47666964 12 13
1.5130805 1.0986538 -0.42026833 4 14
1.5162424 0.81593895 -0.58349514 3 12
1.3148621 0.95843244 -0.64394265 3 11
1.5265055 0.81539208 -0.90049762 3 9
1.2926288 0.94419599 -0.73550516 9 10
1.5250747 0.81093562 -1.0229218 3 8
1.3280103 0.97885805 -1.0929642 2 7
1.4414961 0.76096737 -1.2147284 20 6
1.1845826 0.8796311 -1.219559 9 5
1.1791004 0.61657816 -1.2386329 8 4
nan nan nan 0 3
nan nan nan 0 2
1.6673396 1.2637694 -2.7006323 3 1
nan nan nan 0 0
5.7588401 4.1778741 1.8890835 2 31
6.3769937 3.4218552 1.6667219 21 30
5.8297625 4.221632 1.3819516 3 29
6.3455729 3.4078393 1.1211728 31 28
5.8064227 4.1970267 0.87034935 3 27
6.3539004 3.4122941 0.68603736 30 26
6.067162 4.3824153 0.51830614 3 25
6.3494253 3.4098859 0.33446899 28 24
6.095839 4.3999128 0.17373279 3 23
6.3701072 3.4195526 0 31 22
5.2766004 3.8053885 -0.15023185 32 21
1.6759744 0.9011488 -0.087111004 5 20
1.493881 1.0751896 -0.12499864 5 19
1.7243102 0.92591035 -0.17257251 3 18
1.5039787 1.0824702 -0.20811388 6 17
1.7742051 0.95183969 -0.27489081 8 16
1.5051646 1.084102 -0.31732136 3 15
1.5036931 0.80444407 -0.47804531 10 13
1.5012951 1.081683 -0.41580334 4 14
1.529511 0.81618917 -0.58758122 3 12
1.3238261 0.9579218 -0.64675462 3 11
1.5236256 0.80670035 -0.89698005 3 9
1.2940871 0.93834686 -0.73444229 8 10
1.535472 0.80958796 -1.0280946 3 8
1.3364254 0.9778927 -1.097168 3 7
1.4370893 0.75225252 -1.2086699 20 6
1.1922467 0.87889647 -1.2244049 10 5
1.1796395 0.61163002 -1.2369053 8 4
nan nan nan 0 3
nan nan nan 0 2
1.6717407 1.2579416 -2.7006323 3 1
nan nan nan 0 0
5.7969041 4.1746936 1.8968177 3 31
6.367394 3.3881397 1.6610854 29 30
5.8464561 4.2026896 1.3824252 5 29
6.3901367 3.4030733 1.126968 25 28
5.825069 4.1796279 0.87095529 4 27
6.3915415 3.4052391 0.68889189 22 26
nan nan nan 0 25
6.4053807 3.411165 0.33679816 22 24
nan nan nan 0 23
6.3930411 3.4031663 0 22 22
5.2891908 3.7878695 -0.15023185 22 21
1.6835196 0.89763778 -0.087343924 5 20
1.4834334 1.0598007 -0.1237901 5 19
1.7163764 0.9143461 -0.1714548 3 18
1.4875575 1.062748 -0.2052708 3 17
1.7751646 0.94479001 -0.27454677 6 16
nan nan nan 0 15
1.5086167 0.80031383 -0.47873315 9 13
1.4890343 1.0653335 -0.41133833 3 14
1.5302608 0.80974287 -0.58676398 3 12
1.3232355 0.95081574 -0.64487994 4 11
1.5360731 0.80676323 -0.90284264 3 9
1.304692 0.93912357 -0.73869377 3 10
1.5419427 0.8064695 -1.030681 3 8
1.3448499 0.97688043 -1.1013716 3 7
1.444876 0.75022417 -1.2132138 22 6
1.1997669 0.87832844 -1.2292509 10 5
1.1784438 0.60606837 -1.2334503 7 4
nan nan nan 0 3
nan nan nan 0 2
1.6734787 1.2505735 -2.6966548 3 1
nan nan nan 0 0
5.8205376 4.1624765 1.9000403 4 31
6.3721318 3.3635969 1.6593944 24 30
5.910296 4.2189507 1.3942651 5 29
6.3948336 3.3784051 1.125809 30 28
5.8772869 4.1876616 0.87671107 6 27
6.4297991 3.3968496 0.69174641 24 26
6.3365259 4.511785 0.53878152 6 25
6.4718685 3.4190516 0.33970964 20 24
6.4351196 4.5786557 0.18255289 6 23
6.5170546 3.4414513 0 24 22
5.3349648 3.7925658 -0.15116028 22 21
1.6798606 0.88855487 -0.086994544 5 20
1.4727143 1.044755 -0.12258155 5 19
1.7283698 0.9129914 -0.17234898 3 18
1.4708351 1.0434107 -0.20242772 3 17
1.7872164 0.94320107 -0.27592292 4 16
nan nan nan 0 15
1.5027485 0.79084074 -0.47598183 8 13
1.4808344 1.0516469 -0.40798959 3 14
1.5413113 0.80904526 -0.59003288 3 12
1.3020452 0.9286564 -0.63269478 10 11
1.5369203 0.80037928 -0.90167016 3 9
1.2967666 0.92687887 -0.73231655 12 10
1.5390464 0.79813546 -1.0268015 3 8
1.3464049 0.97120148 -1.0999705 3 7
1.4421765 0.74245322 -1.2086699 22 6
1.2028254 0.87413514 -1.2292509 10 5
1.1805521 0.60195118 -1.2334503 8 4
nan nan nan 0 3
nan nan nan 0 2
1.6802646 1.2465334 -2.7006323 3 1
nan nan nan 0 0
5.860631 4.1603189 1.908419 5 31
6.4162083 3.3582654 1.6678492 25 30
5.8589077 4.1514382 1.3786364 3 29
6.4350352 3.3709531 1.1308314 22 28
5.8776898 4.1570849 0.87459052 3 27
6.4438219 3.3755391 0.6919843 26 26
6.042737 4.2707438 0.51240641 2 25
6.4505763 3.3790674 0.33796275 30 24
nan nan nan 0 23
6.5068765 3.4070914 0 21 22
5.3604202 3.7825706 -0.15150845 29 21
1.6786798 0.8800779 -0.086761624 5 20
1.466166 1.0324143 -0.12171829 3 19
1.7381673 0.91041124 -0.17301959 3 18
1.4584167 1.0265532 -0.20015325 3 17
1.7751315 0.92893702 -0.27351463 3 16
nan nan nan 0 15
1.5077695 0.78643614 -0.47666964 7 13
1.4665879 1.0338103 -0.40296647 3 14
1.5421689 0.80230302 -0.5892157 3 12
