# .PCD v0.7 - Point Cloud Data file format
VERSION 0.7
FIELDS x y z intensity ring
SIZE 4 4 4 4 2
TYPE F F F F U
COUNT 1 1 1 1 1
WIDTH 909
HEIGHT 1
VIEWPOINT 0 0 0 1 0 0 0
POINTS 909
DATA ascii
1.540864 -0.099308133 0.2360567 7 28
1.5895081 -0.1025257 0.14891101 50 26
1.6075754 0.10629002 0.10966504 9 25
1.6347681 -0.10551418 0.074766397 6 24
1.6409136 0.10797602 0.037369378 9 23
1.6714121 -0.10822177 0 47 22
1.6783574 0.10990743 -0.038239781 8 21
1.7269287 -0.11219241 -0.079075366 9 20
1.7790664 -0.11657571 -0.15692475 8 18
1.5479002 -0.10519919 0.23721574 7 28
1.5891404 -0.1080735 0.14891101 50 26
1.6104254 0.10083752 0.10983856 9 25
1.6343899 -0.11121995 0.074766397 7 24
1.646287 0.10227842 0.037485432 9 23
1.6710241 -0.11405542 0 47 22
1.6887081 0.10468115 -0.038471889 9 21
1.7240146 -0.11834695 -0.078958906 17 20
1.7786486 -0.12278511 -0.15692475 8 18
1.5401138 -0.1103317 0.2360567 8 28
1.5936978 -0.11426007 0.14938676 49 26
1.6058054 0.094633311 0.10949152 9 25
1.6464243 -0.11811967 0.07534869 7 24
1.6416442 0.096231237 0.037369378 9 23
1.6705948 -0.12017927 0 42 22
1.679101 0.097894639 -0.038239781 13 21
1.7260816 -0.12454707 -0.079075366 31 20
1.7906027 -0.13022166 -0.15804245 8 18
1.5372567 -0.11551839 0.23567036 28 28
1.558647 0.08686278 0.1863087 6 27
1.5957916 -0.11973397 0.14962466 10 26
1.6061258 0.089027435 0.10949152 8 25
1.6435121 -0.12367533 0.07523223 7 24
1.6394749 0.09035898 0.037311349 8 23
1.6726577 -0.12620135 0 33 22
1.676921 0.092185177 -0.038181756 28 21
1.7231463 -0.13037987 -0.078958906 40 20
1.7827133 -0.13558312 -0.15737183 8 18
1.5319409 -0.12022189 0.23489767 55 28
1.5539706 0.081426091 0.1857028 9 27
1.5953639 -0.12530358 0.14962466 7 26
1.6089026 0.083834402 0.10966504 9 25
1.6356248 -0.12852779 0.074882858 36 24
1.6397655 0.084921785 0.037311349 8 23
1.677214 -0.13214666 0 19 22
1.6747367 0.086198956 -0.038123727 41 21
1.7227045 -0.13609332 -0.078958906 43 20
1.7822292 -0.14180511 -0.15737183 8 18
1.5339732 -0.12577403 0.23528402 56 28
1.5567237 0.076126345 0.18600574 9 27
1.5924367 -0.13066474 0.14938676 7 26
1.6091855 0.078217775 0.10966504 9 25
1.6351662 -0.13423641 0.074882858 46 24
1.642562 0.079035014 0.037369378 8 23
1.67176 -0.13758378 0 35 22
1.6775236 0.080475911 -0.038181756 45 21
1.7221941 -0.14240642 -0.078958906 19 20
1.7842044 -0.14823461 -0.15759537 8 18
1.5384233 -0.1318243 0.2360567 55 28
1.5569923 0.070420153 0.18600574 9 27
1.5993849 -0.13714853 0.15010041 7 26
1.6044788 0.072087795 0.109318 9 25
1.6346632 -0.1402287 0.074882858 43 24
1.642828 0.07330092 0.037369378 8 23
1.6737351 -0.14392762 0 43 22
1.6778073 0.07432694 -0.038181756 46 21
1.7216866 -0.14841713 -0.078958906 7 20
1.7811688 -0.15455472 -0.15737183 10 18
1.5379536 -0.13719359 0.2360567 54 28
1.5473115 0.064555295 0.18479398 9 27
1.5914609 -0.14205652 0.14938676 7 26
1.6121957 0.066807821 0.10983856 9 25
1.639138 -0.14638481 0.07511577 36 24
1.6480678 0.067778744 0.037485432 9 23
1.678202 -0.15022145 0 46 22
1.6780565 0.068469845 -0.038181756 29 21
1.7286191 -0.15510505 -0.079308279 6 20
1.7781388 -0.16054426 -0.15714829 22 18
1.5374655 -0.14256121 0.2360567 54 28
1.557446 0.059548672 0.18600574 9 27
1.593433 -0.14784424 0.14962466 7 26
1.6099269 0.061081454 0.10966504 9 25
1.6435895 -0.15257387 0.07534869 24 24
1.6358073 0.061537061 0.037195295 10 23
1.6751784 -0.15584372 0 46 22
1.6807828 0.062708735 -0.038239781 8 21
1.728067 -0.16113812 -0.079308279 5 20
1.7726098 -0.16627888 -0.15670121 23 18
1.5394428 -0.1478986 0.23644306 56 28
1.5551549 0.054293163 0.1857028 9 27
1.5904572 -0.15288587 0.14938676 7 26
1.6151055 0.055922575 0.11001208 9 25
1.6530166 -0.15899295 0.075814523 9 24
1.6335046 0.056022786 0.037137266 27 23
1.6796287 -0.16188413 0 46 22
1.685977 0.057311773 -0.038355835 6 21
1.7300086 -0.16711096 -0.079424739 5 20
1.7794828 -0.1728877 -0.15737183 18 18
1.5438321 -0.15376799 0.23721574 56 28
1.5627757 0.049109861 0.18661162 9 27
1.5998179 -0.15943746 0.15033828 7 26
1.6127981 0.050203081 0.10983856 9 25
1.6474823 -0.16425994 0.075581603 7 24
1.6386951 0.050195817 0.037253324 39 23
1.6815407 -0.16799793 0 45 22
1.693661 0.051665708 -0.038529918 6 21
1.7293845 -0.17345063 -0.079424739 6 20
1.7788684 -0.1790982 -0.15737183 17 18
1.5457146 -0.15968274 0.2376021 56 28
1.5604649 0.043308925 0.1863087 9 27
1.5967478 -0.16504075 0.15010041 37 26
1.6129713 0.044291545 0.10983856 9 25
1.6468692 -0.17029718 0.075581603 8 24
1.6388605 0.044475395 0.037253324 45 23
1.6784272 -0.17389905 0 42 22
1.6838456 0.045175154 -0.03829781 6 21
1.7362194 -0.18026938 -0.079774112 6 20
1.7782001 -0.18561687 -0.15737183 15 18
1.5048056 0.037709586 0.28368369 7 29
1.5402365 -0.16454548 0.23682939 54 28
1.5606065 0.037861623 0.1863087 9 27
1.5937175 -0.17006738 0.14986253 29 26
1.6156093 0.038724497 0.11001208 9 25
1.641299 -0.17550708 0.07534869 41 24
1.6390058 0.038754437 0.037253324 45 23
1.6827809 -0.18029593 0 32 22
1.6939803 0.039840564 -0.038529918 6 21
1.7355796 -0.18632881 -0.079774112 10 20
1.7874761 -0.1925917 -0.15826598 10 18
1.5049223 0.032719266 0.28368369 10 29
1.5445918 -0.1702003 0.2376021 54 28
1.5607234 0.032686256 0.1863087 10 27
1.600534 -0.17645779 0.15057616 10 26
1.6182222 0.033422008 0.1101856 9 25
1.6407081 -0.18094888 0.07534869 48 24
1.6316289 0.03315552 0.037079241 36 23
1.6846584 -0.18615305 0 7 22
1.6891117 0.033819929 -0.038413864 7 21
1.7299886 -0.19152731 -0.079541199 38 20
1.7379694 0.034862854 -0.11792 8 19
1.7917416 -0.19938682 -0.15871306 9 18
1.5099359 0.027563583 0.28463086 12 29
1.5439883 -0.17559089 0.2376021 52 28
1.5583467 0.027190909 0.18600574 10 27
1.5949637 -0.18147413 0.15010041 7 26
1.6033679 0.027493723 0.10914448 10 25
1.6400664 -0.18667491 0.07534869 49 24
1.6342382 0.027220439 0.037137266 10 23
1.6889653 -0.19260542 0 6 22
1.6892195 0.027923619 -0.038413864 7 21
1.7317556 -0.19815378 -0.079657651 40 20
1.7330933 0.028706327 -0.1175747 8 19
1.7984548 -0.20650113 -0.15938367 8 18
1.5100268 0.022029206 0.28463086 11 29
1.5408816 -0.18095709 0.23721574 46 28
1.5633985 0.021555325 0.18661162 10 27
1.6091151 -0.18908156 0.15152767 7 26
1.6034578 0.021616902 0.10914448 26 25
1.6418509 -0.19297963 0.07546515 51 24
1.6468189 0.021698918 0.037427403 6 23
1.6857655 -0.1984989 0 6 22
1.6868113 0.021696363 -0.038355835 23 21
1.7310535 -0.20419753 -0.079657651 29 20
1.7331868 0.022354029 -0.1175747 8 19
1.5100944 0.016758095 0.28463086 11 29
1.5524989 -0.18783547 0.23914747 39 28
1.5659457 0.016127367 0.18691458 9 27
1.603505 -0.19409244 0.15105191 7 26
1.5935483 0.015904745 0.1084504 38 25
1.6436462 -0.19901307 0.075581603 50 24
1.6493837 0.015978234 0.037485432 6 23
1.6900253 -0.20499061 0 6 22
1.6818784 0.015754072 -0.038239781 43 21
1.7377663 -0.21115182 -0.080007032 10 20
1.7357482 0.016330931 -0.11774734 8 19
1.7919886 -0.21875571 -0.15893659 8 18
1.5125984 0.011509486 0.28510448 10 29
1.5444821 -0.1923274 0.23798843 31 28
1.5560664 0.010577939 0.1857028 9 27
1.6053216 -0.19971938 0.15128979 9 26
1.6035696 0.010422217 0.10914448 49 25
1.6429416 -0.20474924 0.075581603 49 24
1.6469301 0.01020152 0.037427403 6 23
1.6892995 -0.21088864 0 6 22
1.6844208 0.010195432 -0.03829781 42 21
1.7394962 -0.21752946 -0.080123484 9 20
1.7357944 0.010271939 -0.11774734 8 19
1.7961938 -0.22532283 -0.15938367 8 18
1.5101736 0.006478901 0.28463086 9 29
1.5462853 -0.19776489 0.23837478 23 28
1.556093 0.0054177782 0.1857028 9 27
1.5996785 -0.20468333 0.15081403 7 26
1.6060892 0.0051162844 0.109318 48 25
1.6422535 -0.21019633 0.075581603 47 24
1.6494542 0.0047509521 0.037485432 6 23
1.6861116 -0.21616827 0 6 22
1.6869452 0.0043256776 -0.038355835 33 21
1.7437181 -0.22393903 -0.080356404 8 20
1.7333251 0.0045057693 -0.1175747 8 19
1.7978655 -0.23191291 -0.15960722 8 18
1.5052774 0.0011953749 0.28368369 10 29
1.5553794 -0.20446275 0.23992017 16 28
1.5635471 -2.3387838e-06 0.18661162 9 27
1.6063552 -0.21124952 0.15152767 36 26
1.6011093 -0.0004961387 0.10897096 40 25
1.6439854 -0.21625654 0.075698063 36 24
1.6469612 -0.0012963761 0.037427403 7 23
1.6878248 -0.22238238 0 7 22
1.6944481 -0.0015589609 -0.038529918 25 21
1.7453612 -0.23065887 -0.080472864 8 20
1.7333302 -0.0015446924 -0.1175747 8 19
1.7970451 -0.23818721 -0.15960722 8 18
1.5101812 -0.0043277489 0.28463086 10 29
1.5521722 -0.2098278 0.23953381 10 28
1.5660183 -0.005738223 0.18691458 9 27
1.6006387 -0.21646196 0.15105191 54 26
1.6060847 -0.0063766818 0.109318 21 25
1.6530789 -0.22363284 0.076163903 8 24
1.6419481 -0.0070313774 0.037311349 7 23
1.6845216 -0.2282282 0 35 22
1.6894324 -0.0077537103 -0.038413864 10 21
1.7494937 -0.23742777 -0.080705784 8 20
1.7383009 -0.007913325 -0.11792 8 19
1.79616 -0.24477212 -0.15960722 8 18
1.5126117 -0.0096108066 0.28510448 10 29
1.5489843 -0.2149017 0.23914747 10 28
1.5635071 -0.011190752 0.18661162 10 27
1.602338 -0.22239338 0.15128979 55 26
1.6060526 -0.011982925 0.109318 7 25
1.6572343 -0.23009518 0.076396815 6 24
1.646912 -0.01279421 0.037427403 12 23
1.6886661 -0.23480189 0 44 22
1.6968929 -0.013700609 -0.038587943 8 21
1.7486544 -0.24353319 -0.080705784 8 20
1.7332749 -0.013947997 -0.1175747 8 19
1.7977601 -0.25138822 -0.15983075 8 18
1.512569 -0.014890747 0.28510448 11 29
1.5555592 -0.22136164 0.2403065 10 28
1.5609772 -0.016625822 0.1863087 24 27
1.601552 -0.22798523 0.15128979 54 26
1.6159766 -0.01768304 0.11001208 7 25
1.6613649 -0.23658925 0.076629736 6 24
1.6418589 -0.018494073 0.037311349 27 23
1.6903107 -0.24105117 0 37 22
1.6918361 -0.019573187 -0.038471889 8 21
1.7453219 -0.24927948 -0.080589324 8 20
1.7357094 -0.020023417 -0.11774734 8 19
1.5075986 -0.020113099 0.28415728 12 29
1.5596641 -0.22751014 0.24107918 9 28
1.5584282 -0.022043362 0.18600574 35 27
1.6007463 -0.23357429 0.15128979 50 26
1.6159049 -0.023323745 0.11001208 7 25
1.6704113 -0.24384284 0.077095568 7 24
1.6492816 -0.024324572 0.037485432 15 23
1.6944054 -0.24767953 0 19 22
1.6867595 -0.02541063 -0.038355835 28 21
1.7518525 -0.25646466 -0.080938697 8 20
1.7406166 -0.026149955 -0.11809264 8 19
1.5099736 -0.025412749 0.28463086 12 29
1.5588605 -0.232953 0.24107918 9 28
1.560823 -0.027523004 0.1863087 47 27
1.5999212 -0.23916052 0.15128979 48 26
1.6183074 -0.029005077 0.1101856 7 25
1.6621419 -0.24855445 0.076746188 7 24
1.6541847 -0.030165242 0.037601486 8 23
1.7009463 -0.25471282 0 9 22
1.6866604 -0.031298365 -0.038355835 44 21
1.7509465 -0.26257822 -0.080938697 8 20
1.7330338 -0.032097712 -0.1175747 8 19
1.5147845 -0.030775066 0.28557807 11 29
1.5702431 -0.24027812 0.24301092 9 28
1.5607175 -0.032971129 0.1863087 51 27
1.5966599 -0.24408531 0.15105191 47 26
1.6107157 -0.034504991 0.10966504 7 25
1.6711364 -0.25587964 0.077212021 7 24
1.6465729 -0.035787445 0.037427403 7 23
1.7025176 -0.26103073 0 8 22
1.6890463 -0.036942396 -0.038413864 46 21
1.7475514 -0.26830655 -0.080822244 8 20
1.7304176 -0.038095571 -0.11740204 9 19
1.5073116 -0.035636168 0.28415728 12 29
1.5645583 -0.24471371 0.24223822 9 28
1.5605996 -0.03814647 0.1863087 46 27
1.6080891 -0.25159729 0.15224129 45 26
1.6105925 -0.039846126 0.10966504 7 25
1.6653452 -0.26064119 0.076979108 8 24
1.646445 -0.04124748 0.037427403 7 23
1.7090507 -0.26784569 0 8 22
1.688907 -0.042838044 -0.038413864 47 21
1.7491187 -0.27449036 -0.080938697 8 20
1.7252951 -0.043714374 -0.11705674 11 19
1.5047239 -0.040834907 0.28368369 18 29
1.5710096 -0.2513544 0.24339725 9 28
1.5654184 -0.043724529 0.18691458 27 27
1.609658 -0.25760567 0.15247917 10 26
1.6104436 -0.045467906 0.10966504 17 25
1.6619599 -0.26605478 0.076862648 36 24
1.6487895 -0.047062002 0.037485432 6 23
1.7007014 -0.27261326 0 8 22
1.6912456 -0.048801642 -0.038471889 46 21
1.7555456 -0.28179079 -0.081288077 8 20
1.7301182 -0.049873177 -0.11740204 19 19
1.5143871 -0.046371564 0.28557807 15 29
1.5725596 -0.25723884 0.24378361 9 28
1.5627756 -0.04911454 0.18661162 7 27
1.6038381 -0.26241249 0.15200342 7 26
1.6127679 -0.051164415 0.10983856 24 25
1.6585571 -0.2714479 0.076746188 44 24
1.6461171 -0.052740738 0.037427403 7 23
1.7046726 -0.27936304 0 8 22
1.691065 -0.054704893 -0.038471889 46 21
1.7520875 -0.28750962 -0.081171617 8 20
1.7324264 -0.05598915 -0.1175747 27 19
1.5117625 -0.051577803 0.28510448 11 29
1.5716521 -0.26272655 0.24378361 9 28
1.5601145 -0.054486636 0.1863087 7 27
1.6078204 -0.26883686 0.15247917 6 26
1.627535 -0.057297669 0.11087968 9 25
1.669912 -0.2793116 0.077328481 40 24
1.6459229 -0.058486436 0.037427403 11 23
1.703687 -0.28531173 0 8 22
1.6933615 -0.060693394 -0.038529918 45 21
1.7510732 -0.29362378 -0.081171617 8 20
1.7297279 -0.061950367 -0.11740204 30 19
1.5091202 -0.05676629 0.28463086 18 29
1.5658572 -0.26737276 0.24301092 9 28
1.5648746 -0.060114861 0.18691458 12 27
1.6117773 -0.27529216 0.15295492 8 26
1.6248326 -0.062885784 0.11070616 7 25
1.6615436 -0.28386766 0.076979108 24 24
1.6432111 -0.06413766 0.037369378 37 23
1.7076081 -0.29210633 0 8 22
1.6931393 -0.066603966 -0.038529918 35 21
1.7574204 -0.30100828 -0.081520997 8 20
1.7295011 -0.067987867 -0.11740204 35 19
1.5064602 -0.06193696 0.28415728 25 29
1.567347 -0.27326462 0.24339725 9 28
1.5671346 -0.065676942 0.1872175 30 27
1.6083555 -0.28048578 0.15271705 16 26
1.6221113 -0.068455741 0.11053264 6 25
1.6703809 -0.29139525 0.077444941 9 24
1.6479717 -0.070078105 0.037485432 47 23
1.7164266 -0.29979825 0 8 22
1.6953937 -0.072617069 -0.038587943 10 21
1.7637372 -0.30844066 -0.08187037 8 20
1.7367289 -0.074333943 -0.11792 38 19
1.5086871 -0.067300461 0.28463086 26 29
1.5712459 -0.27960625 0.24416994 9 28
1.5619375 -0.070929505 0.18661162 40 27
1.604917 -0.28565884 0.15247917 36 26
1.6218625 -0.074117541 0.11053264 7 25
1.6693535 -0.29722416 0.077444941 9 24
1.6477171 -0.075830176 0.037485432 47 23
1.7129089 -0.30534601 0 8 22
1.6976267 -0.078646727 -0.038645972 6 21
1.7364589 -0.08039581 -0.11792 39 19
1.5084304 -0.072829627 0.28463086 26 29
1.5750695 -0.2862533 0.24494264 9 28
1.5666246 -0.076889344 0.1872175 47 27
1.6063073 -0.29198763 0.15271705 46 26
1.624071 -0.08018069 0.11070616 7 25
1.6707094 -0.30379063 0.077561401 8 24
1.6499243 -0.081989199 0.037543457 47 23
1.7166963 -0.31252381 0 8 22
1.7048162 -0.085231975 -0.038820054 6 21
1.7336614 -0.086638741 -0.11774734 39 19
1.5130703 -0.078340411 0.28557807 19 29
1.5688251 -0.082483843 0.18752046 47 27
1.6053301 -0.29731274 0.15271705 51 26
1.6163093 -0.085465521 0.1101856 7 25
1.6598196 -0.30778655 0.077095568 8 24
1.6496282 -0.087748006 0.037543457 47 23
1.715595 -0.31851432 0 8 22
1.6995324 -0.090625882 -0.038704 6 21
1.7358391 -0.092819482 -0.11792 41 19
1.5201558 -0.083750606 0.28699887 10 29
1.568543 -0.087685794 0.18752046 31 27
1.6042826 -0.30291459 0.15271705 48 26
1.625978 -0.091369629 0.11087968 8 25
1.6686029 -0.31515568 0.077561401 8 24
1.6493281 -0.093217894 0.037543457 47 23
1.7145294 -0.32420167 0 8 22
1.7017012 -0.096696019 -0.038762026 6 21
1.7355218 -0.09857522 -0.11792 40 19
1.5198541 -0.089056432 0.28699887 10 29
1.5731821 -0.093447059 0.18812634 9 27
1.6032153 -0.30851275 0.15271705 46 26
1.6181798 -0.096610188 0.11035912 27 25
1.6699444 -0.32145348 0.077677861 9 24
1.6464804 -0.099115878 0.037485432 46 23
1.7060245 -0.32875603 0 8 22
1.7013533 -0.10263547 -0.038762026 7 21
1.7376568 -0.10477933 -0.11809264 34 19
1.5195175 -0.094626382 0.28699887 10 29
1.5728291 -0.09921243 0.18812634 7 27
1.6069567 -0.31535181 0.15319282 39 26
1.6078581 -0.10192449 0.10966504 47 25
1.6687549 -0.32757199 0.077677861 9 24
1.6461244 -0.10486256 0.037485432 30 23
1.714618 -0.33694735 0 8 22
1.6984712 -0.10871449 -0.038704 7 21
1.7322829 -0.11083599 -0.11774734 27 19
1.5216277 -0.10008705 0.28747246 10 29
1.5724732 -0.10470203 0.18812634 7 27
1.6083418 -0.32116953 0.15343069 17 26
1.6099811 -0.10769903 0.10983856 51 25
1.6700494 -0.33388776 0.077794321 9 24
1.663206 -0.11175527 0.037891619 9 23
1.7158821 -0.34342414 0 8 22
1.7030892 -0.11467489 -0.038820054 20 21
1.7368627 -0.11721095 -0.11809264 19 19
1.5212874 -0.10513239 0.28747246 10 29
1.5745931 -0.11008517 0.18842927 7 27
1.6267157 -0.33077484 0.1553337 9 26
1.6096151 -0.11303733 0.10983856 51 25
1.6762727 -0.34092665 0.078143694 8 24
1.6578394 -0.1169257 0.037775565 7 23
1.717183 -0.34961417 0 8 22
1.7026784 -0.12061909 -0.038820054 28 21
1.7364644 -0.12296995 -0.11809264 30 19
1.5233598 -0.11061583 0.28794605 10 29
1.5717241 -0.115403 0.18812634 7 27
1.6255512 -0.33645111 0.1553337 9 26
1.6092107 -0.11865525 0.10983856 51 25
1.6726278 -0.34626639 0.078027233 8 24
1.6624068 -0.12307367 0.037891619 6 23
1.702247 -0.12656182 -0.038820054 14 21
1.7385119 -0.12921196 -0.11826529 43 19
1.5205165 -0.11575033 0.28747246 10 29
1.568837 -0.12070214 0.18782339 7 27
1.6268015 -0.34263945 0.15557158 9 26
1.6137604 -0.1246483 0.1101856 50 25
1.673852 -0.35262081 0.078143694 8 24
1.6644366 -0.12935588 0.037949648 8 23
1.7067791 -0.13288388 -0.038936108 8 21
1.7430239 -0.13565978 -0.1186106 43 19
1.5176346 -0.12113121 0.28699887 10 29
1.5659103 -0.12625584 0.18752046 7 27
1.6279672 -0.34912473 0.15580945 9 26
1.6132927 -0.1305622 0.1101856 51 25
1.6823125 -0.36086097 0.078609534 8 24
1.6565007 -0.13456894 0.037775565 11 23
1.7162459 -0.13993692 -0.039168216 7 21
1.7400289 -0.14184821 -0.11843794 44 19
1.5220958 -0.12682772 0.28794605 10 29
1.5753527 -0.13253792 0.18873222 10 27
1.6292315 -0.35505447 0.15604733 9 26
1.6177981 -0.13660502 0.11053264 48 25
1.6786033 -0.36619571 0.078493066 8 24
1.6560209 -0.14035039 0.037775565 28 23
1.7107912 -0.14521179 -0.039052162 6 21
1.7420086 -0.14812902 -0.1186106 43 19
1.521667 -0.13187447 0.28794605 10 29
1.5749046 -0.13776125 0.18873222 33 27
1.630411 -0.36128098 0.1562852 9 26
1.6223058 -0.14239773 0.11087968 28 25
1.6749423 -0.37121665 0.078376614 8 24
1.6555463 -0.14584118 0.037775565 37 23
1.7152536 -0.15161571 -0.039168216 6 21
1.7439924 -0.15412097 -0.11878324 42 19
1.5187521 -0.13696878 0.28747246 10 29
1.5719423 -0.14303681 0.18842927 50 27
1.626713 -0.36641994 0.15604733 9 26
1.6292508 -0.14872879 0.11140025 8 25
1.6809429 -0.37871701 0.078725986 8 24
1.659979 -0.15235765 0.037891619 26 23
1.7122247 -0.15737692 -0.039110187 9 21
1.7484115 -0.1606572 -0.11912854 41 19
1.5206842 -0.14275983 0.28794605 10 29
1.5788201 -0.14948757 0.1893381 48 27
1.6350594 -0.37461558 0.15699884 8 26
1.6187619 -0.15377086 0.11070616 7 25
1.6819769 -0.38543636 0.078842446 8 24
1.6569487 -0.15791766 0.037833594 7 23
1.7041715 -0.16294846 -0.038936108 30 21
1.7453279 -0.16683051 -0.1189559 39 19
1.5250638 -0.14853512 0.28889325 10 29
1.5758187 -0.15475906 0.18903515 50 27
1.6313186 -0.37975326 0.15676096 9 26
1.6281446 -0.16038354 0.11140025 10 25
1.6903473 -0.39358285 0.079308279 8 24
1.6663377 -0.16466914 0.038065702 6 23
1.7085675 -0.1693822 -0.039052162 44 21
1.7472172 -0.17316434 -0.11912854 38 19
1.5294214 -0.15434274 0.28984043 10 29
1.577738 -0.1605061 0.1893381 52 27
1.6276292 -0.38458535 0.15652309 9 26
1.6250935 -0.16581641 0.11122672 28 25
1.6632659 -0.17023389 0.038007673 6 23
1.7079962 -0.17504708 -0.039052162 43 21
1.7466021 -0.17926221 -0.11912854 35 19
1.5796655 -0.16599269 0.18964103 52 27
1.6335343 -0.39201626 0.15723671 9 26
1.6195735 -0.1706892 0.11087968 37 25
1.6726358 -0.17678487 0.038239781 6 23
1.7098606 -0.18126799 -0.039110187 42 21
1.7559201 -0.18609077 -0.11981915 21 19
1.576609 -0.17124161 0.1893381 39 27
1.6345732 -0.39830834 0.15747459 9 26
1.6189678 -0.17634152 0.11087968 44 25
1.6670067 -0.18237783 0.038123727 6 23
1.7067326 -0.18696678 -0.039052162 44 21
1.7552598 -0.19221894 -0.11981915 9 19
1.5735043 -0.17674585 0.18903515 25 27
1.6355172 -0.40489787 0.15771246 9 26
1.6158316 -0.18199873 0.11070616 41 25
1.6713281 -0.18874939 0.038239781 6 23
1.7134874 -0.1940542 -0.039226241 43 21
1.7644578 -0.19975956 -0.12050975 8 19
1.5827398 -0.18336445 0.19024691 32 27
1.6365784 -0.41092843 0.15795034 9 26
1.6250978 -0.18877417 0.11140025 24 25
1.6756247 -0.19515333 0.038355835 9 23
1.7153174 -0.20002122 -0.039284267 44 21
1.7637498 -0.20591745 -0.12050975 8 19
1.577194 -0.18803209 0.18964103 51 27
1.6351341 -0.41663867 0.15795034 9 26
1.6318929 -0.19503893 0.1119208 7 25
1.6600764 -0.19894624 0.038007673 32 23
1.7121269 -0.20571296 -0.039226241 44 21
1.7655339 -0.21205913 -0.1206824 8 19
1.5814551 -0.19413351 0.19024691 52 27
1.6336697 -0.42234379 0.15795034 19 26
1.6287266 -0.20043322 0.11174729 6 25
1.6642979 -0.2056351 0.038123727 50 23
1.7163599 -0.21229471 -0.039342295 43 21
1.769734 -0.21882601 -0.12102769 8 19
1.5831953 -0.2002361 0.19054987 51 27
1.6345171 -0.42896357 0.15818822 23 26
1.6329304 -0.20702143 0.11209433 6 25
1.6660498 -0.21175484 0.038181756 49 23
1.7130907 -0.21827169 -0.039284267 40 21
1.7664458 -0.2249992 -0.12085505 8 19
1.5800254 -0.2054451 0.19024691 50 27
1.6282017 -0.43337995 0.15771246 17 26
1.6321977 -0.21272019 0.11209433 6 25
1.6653005 -0.21756914 0.038181756 50 23
1.7147969 -0.22457118 -0.039342295 28 21
1.7681229 -0.23148422 -0.12102769 8 19
1.5842191 -0.21160869 0.19085279 46 27
1.6266789 -0.43906075 0.15771246 15 26
1.6438072 -0.22005254 0.11296193 6 25
1.6670085 -0.22370966 0.038239781 50 23
1.7239125 -0.23187433 -0.039574403 10 21
1.7648319 -0.23732574 -0.12085505 8 19
1.5834709 -0.21713734 0.19085279 45 27
1.633144 -0.22444566 0.11226784 7 25
1.6662174 -0.22952722 0.038239781 49 23
1.7329978 -0.23924384 -0.039806508 8 21
1.7689347 -0.24415995 -0.12120035 8 19
1.5851611 -0.22300532 0.19115575 40 27
1.6422309 -0.23152304 0.11296193 9 25
1.6654061 -0.23534203 0.038239781 49 23
1.7395775 -0.24633259 -0.03998059 8 21
1.7705415 -0.25067943 -0.12137299 8 19
1.5794597 -0.22783618 0.19054987 25 27
1.6290685 -0.23548847 0.11209433 29 25
1.6695224 -0.24186343 0.038355835 49 23
1.7362771 -0.25174472 -0.039922561 8 21
1.7721246 -0.25721312 -0.12154565 8 19
1.5836065 -0.23378992 0.19115575 6 27
1.625811 -0.24052802 0.1119208 51 25
1.6687112 -0.24739842 0.038355835 48 23
1.7378606 -0.25816771 -0.03998059 8 21
1.7687943 -0.26272523 -0.12137299 8 19
1.5901434 -0.24041799 0.19206455 6 27
1.6274278 -0.24657163 0.11209433 48 25
1.6702648 -0.25388494 0.038413864 43 23
1.7369488 -0.2642324 -0.03998059 8 21
1.7654004 -0.26852623 -0.12120035 8 19
1.5867988 -0.24586833 0.19176163 6 27
1.6314434 -0.25329274 0.11244137 45 25
1.6817192 -0.26161689 0.038704 31 23
1.7359687 -0.27059686 -0.03998059 8 21
1.7693338 -0.2757563 -0.12154565 8 19
1.5932854 -0.25256014 0.19267043 7 27
1.6305492 -0.25898597 0.11244137 46 25
1.678327 -0.26709631 0.038645972 12 23
1.7350135 -0.2766549 -0.03998059 8 21
1.7683606 -0.28193077 -0.12154565 8 19
1.5874937 -0.25733352 0.19206455 7 27
1.6320974 -0.26507223 0.11261488 46 25
1.6872543 -0.27454466 0.03887808 9 23
1.736554 -0.28280517 -0.040038615 8 21
1.5841829 -0.26219499 0.19176163 7 27
1.6336704 -0.27088735 0.11278841 46 25
1.6887517 -0.28083909 0.038936108 8 23
1.7281582 -0.28764442 -0.039864536 8 21
1.5905533 -0.26923084 0.19267043 8 27
1.6302071 -0.27645987 0.11261488 37 25
1.6852965 -0.28631711 0.03887808 8 23
1.7394148 -0.29605624 -0.040154673 8 21
1.5847119 -0.27394331 0.19206455 30 27
1.6341482 -0.28299251 0.11296193 41 25
1.6842868 -0.29219815 0.03887808 8 23
1.7383708 -0.30212614 -0.040154673 8 21
1.593524 -0.28118333 0.19327632 51 27
1.635607 -0.28912553 0.11313545 46 25
1.6857182 -0.29850793 0.038936108 8 23
1.7348977 -0.3074564 -0.040096644 8 21
1.5950259 -0.28690174 0.19357927 52 27
1.6370943 -0.29498649 0.11330897 34 25
1.6871792 -0.30453673 0.038994133 9 23
1.7313539 -0.31306913 -0.040038615 8 21
1.5964562 -0.29291177 0.1938822 49 27
1.6434152 -0.30204085 0.11382953 17 25
1.6885103 -0.31116799 0.039052162 9 23
1.742543 -0.32136023 -0.040328752 8 21
1.5929321 -0.29830807 0.19357927 44 27
1.6496527 -0.30943078 0.11435009 9 25
1.6947848 -0.31843424 0.039226241 9 23
1.7413534 -0.32774481 -0.040328752 8 21
1.5943193 -0.3043282 0.1938822 43 27
1.6559136 -0.31658158 0.11487066 9 25
1.6887522 -0.32341495 0.039110187 8 23
1.5933012 -0.30961347 0.1938822 41 27
1.6524059 -0.32159814 0.11469713 9 25
1.6901243 -0.32948801 0.039168216 8 23
1.5897759 -0.31469509 0.19357927 38 27
1.6512733 -0.32736415 0.11469713 9 25
1.6864532 -0.33519667 0.039110187 8 23
1.5959116 -0.32198113 0.19448809 30 27
1.6549528 -0.33439496 0.11504417 9 25
1.6901736 -0.34206608 0.039226241 8 23
1.5923464 -0.32705432 0.19418515 20 27
1.6586626 -0.34116766 0.11539122 9 25
1.6938664 -0.34896547 0.039342295 8 23
1.6009145 -0.33462697 0.19539692 18 27
1.6574616 -0.34695539 0.11539122 9 25
1.6901913 -0.35436666 0.039284267 8 23
1.5949397 -0.33890969 0.19479103 21 27
1.6538619 -0.35193425 0.1152177 9 25
1.6987875 -0.3620396 0.039516374 8 23
1.6034523 -0.34655741 0.1960028 12 27
1.6599383 -0.3592774 0.11573827 8 25
1.7048432 -0.36954537 0.039690454 8 23
1.6045959 -0.35296154 0.19630574 9 27
1.6586103 -0.36535895 0.11573827 9 25
1.7645123 -0.38916618 0.04114113 10 23
1.6081991 -0.3596364 0.19691162 9 27
1.6548902 -0.37060484 0.11556474 9 25
1.6118393 -0.36605939 0.1975175 9 27
1.6609503 -0.37773931 0.11608531 8 25
1.6129705 -0.37223795 0.19782044 9 27
1.6620524 -0.38409287 0.11625882 8 25
1.6164289 -0.37927386 0.19842632 9 27
1.663062 -0.39074898 0.11643235 8 25
1.6150951 -0.38491395 0.19842632 9 27
1.661688 -0.39655173 0.11643235 8 25
1.6089839 -0.38910821 0.19782044 9 27
1.6603637 -0.40205991 0.11643235 8 25
1.6124376 -0.39589852 0.19842632 9 27
1.6158634 -0.40271774 0.1990322 9 27
1.6143765 -0.40863743 0.1990322 9 27
1.6201539 -0.41611156 0.19994102 9 27
1.6186914 -0.4217644 0.19994102 9 27
1.684081 0.19736992 -0.077444941 6 20
1.6914884 0.19254513 0 5 22
1.6823114 0.19091778 -0.077328481 13 20
1.687212 0.18580334 0 8 22
1.6904156 0.18585336 -0.077677861 8 20
1.6629877 0.17729519 0 8 22
1.6935377 0.18021262 -0.077794321 7 20
1.6536181 0.17076552 0 9 22
1.6941259 0.17459565 -0.077794321 21 20
1.6542041 0.16499227 0 8 22
1.6897838 0.16789781 -0.077561401 28 20
1.6572866 0.15916391 0 8 22
1.6903596 0.16199836 -0.077561401 24 20
1.6528528 0.1529239 0 8 22
1.6859406 0.15564422 -0.077328481 24 20
1.6608478 0.1478084 0 8 22
1.6864738 0.14975826 -0.077328481 12 20
1.6072813 0.13802506 0.073601805 9 24
1.6563464 0.14187989 0 8 22
1.6994036 0.14521189 -0.077910781 8 20
1.6177099 0.13322011 0.074067645 9 24
1.651848 0.13569456 0 8 22
1.6949459 0.13858172 -0.077677861 7 20
1.6206771 0.12748247 0.074184105 9 24
1.659812 0.13021603 0 8 22
1.6929294 0.13247284 -0.077561401 8 20
1.6236026 0.12200823 0.074300557 9 24
1.6602565 0.12442142 0 8 22
1.7033439 0.12729418 -0.078027233 8 20
1.6264895 0.11679901 0.074417017 8 24
1.6631536 0.11909039 0 8 22
1.6987741 0.12129573 -0.077794321 8 20
1.6243955 0.11095398 0.074300557 8 24
1.661065 0.11311761 0 8 22
1.7016991 0.11523409 -0.077910781 8 20
1.5621716 0.10104399 0.14629439 8 26
1.622299 0.10484186 0.074184105 9 24
1.6564783 0.10671391 0 8 22
1.709568 0.10976376 -0.078260154 10 20
1.5724516 0.096184216 0.14724588 9 26
1.6276408 0.099476285 0.074417017 7 24
1.654345 0.10078238 0 8 22
1.6999692 0.10320317 -0.077794321 8 20
1.572762 0.09096925 0.14724588 10 26
1.6204981 0.093373336 0.074067645 8 24
1.6621751 0.095426992 0 8 22
1.7077993 0.097686753 -0.078143694 8 20
1.5705845 0.085347176 0.147008 9 26
1.6282802 0.088395067 0.074417017 9 24
1.6649787 0.090046212 0 8 22
1.7031262 0.09176068 -0.077910781 8 20
1.5733587 0.079987176 0.14724588 9 26
1.6310731 0.082834072 0.074533477 8 24
1.6627861 0.084110796 0 9 22
1.7109339 0.085883766 -0.078260154 8 20
1.5786134 0.074447505 0.14772163 9 26
1.6313658 0.076855332 0.074533477 8 24
1.6530936 0.077560447 0 18 22
1.706234 0.079684407 -0.078027233 8 20
1.5738786 0.069001198 0.14724588 9 26
1.6216438 0.070738547 0.074067645 8 24
1.6483587 0.071579352 0 33 22
1.7114919 0.0739372 -0.078260154 9 20
1.5765967 0.063603744 0.14748375 9 26
1.6268603 0.065554932 0.074300557 9 24
1.651085 0.066209637 0 47 22
1.7042414 0.067972377 -0.077910781 11 20
1.5232643 0.056214307 0.23296595 13 28
1.5792964 0.05818817 0.14772163 9 26
1.6320707 0.060052659 0.074533477 9 24
1.6538045 0.060534 0 50 22
1.7069749 0.061812721 -0.078027233 20 20
1.52346 0.050630882 0.23296595 17 28
1.5819863 0.052478403 0.14795952 9 26
1.6297837 0.053991105 0.074417017 9 24
1.6540153 0.054472096 0 50 22
1.704684 0.055775449 -0.077910781 31 20
1.5310345 0.045522191 0.23412499 11 28
1.5771763 0.047090478 0.14748375 9 26
1.6299622 0.048301771 0.074417017 9 24
1.6516964 0.048627932 0 50 22
1.6973796 0.049615469 -0.077561401 34 20
1.5361154 0.040568128 0.23489767 13 28
1.5823069 0.041709036 0.14795952 10 26
1.6251205 0.042771712 0.074184105 15 24
1.6493493 0.043088492 0 51 22
1.6975347 0.043986481 -0.077561401 39 20
1.5313089 0.035099797 0.23412499 18 28
1.5824429 0.036185496 0.14795952 10 26
1.6252599 0.037098721 0.074184105 25 24
1.6544886 0.037437383 0 48 22
1.6976845 0.037764408 -0.077561401 43 20
1.5338967 0.029531002 0.23451132 11 28
1.5825649 0.030385312 0.14795952 9 26
1.6203912 0.031052686 0.073951185 44 24
1.6571141 0.031417195 0 50 22
1.6953089 0.031794567 -0.077444941 45 20
1.5339905 0.024176521 0.23451132 13 28
1.582657 0.025137169 0.14795952 10 26
1.6154957 0.025324799 0.073718272 51 24
1.6547141 0.025597254 0 50 22
1.7004039 0.025946381 -0.077677861 42 20
1.5340623 0.019089494 0.23451132 13 28
1.587712 0.019667242 0.14843526 10 26
1.6180677 0.019994941 0.073834725 51 24
1.65229 0.02008283 0 49 22
1.6979834 0.020280907 -0.077561401 44 20
1.5390593 0.013771574 0.23528402 13 28
1.5877711 0.014124971 0.14843526 10 26
1.620625 0.01436545 0.073951185 50 24
1.6573498 0.014351791 0 49 22
1.6980463 0.014057351 -0.077561401 43 20
1.5341595 0.0081115793 0.23451132 15 28
1.5803462 0.0082767382 0.14772163 10 26
1.6131749 0.0083966991 0.073601805 51 24
1.6573913 0.0082772039 0 48 22
1.7005824 0.0081386957 -0.077677861 43 20
1.4792371 0.0022390625 0.33424622 9 30
1.5341785 0.0027563137 0.23451132 15 28
1.5728995 0.002757644 0.147008 22 26
1.618189 0.0027673601 0.073834725 52 24
1.6649102 0.0024930872 0 28 22
1.7006004 0.0022025055 -0.077677861 42 20
1.4768003 -0.0029159503 0.33368257 20 30
1.531709 -0.0025912265 0.23412499 15 28
1.5753887 -0.0024656781 0.14724588 38 26
1.6206861 -0.002889036 0.073951185 50 24
1.6699088 -0.0033351299 0 9 22
1.703095 -0.003742428 -0.077794321 34 20
1.4840891 -0.0078629162 0.33537352 12 30
1.5415715 -0.0077343429 0.23567036 14 28
1.5803478 -0.0079969373 0.14772163 52 26
1.6206675 -0.0082634091 0.073951185 50 24
1.6598886 -0.0088064065 0 15 22
1.7011179 0.21334037 -0.038994133 9 21
1.7105632 -0.0097396197 -0.078143694 9 20
1.4816148 -0.013276818 0.3348099 17 30
1.5390629 -0.013359429 0.23528402 13 28
1.5778192 -0.013763955 0.14748375 54 26
1.6181291 -0.014178117 0.073834725 50 24
1.6598454 -0.014890144 0 33 22
1.6919661 0.20588221 -0.038762026 21 21
1.7180103 -0.015788993 -0.078493066 6 20
1.4839948 -0.018482544 0.33537352 12 30
1.5315977 -0.01863081 0.23412499 15 28
1.5827383 -0.019339245 0.14795952 52 26
1.6255611 -0.019928345 0.074184105 49 24
1.6597831 -0.020683993 0 41 22
1.667858 0.19700691 -0.038181756 14 21
1.7154477 -0.021751003 -0.078376614 6 20
1.4863567 -0.023705047 0.3359372 12 30
1.5389321 -0.024103701 0.23528402 15 28
1.5801773 -0.024545558 0.14772163 53 26
1.6204877 -0.025517065 0.073951185 47 24
1.6622005 -0.026520787 0 48 22
1.6560892 0.1900322 -0.037891619 11 21
1.7128643 -0.027695315 -0.078260154 6 20
1.488705 -0.028684435 0.33650082 23 30
1.5388438 -0.029206853 0.23528402 12 28
1.5825701 -0.030112073 0.14795952 55 26
1.6203941 -0.030890657 0.073951185 37 24
1.6621034 -0.032032695 0 48 22
1.6666768 0.18536979 -0.038123727 8 21
1.7202535 -0.03353082 -0.078609534 6 20
1.5412017 -0.034637295 0.23567036 12 28
1.5824553 -0.03563609 0.14795952 53 26
1.6277661 -0.036725819 0.074300557 30 24
1.6644807 -0.037894536 0 47 22
1.6697981 0.1798221 -0.038181756 8 21
1.7126292 -0.039652593 -0.078260154 6 20
1.5336573 -0.040081538 0.23451132 20 28
1.5823141 -0.041435841 0.14795952 52 26
1.6201316 -0.042485066 0.073951185 38 24
1.6618315 -0.043925535 0 18 22
1.6679605 0.17343865 -0.038123727 8 21
1.7224656 -0.045909457 -0.078725986 7 20
1.5359769 -0.04551148 0.23489767 38 28
1.5846473 -0.047036197 0.1481974 51 26
1.6224697 -0.048217691 0.074067645 49 24
1.6436336 0.16565466 0.037543457 2 23
1.6616681 -0.049726143 0 7 22
1.6735287 0.16812222 -0.038239781 8 21
1.7098147 -0.051529497 -0.078143694 31 20
1.5284032 -0.050616745 0.23373863 48 28
1.5795083 -0.052119713 0.14772163 45 26
1.627283 -0.054053437 0.074300557 50 24
1.634253 0.1589338 0.037311349 8 23
1.6664814 -0.055699769 0 6 22
1.6765643 0.16281687 -0.03829781 8 21
1.7146159 -0.057671852 -0.078376614 43 20
1.528227 -0.055684838 0.23373863 56 28
1.5867772 -0.057915602 0.14843526 35 26
1.6221039 -0.059260294 0.074067645 51 24
1.6273335 0.15251741 0.037137266 9 23
1.6662875 -0.061225716 0 6 22
1.6721461 0.15649056 -0.038181756 8 21
1.7044224 -0.063273169 -0.077910781 45 20
1.5280126 -0.061285693 0.23373863 56 28
1.5840679 -0.063627705 0.1481974 17 26
1.6318563 -0.06562002 0.074533477 48 24
1.632834 0.14729254 0.037253324 9 23
1.666052 -0.067332551 0 6 22
1.6727085 0.15036078 -0.038181756 8 21
1.7091813 -0.069431476 -0.078143694 43 20
1.5302569 -0.066730261 0.23412499 50 28
1.5937806 -0.069604844 0.1491489 10 26
1.6316173 -0.071315855 0.074533477 49 24
1.640807 0.14225069 0.037427403 9 23
1.6757965 -0.073599637 0 7 22
1.6732231 0.14452103 -0.038181756 8 21
1.7114232 -0.075510494 -0.078260154 44 20
1.5423497 -0.072670422 0.2360567 9 28
1.583598 -0.074408561 0.1481974 45 26
1.641336 -0.077495322 0.074999318 46 24
1.6412936 0.13652234 0.037427403 9 23
1.6755294 -0.079448812 0 7 22
1.6736932 0.13897161 -0.038181756 8 21
1.7161378 -0.081728004 -0.078493066 42 20
1.5347004 -0.077400722 0.23489767 7 28
1.5882993 -0.08019378 0.14867315 52 26
1.6158774 0.12953712 0.11035912 6 25
1.6435637 -0.083067149 0.07511577 9 24
1.6417372 0.13107885 0.037427403 9 23
1.68025 -0.085264564 0 7 22
1.6741681 0.13312849 -0.038181756 8 21
1.7158573 -0.087418474 -0.078493066 43 20
1.7805206 -0.091724701 -0.15692475 8 18
1.5442858 -0.083303705 0.23644306 7 28
1.5880096 -0.085737482 0.14867315 54 26
1.6038877 0.12292401 0.10949152 8 25
1.6382768 -0.08852756 0.074882858 7 24
1.6372012 0.12495948 0.037311349 9 23
1.6674614 -0.090435803 0 36 22
1.669639 0.12689765 -0.038065702 8 21
1.7155418 -0.0934074 -0.078493066 36 20
1.7777034 -0.09779945 -0.15670121 8 18
1.539054 -0.088403367 0.23567036 7 28
1.5877007 -0.091280155 0.14867315 52 26
1.60182 0.11713894 0.109318 9 25
1.640451 -0.094392478 0.074999318 6 24
1.6426332 0.11932757 0.037427403 9 23
1.6696312 -0.096403167 0 47 22
1.6725641 0.1212531 -0.038123727 8 21
1.7201736 -0.099990748 -0.078725986 9 20
1.7773513 -0.1040042 -0.15670121 8 18
1.5461152 -0.094506375 0.23682939 7 28
1.5898392 -0.097254142 0.14891101 52 26
1.6097016 0.11179692 0.10983856 9 25
1.6450787 -0.10071627 0.07523223 6 24
1.6430396 0.11359299 0.037427403 9 23
1.6717618 -0.10267857 0 49 22
1.6804769 0.11564767 -0.03829781 8 21
1.7198141 -0.10599468 -0.078725986 7 20
1.7819281 -0.11083311 -0.15714829 8 18
