# .PCD v0.7 - Point Cloud Data file format
VERSION 0.7
FIELDS x y z intensity ring
SIZE 4 4 4 4 2
TYPE F F F F U
COUNT 1 1 1 1 1
WIDTH 1073
HEIGHT 1
VIEWPOINT 0 0 0 1 0 0 0
POINTS 1073
DATA ascii
1.6345013 -0.10576478 0.25073782 113 28
1.634207 -0.1054711 0.15319282 71 26
1.6623367 0.10970304 0.11348249 47 25
1.6596681 -0.10744585 0.075930983 10 24
1.6633759 0.10919607 0.037891619 34 23
1.6489424 -0.10702623 0 69 22
1.6783574 0.10990743 -0.038239781 8 21
1.6471716 -0.10719765 -0.07534869 71 20
1.6724064 0.10920977 -0.11360374 27 19
1.6647817 -0.10894486 -0.14664192 70 18
1.6631409 -0.10941229 -0.2267247 39 16
1.6366056 -0.1113554 0.25112417 115 28
1.6338288 -0.11117491 0.15319282 71 26
1.6626914 0.10418993 0.11348249 49 25
1.6543202 -0.11260313 0.075698063 36 24
1.6662232 0.10383863 0.037949648 36 23
1.6460844 -0.11232021 0 73 22
1.6812252 0.10420643 -0.03829781 8 21
1.6468071 -0.11265928 -0.07534869 68 20
1.6702703 0.10350534 -0.11343109 29 19
1.6619072 -0.1145808 -0.14641838 71 18
1.6602788 -0.11504263 -0.22638066 64 16
1.6337434 -0.11688794 0.25073782 112 28
1.6309487 -0.11669639 0.15295492 71 26
1.6630449 0.098385423 0.11348249 61 25
1.6539171 -0.1183771 0.075698063 17 24
1.6616029 0.097430982 0.037833594 40 23
1.6481756 -0.11824767 0 73 22
1.6865684 0.098636292 -0.038413864 9 21
1.6488736 -0.11887727 -0.07546515 67 20
1.6656423 0.097375952 -0.11308579 28 19
1.6614971 -0.12038124 -0.14641838 71 18
1.6573977 -0.12065429 -0.22603661 62 16
1.6357669 -0.12306375 0.25112417 109 28
1.6329916 -0.12286339 0.15319282 71 26
1.6584145 0.092005752 0.11313545 65 25
1.6534721 -0.12443821 0.075698063 10 24
1.6644282 0.091771565 0.037891619 43 23
1.6477312 -0.12428773 0 69 22
1.6794324 0.092032887 -0.038239781 9 21
1.6459587 -0.1244406 -0.07534869 68 20
1.665988 0.091270417 -0.11308579 31 19
1.6610447 -0.1264701 -0.14641838 69 18
1.6569444 -0.12672815 -0.22603661 50 16
1.627941 -0.1281812 0.24996512 103 28
1.6300719 -0.12836413 0.15295492 58 26
1.661216 0.086349368 0.11330897 73 25
1.6580061 -0.13060796 0.075930983 10 24
1.6647384 0.085961066 0.037891619 43 23
1.6497793 -0.1302387 0 33 22
1.6847352 0.086433358 -0.038355835 9 21
1.6480036 -0.13038558 -0.07546515 68 20
1.6662965 0.085454479 -0.11308579 41 19
1.6581115 -0.1320665 -0.14619485 69 18
1.65896 -0.13271193 -0.22638066 46 16
1.622561 -0.13345136 0.24919243 71 28
1.6345973 -0.13418284 0.15343069 16 26
1.6590164 0.08042568 0.11313545 77 25
1.652563 -0.13597851 0.075698063 10 24
1.6600357 0.079901852 0.037775565 42 23
1.6518059 -0.13620546 0 10 22
1.6725311 0.080229118 -0.038065702 10 21
1.6425613 -0.13571948 -0.07523223 71 20
1.6640936 0.079514802 -0.11291315 54 19
1.6601454 -0.13777348 -0.14641838 67 18
1.6560434 -0.13800359 -0.22603661 42 16
1.6196488 -0.13861726 0.24880609 63 28
1.6390775 -0.14031902 0.15390643 10 26
1.6567827 0.074807562 0.11296193 77 25
1.6570787 -0.14189054 0.075930983 10 24
1.665285 0.074627645 0.037891619 50 23
1.6488546 -0.14146529 0 10 22
1.6678076 0.074161038 -0.037949648 33 21
1.6421022 -0.14116566 -0.07523223 46 20
1.6668395 0.074110471 -0.11308579 59 19
1.6522132 -0.142914 -0.14574777 67 18
1.6555517 -0.14378342 -0.22603661 52 16
1.6216151 -0.1444926 0.24919243 86 28
1.6336207 -0.1455911 0.15343069 25 26
1.6545421 0.068916373 0.11278841 80 25
1.6590606 -0.147899 0.076047435 10 24
1.6655473 0.068523571 0.037891619 59 23
1.6508404 -0.14744569 0 10 22
1.6680564 0.068338849 -0.037949648 59 21
1.6465478 -0.14763598 -0.07546515 56 20
1.667088 0.068291664 -0.11308579 58 19
1.6566635 -0.14913349 -0.14619485 63 18
1.7075416 0.069703758 -0.19162399 7 17
1.6550397 -0.14956149 -0.22603661 48 16
1.6309108 -0.1513615 0.25073782 108 28
1.6281208 -0.15111098 0.15295492 14 26
1.6547835 0.06285172 0.11278841 86 25
1.6560209 -0.15374461 0.075930983 10 24
1.6607816 0.06251394 0.037775565 62 23
1.6453111 -0.15302567 0 10 22
1.6657982 0.06212784 -0.037891619 39 21
1.64105 -0.15291257 -0.07523223 71 20
1.6673272 0.062181015 -0.11308579 39 19
1.6561058 -0.15520446 -0.14619485 63 18
1.6904012 0.063069403 -0.18963383 10 17
1.6544802 -0.15562652 -0.22603661 47 16
1.6303725 -0.15705352 0.25073782 108 28
1.6494023 0.057444345 0.19721456 32 27
1.625134 -0.15626763 0.15271705 46 26
1.6549928 0.057075061 0.11278841 96 25
1.6529888 -0.15928145 0.075814523 10 24
1.658492 0.056627378 0.03771754 62 23
1.6422789 -0.15852444 0 32 22
1.6684928 0.056692049 -0.037949648 11 21
1.6429917 -0.15888366 -0.07534869 74 20
1.6700265 0.056448489 -0.11325844 16 19
1.6605382 -0.16118315 -0.14664192 64 18
1.6831642 0.056905765 -0.1887809 28 17
1.6539551 -0.16111211 -0.22603661 53 16
1.6298429 -0.16245915 0.25073782 110 28
1.6545441 0.052138098 0.19782044 96 27
1.6270546 -0.16218965 0.15295492 71 26
1.6501878 0.051423829 0.11244137 97 25
1.6524515 -0.16476206 0.075814523 10 24
1.6561725 0.051046621 0.037659511 55 23
1.6392567 -0.16371779 0 65 22
1.6761745 0.051107012 -0.038123727 8 21
1.6424557 -0.16433115 -0.07534869 73 20
1.6702045 0.050910171 -0.11325844 8 19
1.6550111 -0.16647354 -0.14619485 77 18
1.6858261 0.051403195 -0.1890652 28 17
1.6509193 -0.16663256 -0.22569257 61 16
1.6292658 -0.16814739 0.25073782 108 28
1.6571966 0.046435539 0.19812338 103 27
1.6264786 -0.16786815 0.15295492 71 26
1.6553431 0.045808643 0.11278841 97 25
1.6493827 -0.17026947 0.075698063 12 24
1.6588469 0.045047633 0.03771754 29 23
1.6411617 -0.16969933 0 73 22
1.6738446 0.045184672 -0.038065702 8 21
1.6418424 -0.17034994 -0.07534869 75 20
1.6753581 0.045221649 -0.11360374 8 19
1.656896 -0.17251073 -0.14641838 79 18
1.6835204 0.045153774 -0.1887809 27 17
1.6527901 -0.17265488 -0.22603661 50 16
1.626183 -0.17385191 0.25035146 107 28
1.6573557 0.040361296 0.19812338 104 27
1.6233782 -0.17356046 0.15271705 69 26
1.6505136 0.039614119 0.11244137 97 25
1.6512301 -0.17658244 0.075814523 37 24
1.663991 0.039382517 0.037833594 9 23
1.6405287 -0.17571335 0 73 22
1.6764975 0.039111353 -0.038123727 8 21
1.6362724 -0.17554061 -0.07511577 73 20
1.6755127 0.039080847 -0.11360374 8 19
1.6587279 -0.1788526 -0.14664192 87 18
1.6886339 0.039400015 -0.18934952 28 17
1.6570691 -0.17925064 -0.2267247 53 16
1.6255662 -0.1795273 0.25035146 105 28
1.6574866 0.034575798 0.19812338 105 27
1.6252356 -0.17950258 0.15295492 69 26
1.6506418 0.033852506 0.11244137 98 25
1.6456403 -0.18179025 0.075581603 12 24
1.6541234 0.033357523 0.037601486 17 23
1.6399053 -0.18143877 0 73 22
1.6691276 0.033099409 -0.037949648 9 21
1.6381315 -0.18152957 -0.07523223 75 20
1.6781323 0.033285085 -0.11377639 8 19
1.6556193 -0.18436269 -0.14641838 91 18
1.6887612 0.033505347 -0.18934952 29 17
1.6515123 -0.18447748 -0.22603661 61 16
1.6249297 -0.18520048 0.25035146 104 28
1.6575972 0.02878988 0.19812338 102 27
1.6246314 -0.18489107 0.15295492 69 26
1.6532434 0.028136618 0.11261488 98 25
1.6499572 -0.18810582 0.075814523 10 24
1.6492319 0.027492624 0.037485432 46 23
1.6367786 -0.1868751 0 56 22
1.674226 0.027654054 -0.038065702 9 21
1.6399684 -0.18753363 -0.07534869 74 20
1.6707574 0.027293915 -0.11325844 8 19
1.6599454 -0.19042604 -0.14686546 96 18
1.6888679 0.027610267 -0.18934952 31 17
1.6533511 -0.1902394 -0.22638066 62 16
1.6243067 -0.19058794 0.25035146 105 28
1.655202 0.023254383 0.19782044 105 27
1.6190335 -0.18997423 0.15247917 38 26
1.650834 0.022616249 0.11244137 101 25
1.6468445 -0.19328186 0.075698063 10 24
1.6568111 0.02213465 0.037659511 63 23
1.6435974 -0.19318725 0 17 22
1.6718131 0.021773539 -0.038007673 9 21
1.6418173 -0.19326618 -0.07546515 75 20
1.6733325 0.02178946 -0.11343109 9 19
1.6567982 -0.19592348 -0.14664192 97 18
1.6814995 0.021901686 -0.18849659 32 17
1.6502184 -0.19571459 -0.22603661 60 16
1.6285348 -0.19685613 0.25112417 97 28
1.6577545 0.017506395 0.19812338 108 27
1.6282414 -0.19683254 0.15343069 12 26
1.648409 0.016824458 0.11226784 102 25
1.6486385 -0.19933228 0.075814523 10 24
1.6568811 0.016061984 0.037659511 64 23
1.6429131 -0.1989233 0 10 22
1.6693798 0.01591021 -0.037949648 29 21
1.6386193 -0.1989781 -0.07534869 74 20
1.6634227 0.015838614 -0.11274049 23 19
1.6585755 -0.2020099 -0.14686546 97 18
1.6691505 0.015604154 -0.18707505 36 17
1.6519827 -0.20177725 -0.22638066 58 16
1.655326 0.011409513 0.19782044 109 27
1.6299783 -0.20311007 0.15366857 10 26
1.6484596 0.010782626 0.11226784 97 25
1.6478969 -0.2053735 0.075814523 10 24
1.6569271 0.010278293 0.037659511 66 23
1.6396925 -0.20463063 0 10 22
1.65943 0.0097182374 -0.03771754 57 21
1.6379148 -0.20469674 -0.07534869 53 20
1.6609756 0.009723478 -0.11256784 52 19
1.6553539 -0.20777418 -0.14664192 99 18
1.674162 0.009814051 -0.18764366 41 17
1.6463192 -0.20720571 -0.22569257 62 16
1.6603189 0.0056555318 0.19842632 112 27
1.6317638 -0.2088334 0.15390643 9 26
1.6459934 0.0050170445 0.11209433 73 25
1.6521233 -0.21176602 0.076047435 10 24
1.656953 0.0044944752 0.037659511 66 23
1.6439267 -0.21099611 0 10 22
1.659453 0.0042153159 -0.03771754 55 21
1.6396668 -0.21073452 -0.07546515 71 20
1.6585053 0.0039159553 -0.11239519 47 19
1.6546558 -0.21326238 -0.14664192 98 18
1.6717024 0.0039605377 -0.18735935 56 17
1.6554445 -0.21394654 -0.22706875 58 16
1.657847 0.00014578737 0.19812338 118 27
1.6236241 -0.21354447 0.15319282 24 26
1.6509887 -0.00043519936 0.11244137 65 25
1.6514119 -0.21724349 0.076047435 10 24
1.6569587 -0.0010002031 0.037659511 66 23
1.6407399 -0.21611664 0 13 22
1.6644562 -0.0015746646 -0.037833594 27 21
1.6364834 -0.21584085 -0.07534869 71 20
1.6634973 -0.001581257 -0.11274049 26 19
1.6563693 -0.21936707 -0.14686546 97 18
1.6741902 -0.001581748 -0.18764366 61 17
1.6743214 -0.22235747 -0.22982109 52 16
1.6503927 -0.0056268866 0.19721456 122 27
1.6204029 -0.21887425 0.15295492 65 26
1.6484832 -0.006192564 0.11226784 66 25
1.6531178 -0.22334433 0.076163903 10 24
1.6544459 -0.0067775189 0.037601486 62 23
1.6325445 -0.22082728 0 53 22
1.6694393 -0.0073995232 -0.037949648 9 21
1.6357201 -0.22155191 -0.07534869 66 20
1.6709638 -0.007410137 -0.11325844 9 19
1.6555934 -0.22514753 -0.14686546 97 18
1.6766579 -0.0074331216 -0.18792796 58 17
1.6503608 -0.01167584 0.19721456 128 27
1.6220543 -0.22515734 0.15319282 78 26
1.6459556 -0.012219718 0.11209433 69 25
1.649815 -0.22905511 0.076047435 10 24
1.6594085 -0.012872729 0.03771754 37 23
1.6342001 -0.22715688 0 73 22
1.6743996 -0.013551426 -0.038065702 9 21
1.6299511 -0.22685055 -0.07511577 95 20
1.6634436 -0.013484852 -0.11274049 8 19
1.6498259 -0.23051843 -0.14641838 96 18
1.6766195 -0.013578331 -0.18792796 41 17
1.6478288 -0.017414084 0.19691162 134 27
1.6261854 -0.23152618 0.15366857 96 26
1.6483967 -0.017988602 0.11226784 67 25
1.6415899 -0.23374666 0.075698063 36 24
1.6518557 -0.018591782 0.037543457 13 23
1.6333971 -0.23285994 0 73 22
1.6718426 -0.019370787 -0.038007673 9 21
1.6415081 -0.23431969 -0.075698063 105 20
1.6658802 -0.019316519 -0.11291315 8 19
1.6539398 -0.23698886 -0.14686546 99 18
1.6790456 -0.019455886 -0.18821228 23 17
1.6477579 -0.023165973 0.19691162 136 27
1.6254086 -0.23691754 0.15366857 102 26
1.6433363 -0.023678051 0.1119208 67 25
1.6382933 -0.2391115 0.075581603 16 24
1.6617771 -0.024490327 0.037775565 10 23
1.6325743 -0.23856014 0 73 22
1.6667712 -0.024847537 -0.037891619 9 21
1.6456213 -0.24077781 -0.075930983 114 20
1.6633087 -0.025097456 -0.11274049 8 19
1.6531448 -0.24247222 -0.14686546 99 18
1.6839346 -0.025384355 -0.1887809 9 17
1.6476721 -0.028630007 0.19691162 128 27
1.6270325 -0.24296068 0.15390643 118 26
1.6357679 -0.029005986 0.11140025 68 25
1.647369 -0.24603155 0.076047435 10 24
1.649192 -0.029793652 0.037485432 33 23
1.6317742 -0.24397261 0 71 22
1.6691732 -0.030707814 -0.037949648 9 21
1.6423444 -0.24586055 -0.075814523 116 20
1.6657101 -0.03065527 -0.11291315 8 19
1.6522886 -0.24824128 -0.14686546 97 18
1.6689408 -0.03071606 -0.18707505 31 17
1.6450809 -0.034333207 0.19660868 147 27
1.6261746 -0.2486386 0.15390643 123 26
1.6406437 -0.034814067 0.11174729 68 25
1.6465001 -0.25178042 0.076047435 9 24
1.6540694 -0.035939239 0.037601486 63 23
1.6309127 -0.24966708 0 32 22
1.6715546 -0.03658516 -0.038007673 9 21
1.6414323 -0.25187841 -0.075814523 116 20
1.6655929 -0.036469497 -0.11291315 8 19
1.6514119 -0.25400737 -0.14686546 97 18
1.6688169 -0.036832824 -0.18707505 62 17
1.6846051 -0.036587998 -0.28769323 31 15
1.6424631 -0.040305335 0.19630574 149 27
1.6178778 -0.2534318 0.15319282 124 26
1.6405051 -0.040827096 0.11174729 68 25
1.6455663 -0.25781345 0.076047435 9 24
1.6539339 -0.041712798 0.037601486 66 23
1.6373944 -0.25681496 0 9 22
1.6614149 -0.042470701 -0.037775565 20 21
1.640543 -0.25760651 -0.075814523 118 20
1.6579682 -0.042393763 -0.11239519 10 19
1.6480107 -0.25966755 -0.14664192 97 18
1.666195 -0.042598043 -0.18679073 68 17
1.7017022 -0.042877324 -0.29069901 31 15
1.6398317 -0.045972526 0.1960028 168 27
1.6268561 -0.26038188 0.15414432 117 26
1.6378593 -0.046486255 0.11157376 68 25
1.6495868 -0.2643528 0.076280355 10 24
1.6512797 -0.047417808 0.037543457 67 23
1.6414238 -0.26332754 0 9 22
1.6562681 -0.047842965 -0.037659511 48 21
1.6420989 -0.26373079 -0.075930983 120 20
1.6503308 -0.047974594 -0.11187725 38 19
1.6520562 -0.26592904 -0.147089 100 18
1.6635534 -0.048345406 -0.18650644 69 17
1.6719989 -0.048012536 -0.28554627 30 15
1.6347094 -0.051262051 0.19539692 196 27
1.6283926 -0.26646426 0.15438218 116 26
1.6376963 -0.051917333 0.11157376 68 25
1.6388453 -0.26819524 0.075814523 10 24
1.6511133 -0.052893385 0.037543457 66 23
1.6430082 -0.26917669 0 9 22
1.6610874 -0.053778522 -0.037775565 65 21
1.6387515 -0.2687673 -0.075814523 122 20
1.6526554 -0.053524051 -0.11204989 57 19
1.6511179 -0.27169418 -0.147089 99 18
1.6633838 -0.053861681 -0.18650644 69 17
1.6718304 -0.053556815 -0.28554627 29 15
1.6295277 -0.055402171 0.30783707 48 29
1.6345204 -0.056967936 0.19539692 207 27
1.6299065 -0.27256054 0.15462007 114 26
1.6424901 -0.057801627 0.1119208 70 25
1.6452867 -0.27515984 0.076163903 9 24
1.6484106 -0.058859184 0.037485432 66 23
1.6420586 -0.27491021 0 9 22
1.6633874 -0.059662391 -0.037833594 40 21
1.6402177 -0.2751883 -0.075930983 124 20
1.6574436 -0.059464041 -0.11239519 33 19
1.6477045 -0.27703992 -0.14686546 98 18
1.6631753 -0.059957925 -0.18650644 69 17
1.6667 -0.059515554 -0.28468749 30 15
1.6293137 -0.061374314 0.30783707 100 29
1.629341 -0.062774777 0.19479103 220 27
1.6239917 -0.27768716 0.15414432 113 26
1.639775 -0.063728146 0.11174729 70 25
1.6418062 -0.28076404 0.076047435 9 24
1.6506925 -0.064707048 0.037543457 67 23
1.6311855 -0.27922642 0 31 22
1.66066 -0.065663539 -0.037775565 11 21
1.6392472 -0.28091204 -0.075930983 128 20
1.6547225 -0.065443613 -0.11222254 10 19
1.6466781 -0.28307718 -0.14686546 98 18
1.6604739 -0.065668643 -0.18622212 69 17
1.6640211 -0.065240234 -0.2842581 30 15
1.6290895 -0.067061305 0.30783707 101 29
1.6415095 -0.068964139 0.19630574 205 27
1.623062 -0.28307098 0.15414432 111 26
1.6345589 -0.069247983 0.11140025 68 25
1.6432756 -0.28692609 0.076163903 9 24
1.6504567 -0.070468649 0.037543457 55 23
1.630201 -0.28491867 0 70 22
1.6554387 -0.070963413 -0.037659511 9 21
1.6407161 -0.28706601 -0.076047435 131 20
1.6519921 -0.071115702 -0.11204989 9 19
1.6481823 -0.28896946 -0.147089 98 18
1.6651978 -0.071670666 -0.18679073 58 17
1.6687049 -0.071251191 -0.28511688 31 15
1.6288582 -0.072463192 0.30783707 101 29
1.6363134 -0.074189834 0.19569986 153 27
1.6171649 -0.28785592 0.15366857 110 26
1.6393033 -0.07488817 0.11174729 37 25
1.6423151 -0.29237381 0.076163903 9 24
1.6477171 -0.075830176 0.037485432 27 23
1.6292471 -0.29032302 0 76 22
1.6626714 -0.077077754 -0.037833594 9 21
1.6348393 -0.29162166 -0.075814523 140 20
1.6592218 -0.076929018 -0.11256784 9 19
1.6471635 -0.29472092 -0.147089 98 18
1.664951 -0.077192269 -0.18679073 32 17
1.6635386 -0.076565281 -0.2842581 30 15
1.6334995 -0.078376368 0.30878425 100 29
1.6335658 -0.079783857 0.19539692 107 27
1.6283902 -0.29573897 0.15485795 92 26
1.6465054 -0.080966316 0.11226784 18 25
1.6240891 -0.29495808 0.07534869 61 24
1.6449316 -0.0817485 0.037427403 10 23
1.6282239 -0.29600835 0 66 22
1.6598957 -0.082760304 -0.037775565 9 21
1.6362156 -0.29806247 -0.075930983 148 20
1.6614341 -0.08284083 -0.11274049 9 19
1.6461247 -0.3004688 -0.147089 96 18
1.6745802 -0.08377596 -0.18792796 10 17
1.6657066 -0.082780518 -0.28468749 32 15
1.6307496 -0.084240012 0.30831066 98 29
1.6431756 -0.086276293 0.19660868 69 27
1.641216 -0.086744674 0.1119208 31 25
1.622997 -0.30090871 0.07534869 68 24
1.6496282 -0.087748006 0.037543457 22 23
1.6295854 -0.30243358 0 89 22
1.6595813 -0.088843569 -0.037775565 9 21
1.6351653 -0.30377212 -0.075930983 159 20
1.6586287 -0.08880008 -0.11256784 9 19
1.6693169 -0.089362577 -0.18735935 18 17
1.6604885 -0.088340059 -0.28382871 31 15
1.6304455 -0.089931868 0.30831066 96 29
1.6403867 -0.091876462 0.19630574 64 27
1.6359228 -0.092199847 0.11157376 61 25
1.6268433 -0.30750638 0.075581603 64 24
1.6443208 -0.09323021 0.037427403 52 23
1.6358873 -0.30952412 0 108 22
1.6567657 -0.094497412 -0.03771754 9 21
1.634095 -0.30947807 -0.075930983 170 20
1.6583087 -0.094589233 -0.11256784 9 19
1.6615549 -0.094775692 -0.18650644 51 17
1.6601701 -0.094135709 -0.28382871 35 15
1.6276711 -0.095482625 0.30783707 89 29
1.6425332 -0.097745627 0.19660868 69 27
1.6380808 -0.098055035 0.11174729 70 25
1.62576 -0.31318325 0.075581603 88 24
1.6539655 -0.099555321 0.037659511 68 23
1.6347969 -0.31523255 0 118 22
1.6539481 -0.099843994 -0.037659511 10 21
1.6354561 -0.31565675 -0.076047435 178 20
1.6579685 -0.10037724 -0.11256784 9 19
1.6636934 -0.10072146 -0.18679073 66 17
1.66229 -0.10007456 -0.2842581 35 15
1.6273454 -0.10087965 0.30783707 97 29
1.6422 -0.10319193 0.19660868 69 27
1.6377468 -0.10348656 0.11174729 71 25
1.6198125 -0.3176052 0.07534869 103 24
1.6486188 -0.10501775 0.037543457 68 23
1.6312898 -0.32016727 0 117 22
1.6411171 -0.1048386 -0.037369378 35 21
1.6269953 -0.31990847 -0.075698063 188 20
1.6526481 -0.10556411 -0.11222254 29 19
1.6608528 -0.10637313 -0.18650644 63 17
1.654556 -0.10541764 -0.28296992 33 15
1.6269647 -0.1068435 0.30783707 98 29
1.6368581 -0.10888818 0.1960028 65 27
1.6398449 -0.10965118 0.1119208 70 25
1.6235338 -0.32452548 0.075581603 108 24
1.6482421 -0.11077186 0.037543457 68 23
1.6350069 -0.32713151 0 113 22
1.6506976 -0.11151198 -0.037601486 64 21
1.6283165 -0.32607937 -0.075814523 176 20
1.6497614 -0.11145623 -0.11204989 56 19
1.6629497 -0.11233369 -0.18679073 55 17
1.6566358 -0.11135399 -0.28339931 31 15
1.6265819 -0.11252201 0.30783707 100 29
1.6315166 -0.11426193 0.19539692 33 27
1.6369642 -0.11520328 0.11174729 71 25
1.6199447 -0.32968938 0.07546515 103 24
1.6478455 -0.11652463 0.037543457 67 23
1.6338551 -0.33283675 0 114 22
1.6453116 -0.11692636 -0.037485432 60 21
1.6369536 -0.33376986 -0.076280355 154 20
1.6468743 -0.11704119 -0.11187725 47 19
1.667503 -0.11848256 -0.18735935 46 17
1.6611509 -0.11747622 -0.2842581 31 15
1.6261792 -0.11819916 0.30783707 99 29
1.6385334 -0.12049116 0.19630574 10 27
1.6415272 -0.12127674 0.11209433 69 25
1.6212287 -0.33585188 0.075581603 102 24
1.6474286 -0.12227596 0.037543457 68 23
1.630236 -0.33802715 0 109 22
1.6474073 -0.12256351 -0.037543457 27 21
1.6357785 -0.33948189 -0.076280355 141 20
1.6464558 -0.12278915 -0.11187725 22 19
1.6670792 -0.12430252 -0.18735935 46 17
1.6631869 -0.12345265 -0.28468749 31 15
1.6257784 -0.12359111 0.30783707 99 29
1.6356502 -0.12573758 0.1960028 10 27
1.6361421 -0.12634298 0.11174729 70 25
1.6201062 -0.34122622 0.075581603 102 24
1.6445222 -0.1275488 0.037485432 66 23
1.6291062 -0.34343135 0 107 22
1.6594299 -0.12926549 -0.037833594 9 21
1.6297581 -0.34386685 -0.076047435 130 20
1.6534997 -0.12881842 -0.11239519 9 19
1.6641815 -0.12964082 -0.18707505 49 17
1.6627684 -0.1289673 -0.28468749 31 15
1.6352012 -0.1314463 0.1960028 10 27
1.6332048 -0.13185644 0.11157376 58 25
1.616464 -0.34635291 0.07546515 101 24
1.6365694 -0.1329793 0.037311349 40 23
1.6278974 -0.34911591 0 105 22
1.6564772 -0.13485804 -0.037775565 9 21
1.6333686 -0.35089338 -0.076280355 123 20
1.6580123 -0.13498686 -0.11274049 9 19
1.6612192 -0.13554114 -0.18679073 46 17
1.6524644 -0.13427758 -0.28296992 31 15
1.6371818 -0.13764292 0.19630574 10 27
1.6426525 -0.1386659 0.11226784 26 25
1.6200621 -0.35334602 0.075698063 99 24
1.6360952 -0.13869119 0.037311349 17 23
1.6241651 -0.35454369 0 104 22
1.6534812 -0.14072017 -0.03771754 9 21
1.6321337 -0.35659277 -0.076280355 118 20
1.6575063 -0.14106287 -0.11274049 9 19
1.6607358 -0.14133905 -0.18679073 44 17
1.65444 -0.1402493 -0.28339931 34 15
1.6366913 -0.1433569 0.19630574 10 27
1.6396738 -0.14418423 0.11209433 22 25
1.6188189 -0.35899892 0.075698063 98 24
1.640581 -0.14483358 0.037427403 11 23
1.6277975 -0.36130077 0 101 22
1.6579597 -0.14692497 -0.037833594 9 21
1.628442 -0.36174306 -0.076163903 111 20
1.6570039 -0.1468478 -0.11274049 9 19
1.662707 -0.14735086 -0.18707505 51 17
1.6563939 -0.14623646 -0.28382871 31 15
1.636207 -0.14878359 0.19630574 10 27
1.6342187 -0.14917479 0.11174729 44 25
1.6176195 -0.36436516 0.075698063 97 24
1.6326241 -0.14960009 0.037253324 35 23
1.6241523 -0.36614376 0 101 22
1.6524851 -0.15197171 -0.03771754 9 21
1.6588928 -0.37432817 -0.077677861 111 20
1.6565078 -0.15234181 -0.11274049 9 19
1.6597354 -0.15263996 -0.18679073 57 17
1.653447 -0.15150738 -0.28339931 31 15
1.6406195 -0.15495342 0.19691162 10 27
1.633688 -0.15487835 0.11174729 70 25
1.6309392 -0.37337244 0.076396815 78 24
1.6445066 -0.15675031 0.037543457 66 23
1.6228642 -0.37181088 0 99 22
1.6544328 -0.15797295 -0.037775565 9 21
1.6283102 -0.37366459 -0.076280355 99 20
1.6509998 -0.15765636 -0.11239519 9 19
1.6616377 -0.15895505 -0.18707505 59 17
1.6528805 -0.15756655 -0.28339931 32 15
1.6351005 -0.16048813 0.19630574 10 27
1.6306268 -0.1606243 0.11157376 70 25
1.6439495 -0.16248973 0.037543457 69 23
1.6214907 -0.37775648 0 97 22
1.6463803 -0.16330661 -0.037601486 20 21
1.6479286 -0.16346399 -0.11222254 12 19
1.6610727 -0.16475427 -0.18707505 62 17
1.6295918 -0.16570008 0.19569986 13 27
1.6300564 -0.16631527 0.11157376 72 25
1.6458591 -0.16847806 0.037601486 69 23
1.61773 -0.38283527 0 97 22
1.6408268 -0.16854915 -0.037485432 51 21
1.6448666 -0.16896418 -0.11204989 44 19
1.6604874 -0.17055151 -0.18707505 68 17
1.6265351 -0.17113145 0.19539692 38 27
1.634427 -0.17252043 0.1119208 72 25
1.6477467 -0.17448166 0.037659511 69 23
1.6163839 -0.38847986 0 97 22
1.6377732 -0.17372946 -0.037427403 67 21
1.6492277 -0.17522448 -0.11239519 68 19
1.6549416 -0.17582913 -0.18650644 71 17
1.6308935 -0.17705253 0.1960028 66 27
1.6288865 -0.17740677 0.11157376 71 25
1.6446742 -0.17967708 0.037601486 69 23
1.6150868 -0.39383787 0 91 22
1.6495811 -0.18078841 -0.03771754 40 21
1.6511172 -0.18096061 -0.11256784 65 19
1.6518799 -0.18104918 -0.18622212 75 17
1.6327322 -0.1830171 0.19630574 63 27
1.6332148 -0.18364152 0.1119208 70 25
1.6440047 -0.1857039 0.037601486 66 23
1.6137023 -0.39947316 0 91 22
1.64894 -0.18654543 -0.03771754 13 21
1.6479968 -0.18644626 -0.11239519 64 19
1.6561421 -0.18765441 -0.18679073 75 17
1.6320505 -0.18900013 0.19630574 73 27
1.6325308 -0.18962632 0.1119208 67 25
1.6383804 -0.19087036 0.037485432 57 23
1.6122272 -0.40538499 0 96 22
1.6407965 -0.19172862 -0.037543457 10 21
1.64978 -0.19277102 -0.11256784 72 19
1.6530095 -0.19314967 -0.18650644 81 17
1.6363099 -0.19527666 0.19691162 98 27
1.6318588 -0.19532377 0.1119208 37 25
1.6302583 -0.19570559 0.037311349 28 23
1.6156454 -0.41225284 0 84 22
1.6475976 -0.19805257 -0.03771754 10 21
1.6515735 -0.19882308 -0.11274049 96 19
1.6547915 -0.19921179 -0.18679073 81 17
1.6356533 -0.2007018 0.19691162 111 27
1.6386297 -0.2016369 0.11244137 13 25
1.6395241 -0.20232035 0.037543457 9 23
1.6191086 -0.4188669 0 81 22
1.6444151 -0.20349924 -0.037659511 10 21
1.6533809 -0.20460147 -0.11291315 100 19
1.6516564 -0.20439678 -0.18650644 81 17
1.6349428 -0.20641007 0.19691162 122 27
1.6280171 -0.20611732 0.11174729 28 25
1.6362919 -0.20801665 0.037485432 18 23
1.6152194 -0.42387837 0 84 22
1.6461747 -0.20955004 -0.03771754 10 21
1.6452329 -0.20943771 -0.11239519 101 19
1.6508963 -0.21044904 -0.18650644 72 17
1.6341752 -0.21240106 0.19691162 118 27
1.6272507 -0.21208294 0.11174729 58 25
1.633077 -0.21340692 0.037427403 49 23
1.6184847 -0.43108884 0 81 22
1.6453956 -0.21558216 -0.03771754 10 21
1.6494011 -0.21610709 -0.11274049 102 19
1.6501516 -0.21621045 -0.18650644 75 17
1.6334239 -0.21810409 0.19691162 118 27
1.6240278 -0.2174345 0.11157376 73 25
1.6397549 -0.22009261 0.037601486 66 23
1.6145574 -0.43608069 0 84 22
1.6421554 -0.22099465 -0.037659511 13 21
1.6486366 -0.22186327 -0.11274049 102 19
1.6469247 -0.2216416 -0.18622212 76 17
1.6326526 -0.22380447 0.19691162 118 27
1.6282015 -0.22377388 0.1119208 71 25
1.6365001 -0.22547759 0.037543457 66 23
1.6130252 -0.44171387 0 71 22
1.6339451 -0.22571051 -0.037485432 36 21
1.6478522 -0.22761674 -0.11274049 102 19
1.6461409 -0.2273891 -0.18622212 78 17
1.6318613 -0.22950213 0.19691162 115 27
1.6249405 -0.22911149 0.11174729 72 25
1.6357031 -0.23118868 0.037543457 67 23
1.6356628 -0.23147413 -0.037543457 69 21
1.6470475 -0.23336743 -0.11274049 101 19
1.6502566 -0.23382345 -0.18679073 87 17
1.6310914 -0.23491231 0.19691162 113 27
1.6241719 -0.23449875 0.11174729 71 25
1.6324122 -0.23654221 0.037485432 67 23
1.6348447 -0.23718227 -0.037543457 74 21
1.6462646 -0.23882796 -0.11274049 102 19
1.6445135 -0.23887569 -0.18622212 94 17
1.6277637 -0.24052988 0.19660868 109 27
1.6233014 -0.24045005 0.11174729 70 25
1.6365222 -0.2429657 0.037601486 66 23
1.6364372 -0.24353693 -0.037601486 74 21
1.6478456 -0.24522367 -0.11291315 102 19
1.6461269 -0.24497662 -0.18650644 85 17
1.634277 -0.24731337 0.1975175 107 27
1.6199857 -0.24574459 0.11157376 68 25
1.6331924 -0.24830474 0.037543457 64 23
1.6331056 -0.24887478 -0.037543457 75 21
1.6469797 -0.25097424 -0.11291315 103 19
1.6477177 -0.25109175 -0.18679073 88 17
1.6334038 -0.25301656 0.1975175 84 27
1.6215832 -0.25177687 0.11174729 70 25
1.6397264 -0.25514606 0.03771754 40 23
1.6347417 -0.25467008 -0.037601486 71 21
1.6411639 -0.25596035 -0.11256784 103 19
1.6517404 -0.25760007 -0.18735935 76 17
1.623203 -0.25753999 0.1119208 69 25
1.6289958 -0.25902686 0.037485432 13 23
1.6313739 -0.25998512 -0.037543457 88 21
1.6427696 -0.2617901 -0.11274049 103 19
1.6222941 -0.26320446 0.1119208 64 25
1.6329703 -0.26579145 0.037601486 9 23
1.6378587 -0.26687303 -0.03771754 112 21
1.6418458 -0.26752284 -0.11274049 103 19
1.6213186 -0.26914868 0.1119208 70 25
1.6295664 -0.27108344 0.037543457 30 23
1.6467332 -0.27450368 -0.037949648 151 21
1.643315 -0.27394518 -0.11291315 105 19
1.6179098 -0.2743932 0.11174729 99 25
1.6286103 -0.27677006 0.037543457 65 23
1.6458137 -0.27996296 -0.037949648 184 21
1.6423488 -0.27967978 -0.11291315 106 19
1.6268234 -0.28144282 0.11244137 107 25
1.63261 -0.28301573 0.037659511 68 23
1.6399003 -0.28485796 -0.037833594 202 21
1.6414123 -0.28512448 -0.11291315 107 19
1.6282876 -0.28754985 0.11261488 112 25
1.6291 -0.28856537 0.037601486 67 23
1.6364344 -0.29014781 -0.037775565 201 21
1.6428634 -0.29128411 -0.11308579 108 19
1.6272227 -0.29351589 0.11261488 111 25
1.6280828 -0.29425022 0.037601486 68 23
1.6451998 -0.29791063 -0.038007673 190 21
1.6417847 -0.29730359 -0.11308579 109 19
1.623735 -0.29874653 0.11244137 109 25
1.6295043 -0.30038095 0.037659511 71 23
1.639233 -0.30275097 -0.037891619 169 21
1.6431901 -0.30348203 -0.11325844 111 19
1.6202301 -0.30395636 0.11226784 110 25
1.6284459 -0.30606717 0.037659511 69 23
1.6406771 -0.30864373 -0.037949648 149 21
1.6445723 -0.30967388 -0.11343109 113 19
1.624114 -0.31025627 0.11261488 107 25
1.6249667 -0.31099942 0.037601486 66 23
1.6371344 -0.31390181 -0.037891619 139 21
1.6435363 -0.31512579 -0.11343109 115 19
1.6205724 -0.31545073 0.11244137 106 25
1.6262695 -0.31742829 0.037659511 64 23
1.6360288 -0.31961459 -0.037891619 132 21
1.6375294 -0.31991169 -0.11308579 117 19
1.6194055 -0.32138833 0.11244137 104 25
1.6251515 -0.3231031 0.037659511 68 23
1.6323944 -0.32512417 -0.037833594 125 21
1.6412393 -0.32687852 -0.11343109 121 19
1.6182737 -0.32703912 0.11244137 102 25
1.6264642 -0.32926631 0.03771754 65 23
1.6313072 -0.33053559 -0.037833594 120 21
1.6425334 -0.33309764 -0.11360374 121 19
1.6293985 -0.33489618 0.11330897 78 25
1.6229146 -0.33415756 0.037659511 58 23
1.627695 -0.33572665 -0.037775565 117 21
1.6438631 -0.33904287 -0.11377639 104 19
1.6216789 -0.34010363 0.037659511 55 23
1.6265131 -0.34140629 -0.037775565 113 21
1.6229272 -0.34628022 0.03771754 60 23
1.6252508 -0.34736547 -0.037775565 109 21
1.6241516 -0.35246962 0.037775565 93 23
1.6264715 -0.35356387 -0.037833594 108 21
1.6277941 -0.3592068 0.037891619 98 23
1.6252902 -0.35895547 -0.037833594 104 21
1.6241543 -0.36405972 0.037833594 96 23
1.6240271 -0.36462665 -0.037833594 102 21
1.6276844 -0.37111413 0.037949648 96 23
1.6227446 -0.37029332 -0.037833594 100 21
1.6239434 -0.37623301 0.037891619 96 23
1.6213764 -0.3762385 -0.037833594 100 21
1.6250539 -0.38246837 0.037949648 97 23
1.6200533 -0.38189584 -0.037833594 98 21
1.6212772 -0.38756102 0.037891619 97 23
1.6211418 -0.38812694 -0.037891619 97 21
1.6174848 -0.39263198 0.037833594 85 23
1.6222067 -0.39437029 -0.037949648 95 21
1.6161045 -0.39827567 0.037833594 78 23
1.6183927 -0.39943507 -0.037891619 87 21
1.6268319 -0.40692919 0.038123727 71 23
1.619414 -0.40568569 -0.037949648 76 21
1.6229782 -0.41199407 0.038065702 32 23
1.6204829 -0.41166544 -0.038007673 33 21
1.6458166 -0.42356819 0.038645972 22 23
1.619036 -0.41731948 -0.038007673 16 21
1.6394895 -0.42805484 0.038529918 19 23
1.6258254 -0.43087718 0.038239781 14 23
1.6315554 -0.43848532 0.038413864 12 23
1.6837382 0.25145993 0 8 22
1.6821314 0.24522361 0 13 22
1.6854947 0.23940501 0 44 22
1.6863199 0.23352009 0 26 22
1.6846071 0.22759524 0 29 22
1.6829122 0.22139063 0 28 22
1.6837124 0.21522096 0 24 22
1.681972 0.20903729 0 25 22
1.6876562 0.20375772 0 27 22
1.6833559 0.19758371 0 28 22
1.681551 0.19142696 0 29 22
1.6822413 0.18526247 0 33 22
1.6686395 0.17818472 0.076629736 6 24
1.675419 0.17860398 0 32 22
1.6910542 0.17995159 -0.077677861 3 20
1.6816431 0.17391866 0.077212021 28 24
1.673515 0.17279358 0 31 22
1.6841881 0.17358446 -0.077328481 11 20
1.6747842 0.16731261 0.076862648 37 24
1.6741079 0.16695088 0 32 22
1.6872983 0.1676541 -0.077444941 19 20
1.6679279 0.16046543 0.076513276 45 24
1.6747086 0.16081384 0 30 22
1.6878732 0.16176333 -0.077444941 24 20
1.6734517 0.15509669 0.076746188 44 24
1.6802391 0.15542106 0 32 22
1.6809667 0.15519156 -0.077095568 28 20
1.6714951 0.14903583 0.076629736 38 24
1.6757904 0.14911835 0 32 22
1.6765227 0.14888765 -0.076862648 32 20
1.6719803 0.1434921 0.076629736 38 24
1.6712934 0.14314027 0 29 22
1.6794957 0.14353667 -0.076979108 28 20
1.6699817 0.13745336 0.076513276 39 24
1.671783 0.1373055 0 32 22
1.6849889 0.13778059 -0.077212021 29 20
1.6704743 0.13133165 0.076513276 38 24
1.6722749 0.13117719 0 32 22
1.6804798 0.13151489 -0.076979108 31 20
1.668432 0.12531604 0.076396815 40 24
1.6702296 0.12515554 0 33 22
1.6734569 0.12509942 -0.076629736 36 20
1.6663473 0.11960711 0.076280355 45 24
1.6681414 0.11944091 0 35 22
1.6738625 0.11954936 -0.076629736 52 20
1.6667546 0.11378974 0.076280355 51 24
1.6660539 0.11345073 0 47 22
1.6717777 0.11353981 -0.076513276 58 20
1.6721263 0.10828722 0.076513276 53 24
1.6664395 0.10763442 0 60 22
1.6721827 0.10741168 -0.076513276 62 20
1.6767889 0.10241955 0.15723671 5 26
1.6675262 0.10185989 0.076280355 48 24
1.6643273 0.10137718 0 67 22
1.6700546 0.10142591 -0.076396815 63 20
1.6852117 0.10144698 -0.14843024 10 18
1.6497878 0.095316112 0.15462007 35 26
1.6678715 0.09603852 0.076280355 53 24
1.6671672 0.095706969 0 68 22
1.6728917 0.095735118 -0.076513276 54 20
1.6929971 0.096272439 -0.14910087 30 18
1.6501102 0.089556701 0.15462007 91 26
1.6631933 0.090243116 0.076047435 59 24
1.6624824 0.089914501 0 66 22
1.6682124 0.089924812 -0.076280355 63 20
1.6933229 0.090362191 -0.14910087 31 18
1.6528984 0.083919063 0.15485795 97 26
1.6634983 0.084436946 0.076047435 54 24
1.665283 0.084233791 0 66 22
1.6685307 0.083809905 -0.076280355 64 20
1.6861669 0.084088549 -0.14843024 27 18
1.6482229 0.077632807 0.15438218 97 26
1.6662912 0.078453511 0.076163903 67 24
1.6680779 0.078243509 0 67 22
1.6688132 0.077985138 -0.076280355 64 20
1.6864638 0.07790786 -0.14843024 29 18
1.6534441 0.072377712 0.15485795 97 26
1.6615647 0.072425693 0.075930983 79 24
1.6658431 0.072315224 0 69 22
1.6665803 0.072054841 -0.076163903 66 20
1.6867129 0.072314918 -0.14843024 28 18
1.6511998 0.06650883 0.15462007 88 26
1.6642913 0.067012519 0.076047435 82 24
1.6635758 0.06669385 0 67 22
1.6643145 0.066431567 -0.076047435 66 20
1.6844668 0.066332035 -0.1482067 28 18
1.648935 0.060656514 0.15438218 92 26
1.6620193 0.061114188 0.075930983 82 24
1.6612998 0.060798358 0 66 22
1.6645468 0.060331102 -0.076047435 65 20
1.6772226 0.060193654 -0.14753608 32 18
1.6516335 0.05469149 0.15462007 99 26
1.662232 0.055022173 0.075930983 83 24
1.6615115 0.054708984 0 54 22
1.6647472 0.054520383 -0.076047435 65 20
1.6749431 0.053969007 -0.14731254 36 18
1.6518143 0.048925884 0.15462007 100 26
1.6599177 0.049148962 0.075814523 74 24
1.6666905 0.049049374 0 14 22
1.6649275 0.048708998 -0.076047435 64 20
1.6751213 0.048122037 -0.14731254 50 18
1.6519675 0.043448001 0.15462007 100 26
1.6600791 0.04335447 0.075814523 56 24
1.6768484 0.043477304 0 9 22
1.6650873 0.042897023 -0.076047435 63 20
1.6802503 0.042686805 -0.14775962 61 18
1.6496211 0.037627872 0.15438218 99 26
1.6602137 0.03784921 0.075814523 59 24
1.674484 0.03786321 0 9 22
1.6727107 0.037533358 -0.076396815 28 20
1.6803889 0.036821377 -0.14775962 65 18
1.6522306 0.031914126 0.15462007 102 26
1.6603358 0.032053754 0.075814523 62 24
1.6721064 0.031973436 0 9 22
1.6628493 0.031227982 -0.075930983 58 20
1.6780177 0.030912915 -0.14753608 64 18
1.6523365 0.025858182 0.15462007 105 26
1.6604421 0.025968105 0.075814523 67 24
1.664713 0.025738621 0 10 22
1.6629483 0.025423367 -0.075930983 65 20
1.6781198 0.024762467 -0.14753608 65 18
1.6524132 0.020378698 0.15462007 106 26
1.6555284 0.020117875 0.075581603 67 24
1.687199 0.24185987 0.038762026 8 23
1.6647928 0.01992753 0 45 22
1.6605296 0.019592289 -0.075814523 65 20
1.6732128 0.019147072 -0.147089 65 18
1.683966 0.018674143 -0.22913301 27 16
1.6524743 0.014610574 0.15462007 108 26
1.6605804 0.014665319 0.075814523 65 24
1.6830423 0.23556359 0.038645972 15 23
1.6573498 0.014351791 0 64 22
1.6580883 0.014067796 -0.075698063 66 20
1.6757594 0.013322867 -0.14731254 64 18
1.6815445 0.01278033 -0.22878896 25 16
1.6550038 0.008852263 0.15485795 108 26
1.6556271 0.0088486718 0.075581603 65 24
1.6863704 0.22973427 0.038704 11 23
1.6573898 0.0085664727 0 69 22
1.6581287 0.0079905037 -0.075698063 65 20
1.6733057 0.0074654724 -0.147089 65 18
1.6766267 0.006896737 -0.22810087 28 16
1.6453271 0.0027951119 0.25189686 21 28
1.6550251 0.0027863113 0.15485795 112 26
1.6581457 0.0027813076 0.075698063 17 24
1.6995478 0.22550774 0.038994133 16 23
1.6574101 0.002491778 0 66 22
1.7021037 0.22524591 -0.039052162 8 21
1.6581465 0.0022025055 -0.075698063 65 20
1.6708319 0.0013337533 -0.14686546 66 18
1.679117 0.00074938592 -0.22844492 27 16
1.6453269 -0.0029481689 0.25189686 136 28
1.6575135 -0.0029986401 0.15509583 115 26
1.6706315 -0.0030459447 0.076280355 9 24
1.6953682 0.21892661 0.03887808 24 23
1.6574087 -0.0032936782 0 64 22
1.6880091 0.21736647 -0.038704 11 21
1.6531495 -0.0035680849 -0.07546515 67 20
1.6708264 -0.0044985469 -0.14686546 66 18
1.676633 -0.0051010251 -0.22810087 28 16
1.6477764 -0.0087077934 0.25228319 154 28
1.6500286 -0.0084469235 0.15438218 118 26
1.6681136 -0.0088609569 0.076163903 9 24
1.6837249 0.2114324 0.038587943 27 23
1.6598871 -0.0090961121 0 29 22
1.6862411 0.2114531 -0.038645972 18 21
1.6581215 -0.0093735009 -0.075698063 67 20
1.6683124 -0.01002093 -0.14664192 39 18
1.6766069 -0.010660913 -0.22810087 30 16
1.6427988 -0.014122826 0.2515105 151 28
1.6524776 -0.014231305 0.15462007 121 26
1.6730694 -0.014442259 0.076396815 9 24
1.6868973 0.20615457 0.038645972 28 23
1.6648475 -0.014651059 0 9 22
1.6894495 0.20587161 -0.038704 22 21
1.6580813 -0.014871977 -0.075698063 68 20
1.6782266 -0.01595214 -0.14753608 11 18
1.6765594 -0.016513297 -0.22810087 31 16
1.6378 -0.019790793 0.25073782 142 28
1.6499295 -0.019965997 0.15438218 128 26
1.6705116 -0.020248711 0.076280355 9 24
1.6826783 0.19937506 0.038529918 28 23
1.6647863 -0.020462373 0 9 22
1.6876763 0.19967584 -0.038645972 23 21
1.6555187 -0.020914182 -0.075581603 43 20
1.6831402 -0.021881416 -0.14798316 9 18
1.6715397 -0.022292878 -0.22741278 35 16
1.6426556 -0.025877984 0.2515105 134 28
1.6498451 -0.026013156 0.15438218 125 26
1.6679293 -0.026328597 0.076163903 9 24
1.678399 0.19292222 0.038413864 28 23
1.6647002 -0.026563982 0 9 22
1.6908795 0.19377699 -0.038704 22 21
1.6529386 -0.026649307 -0.07546515 52 20
1.6730903 -0.027871247 -0.147089 9 18
1.6689711 -0.028373854 -0.22706875 40 16
1.6400859 -0.031560902 0.25112417 129 28
1.6497498 -0.031484097 0.15438218 113 26
1.6678272 -0.032150596 0.076163903 9 24
1.6716115 0.18622135 0.038239781 28 23
1.6670967 -0.032426625 0 9 22
1.6890292 0.18788886 -0.038645972 22 21
1.6553322 -0.032471281 -0.075581603 66 20
1.6804569 -0.03357831 -0.14775962 10 18
1.6688677 -0.033908203 -0.22706875 54 16
1.6399722 -0.036999449 0.25112417 125 28
1.6496298 -0.037242606 0.15438218 103 26
1.6677115 -0.037681133 0.076163903 9 24
1.6697353 0.18040498 0.038181756 28 23
1.6544837 -0.037653703 0 29 22
1.6871901 0.18172069 -0.038587943 22 21
1.6527188 -0.0378998 -0.07546515 71 20
1.6678834 -0.039135467 -0.14664192 47 18
1.6662637 -0.039671201 -0.2267247 63 16
1.6398331 -0.042723797 0.25112417 120 28
1.6395389 -0.042727921 0.15343069 78 26
1.6650735 -0.043433882 0.076047435 9 24
1.6678998 0.17402089 0.038123727 30 23
1.649344 -0.043290835 0 64 22
1.6878142 0.17583019 -0.038587943 23 21
1.6525689 -0.043957062 -0.07546515 71 20
1.6727146 -0.045098018 -0.147089 68 18
1.6710656 -0.045629043 -0.22741278 62 16
1.6371967 -0.048657075 0.25073782 104 28
1.6368837 -0.048659544 0.15319282 68 26
1.6624069 -0.049458817 0.075930983 12 24
1.666011 0.16794345 0.038065702 30 23
1.651673 -0.049413778 0 70 22
1.6859609 0.16938941 -0.038529918 28 21
1.6524053 -0.049725335 -0.07546515 71 20
1.6675606 -0.051069487 -0.14664192 69 18
1.6634624 -0.051513683 -0.22638066 62 16
1.6394854 -0.054457001 0.25112417 115 28
1.639191 -0.05445902 0.15343069 71 26
1.6572326 -0.055088837 0.075698063 28 24
1.6690742 0.16237259 0.038123727 28 23
1.6514904 -0.055178896 0 71 22
1.6865419 0.16350329 -0.038529918 29 21
1.6522218 -0.055493005 -0.07546515 71 20
1.6673722 -0.056890056 -0.14664192 66 18
1.6682216 -0.057497092 -0.22706875 64 16
1.6392853 -0.060179543 0.25112417 115 28
1.6390016 -0.059894476 0.15343069 71 26
1.6620212 -0.061063308 0.075930983 10 24
1.6671427 0.15630853 0.038065702 29 23
1.6512878 -0.060943335 0 70 22
1.6771224 0.15696359 -0.03829781 32 21
1.652018 -0.06126 -0.07546515 71 20
1.6671745 -0.062418941 -0.14664192 66 18
1.6680218 -0.063028805 -0.22706875 62 16
1.6415445 -0.065717414 0.2515105 115 28
1.6387825 -0.065615296 0.15343069 68 26
1.6667999 -0.06678097 0.076163903 9 24
1.6651629 0.1505505 0.038007673 30 23
1.646081 -0.066211231 0 46 22
1.6776601 0.15110837 -0.03829781 43 21
1.6493106 -0.066633806 -0.07534869 71 20
1.6644585 -0.068132952 -0.14641838 60 18
1.6653175 -0.068745472 -0.2267247 58 16
1.6363702 -0.071225569 0.25073782 113 28
1.6410296 -0.071446911 0.15366857 32 26
1.6820073 0.14676559 0.11504417 8 25
1.661567 -0.072374828 0.075930983 9 24
1.6681933 0.14466594 0.038065702 32 23
1.6533322 -0.072294332 0 13 22
1.6806669 0.14547044 -0.038355835 55 21
1.6490552 -0.072678387 -0.07534869 71 20
1.6821493 0.14559481 -0.11446699 5 19
1.6691854 -0.074170224 -0.14686546 24 18
1.6675413 -0.074672155 -0.22706875 45 16
1.636098 -0.077222683 0.25073782 112 28
1.6457282 -0.077702507 0.15414432 12 26
1.670109 0.13954328 0.11417657 26 25
1.6587962 -0.07834316 0.075814523 9 24
1.6637074 0.13842022 0.037949648 32 23
1.6580502 -0.078596994 0 9 22
1.6786984 0.13909951 -0.03829781 61 21
1.6537801 -0.078678206 -0.075581603 65 20
1.6801865 0.13921888 -0.11429434 10 19
1.6763632 -0.080656409 -0.14753608 9 18
1.6672562 -0.080783501 -0.22706875 40 16
1.6358186 -0.082933262 0.25073782 112 28
1.645447 -0.083446696 0.15414432 10 26
1.6681 0.13351004 0.11400305 53 25
1.6684883 -0.084652275 0.076280355 9 24
1.6666714 0.13281414 0.038007673 33 23
1.655269 -0.084253781 0 9 22
1.6741914 0.1328363 -0.038181756 61 21
1.6460139 -0.084058404 -0.07523223 32 20
1.6756904 0.13295133 -0.11394905 23 19
1.6636388 -0.085849427 -0.14641838 9 18
1.6644913 -0.086471058 -0.2267247 36 16
1.6330684 -0.088220797 0.25035146 113 28
1.6426762 -0.088765115 0.15390643 10 26
1.6660473 0.12778333 0.11382953 58 25
1.6582245 -0.089632332 0.075814523 10 24
1.6671027 0.12728652 0.038007673 35 23
1.6524844 -0.089603707 0 10 22
1.6721308 0.12709069 -0.038123727 58 21
1.6482196 -0.089655288 -0.07534869 64 20
1.6810951 0.12777908 -0.11429434 27 19
1.6732892 -0.091925226 -0.14731254 9 18
1.6641954 -0.09199024 -0.2267247 34 16
1.637682 -0.094211116 0.25112417 114 28
1.6398722 -0.094352297 0.15366857 33 26
1.6615093 0.12159557 0.11348249 57 25
1.6554086 -0.095273271 0.075698063 10 24
1.6625731 0.12080587 0.037891619 36 23
1.6471704 -0.095076621 0 12 22
1.6750567 0.12143745 -0.038181756 30 21
1.6503727 -0.095843814 -0.07546515 68 20
1.6740694 0.12135831 -0.11377639 28 19
1.6704727 -0.097617 -0.147089 32 18
1.6613925 -0.09765023 -0.22638066 34 16
1.6323954 -0.099904425 0.25035146 114 28
1.6295801 -0.099740505 0.15271705 66 26
1.6619437 0.11550501 0.11348249 55 25
1.6600331 -0.10165188 0.075930983 10 24
1.6629846 0.11500167 0.037891619 36 23
1.6418207 -0.10080009 0 52 22
1.68297 0.11582288 -0.038355835 9 21
1.6450434 -0.1012905 -0.07523223 69 20
1.672015 0.11504689 -0.11360374 28 19
1.6601636 -0.10310833 -0.14619485 67 18
1.6610234 -0.10373889 -0.22638066 35 16
