# .PCD v0.7 - Point Cloud Data file format
VERSION 0.7
FIELDS x y z intensity ring
SIZE 4 4 4 4 2
TYPE F F F F U
COUNT 1 1 1 1 1
WIDTH 1228
HEIGHT 1
VIEWPOINT 0 0 0 1 0 0 0
POINTS 1228
DATA ascii
0.89614302 0.36772946 -0.083827324 8 18
0.93077958 0.37881318 0 6 22
0.89751923 0.36499676 -0.043555502 7 20
0.90203923 0.36646301 -0.084274404 9 18
0.93216181 0.37539914 0 7 22
0.90574396 0.3646439 -0.043904878 7 20
0.89412665 0.35946041 -0.083380245 9 18
0.92649364 0.36938086 0 7 22
0.89540172 0.35688347 -0.043322586 7 20
0.89068282 0.35466176 -0.082933158 9 18
0.91607684 0.36174145 0 7 22
0.89193034 0.35208902 -0.043089665 8 20
0.8780036 0.34610415 -0.081591927 10 18
0.89650142 0.35299131 -0.12901634 8 16
0.92432547 0.36125615 0 7 22
0.89088655 0.34791449 -0.042973209 8 20
0.87920642 0.34303725 -0.081591927 10 18
0.87463558 0.34092128 -0.1255759 8 16
0.92097574 0.35607326 0 7 22
0.88976407 0.34390762 -0.042856749 9 20
0.86185718 0.33268359 -0.079803608 16 18
0.89669192 0.34568173 -0.12867229 8 16
0.91520238 0.35019177 0 7 22
0.89796269 0.34346005 -0.043206125 9 20
0.86534142 0.33055612 -0.080027148 24 18
0.88863069 0.33904037 -0.12729611 9 16
0.92109919 0.34875497 0 6 22
0.8874681 0.33593029 -0.042623833 9 20
0.86177069 0.3259342 -0.079580069 36 18
0.87120217 0.32913476 -0.12454376 8 16
0.94462579 0.35421667 0.045418836 8 24
0.91522193 0.34308186 0 7 22
0.88863528 0.3328304 -0.042623833 10 20
0.87690789 0.32812682 -0.080921307 44 18
0.87234575 0.32609168 -0.12454376 9 16
0.95060456 0.35247833 0.045651756 9 24
0.90943497 0.33713415 0 7 22
0.88276064 0.32713953 -0.042274456 23 20
0.87810463 0.32491058 -0.080921307 46 18
0.85726249 0.31692117 -0.12213546 10 16
0.94479001 0.34659311 0.04530238 9 24
0.9176535 0.33652398 0 7 22
0.88155049 0.32320201 -0.042158 27 20
0.87689316 0.32099307 -0.080697767 46 18
0.85370833 0.31223705 -0.12144738 11 16
0.93424731 0.33905935 0.044720087 9 24
0.91176641 0.33077693 0 7 22
0.87797403 0.31843102 -0.04192508 29 20
0.87795281 0.31808341 -0.080697767 44 18
0.84774792 0.30689287 -0.12041525 18 16
0.94007081 0.33763728 0.044953004 9 24
0.91756803 0.32943049 0 7 22
0.87667274 0.31467968 -0.041808624 40 20
0.86967379 0.31167904 -0.079803608 45 18
0.85114729 0.30476084 -0.12075929 12 16
0.94124365 0.3343538 0.044953004 8 24
0.91399682 0.32456312 0 7 22
0.88488668 0.31395286 -0.042158 55 20
0.86605865 0.30698889 -0.079356529 39 18
0.84286112 0.29850444 -0.11938312 19 16
0.93774664 0.32925755 0.044720087 7 24
0.9128195 0.32038841 0 7 22
0.8812604 0.3092196 -0.04192508 60 20
0.86717802 0.30381253 -0.079356529 18 18
0.84161031 0.2946009 -0.11903907 28 16
0.93652928 0.32516831 0.044603627 7 24
0.91393226 0.31720012 0 7 22
0.87997317 0.30532852 -0.041808624 61 20
0.87529749 0.30321196 -0.080027148 6 18
0.84497559 0.29246545 -0.11938312 34 16
0.94238615 0.32350847 0.044836547 9 24
0.91266739 0.31320187 0 7 22
0.8833977 0.30305973 -0.04192508 61 20
0.87158328 0.29870448 -0.079580069 6 18
0.83187276 0.28488362 -0.11731885 44 16
0.94108737 0.31958383 0.044720087 7 24
0.90659356 0.30777898 0 8 22
0.88203108 0.29933169 -0.041808624 61 20
0.87734103 0.29724705 -0.080027148 6 18
0.83520955 0.28276628 -0.11766289 49 16
0.9421972 0.31629691 0.044720087 7 24
0.90529042 0.30382252 0 8 22
0.88075268 0.29530856 -0.041692164 59 20
0.87837332 0.29418272 -0.080027148 6 18
0.82914096 0.27750924 -0.11663076 49 16
0.93623388 0.31049901 0.044370711 7 24
0.89689881 0.29737741 0 8 22
0.8794058 0.29145241 -0.041575707 63 20
0.86525077 0.28630254 -0.078685917 7 18
0.83250558 0.27523977 -0.11697481 47 16
0.77053028 0.25377607 -0.22217071 6 13
0.9301877 0.30491146 0.044021338 7 24
0.90268642 0.29579076 0 8 22
0.92486864 0.44100526 -0.022978684 3 21
0.87566769 0.28683755 -0.041342791 37 20
0.87330049 0.28573754 -0.079356529 7 18
0.83576924 0.2732411 -0.11731885 43 16
0.78284919 0.25477257 -0.22560987 6 13
0.93357104 0.3025898 0.044137795 7 24
0.89652216 0.29050052 0 8 22
0.94220257 0.44528681 -0.023384873 7 21
0.87661403 0.28393215 -0.041342791 28 20
0.86480844 0.27964604 -0.078462377 7 18
0.8367179 0.27032208 -0.11731885 42 16
0.76536977 0.24633557 -0.22010718 4 13
0.92986161 0.29781649 0.043904878 7 24
0.89038259 0.28509903 0 9 22
0.90757686 0.42494968 -0.022456443 9 21
0.87288809 0.27920708 -0.041109871 55 20
0.8562845 0.2736173 -0.077568218 23 18
0.8329348 0.26590556 -0.11663076 43 16
0.75021899 0.23847784 -0.21529235 4 13
0.92618138 0.29291111 0.043671962 7 24
0.89380699 0.28258172 0 10 22
0.91818744 0.42584857 -0.022688551 17 21
0.87862337 0.277652 -0.041342791 61 20
0.85728163 0.270477 -0.077568218 39 18
0.83626735 0.26358932 -0.11697481 40 16
0.76940817 0.24156599 -0.22079504 6 13
0.95263052 0.29756507 0.092058413 7 26
0.92958361 0.29041567 0.043788418 7 24
0.88762379 0.27724096 0 16 22
0.91966826 0.42264092 -0.022688551 17 21
0.87720156 0.2738449 -0.041226331 61 20
0.85346246 0.26601279 -0.077121131 42 18
0.83954847 0.26139879 -0.11731885 33 16
0.94885302 0.2929467 0.091582656 12 26
0.93059164 0.28716907 0.043788418 7 24
0.89575797 0.27633494 0 23 22
0.91652089 0.41750562 -0.022572497 9 21
0.87576395 0.27005103 -0.041109871 63 20
0.86148423 0.26536265 -0.077791758 45 18
0.83804214 0.25789097 -0.11697481 8 16
0.82397759 0.25223121 -0.23661523 9 13
0.94034153 0.28675061 0.09063115 11 26
0.92197758 0.28118935 0.043322586 7 24
0.88470423 0.26974592 0 25 22
0.92479926 0.41740483 -0.022746576 7 21
0.87431061 0.26627067 -0.040993415 62 20
0.8552534 0.26019731 -0.077121131 47 18
0.82945317 0.25210789 -0.11559863 5 16
0.86860061 0.26245341 -0.2496841 10 13
0.95569432 0.28757301 0.092058413 6 26
0.92778784 0.27923679 0.043555502 7 24
0.88568693 0.26650149 0 36 22
0.91948497 0.41093653 -0.022572497 7 21
0.87762797 0.26393056 -0.041109871 62 20
0.88804018 0.39678475 -0.064916424 5 19
0.85858792 0.25777104 -0.077344678 44 18
0.83986604 0.25188753 -0.11697481 5 16
0.86490166 0.25805694 -0.24830842 10 13
0.93759501 0.27860743 0.090155393 9 26
0.91917509 0.2731728 0.043089665 7 24
0.88900995 0.26411453 0 51 22
0.92547971 0.40975913 -0.022688551 6 21
0.87614828 0.26016036 -0.040993415 60 20
0.88941979 0.39368251 -0.064916424 7 19
0.85709339 0.25407064 -0.077121131 45 18
0.83361202 0.2468631 -0.11594268 5 16
0.88194799 0.25974995 -0.25312325 16 13
0.94573063 0.27741832 0.090869024 9 26
0.91532737 0.26856747 0.042856749 7 24
0.89472765 0.26240548 0 52 22
0.92233145 0.40450734 -0.022572497 6 21
0.8698566 0.25501028 -0.040644038 59 20
0.88850701 0.38956821 -0.064743772 8 19
0.86514956 0.25315759 -0.077791758 38 18
0.83684713 0.24464051 -0.11628672 4 16
0.9394697 0.272219 0.090155393 9 26
0.92341346 0.26759949 0.043206125 7 24
0.89319003 0.25874707 0 54 22
0.91908824 0.39944297 -0.022456443 6 21
0.8682971 0.25143558 -0.040527578 60 20
0.89664865 0.38961872 -0.065261729 7 19
0.85880286 0.24823074 -0.077121131 20 18
0.83051157 0.23982149 -0.11525459 4 16
0.80047119 0.23006508 -0.22836122 17 13
0.93801999 0.26825911 0.089917518 9 26
0.91473162 0.26164967 0.042740289 8 24
0.89168251 0.25494614 0 54 22
0.91359723 0.39325088 -0.022282362 6 21
0.86921281 0.24825142 -0.040527578 58 20
0.90029168 0.38747814 -0.065434374 7 19
0.86206037 0.2459086 -0.077344678 6 18
0.83610982 0.23826608 -0.11594268 5 16
0.80130905 0.22712964 -0.22836122 27 13
0.93899691 0.26481932 0.089917518 9 26
0.91327941 0.25762284 0.042623833 8 24
0.89261097 0.25167623 0 53 22
0.9219231 0.39285591 -0.022456443 6 21
0.87007409 0.24521579 -0.040527578 56 20
0.8879537 0.37827602 -0.064398475 6 19
0.85815865 0.24141064 -0.076897591 5 18
0.83220643 0.23387237 -0.11525459 6 16
0.77198333 0.21599689 -0.21941935 29 13
0.935072 0.26037973 0.089441761 9 26
0.91417313 0.2544333 0.042623833 8 24
0.88625365 0.246566 0 52 22
0.92092061 0.3888188 -0.022398416 6 21
0.8685171 0.241514 -0.040411122 57 20
0.88467789 0.37322354 -0.06405317 6 19
0.85895443 0.23856355 -0.076897591 4 18
0.84252834 0.233735 -0.11663076 7 16
0.77505124 0.21393386 -0.22010718 30 13
0.94077772 0.25842166 0.089917518 9 26
0.9174214 0.25205645 0.042740289 8 24
0.88947874 0.24428202 0 51 22
0.91996872 0.38463208 -0.022340389 6 21
0.86690342 0.23797737 -0.040294662 57 20
0.890508 0.37222317 -0.064398475 8 19
0.85978192 0.23556377 -0.076897591 6 18
0.87782925 0.36687911 -0.10490986 7 17
0.83377904 0.22820234 -0.11525459 7 16
0.77111489 0.21011189 -0.21873152 32 13
0.74508446 0.20229229 -0.25497264 9 12
0.94167399 0.25513616 0.089917518 9 26
0.91106004 0.24690968 0.042390916 9 24
0.88308227 0.23923202 0 42 22
0.92130578 0.38141847 -0.022340389 6 21
0.86294538 0.23350571 -0.040061742 61 20
0.88719773 0.36719313 -0.06405317 7 19
0.86540973 0.23384841 -0.077344678 7 18
0.87916809 0.36365923 -0.10490986 8 17
0.829786 0.22401209 -0.1145665 9 16
0.76491082 0.20543377 -0.21666801 37 13
0.76181006 0.20378755 -0.26069319 11 12
0.93293583 0.24929965 0.088966012 9 26
0.91437316 0.24420759 0.042507373 9 24
0.92256546 0.3783612 0.022340389 7 23
0.87911928 0.23471566 0 17 22
0.91801101 0.37629291 -0.022224335 6 21
0.86616963 0.23112996 -0.040178202 57 20
0.88162112 0.3610853 -0.063535221 7 19
0.84936756 0.22637962 -0.0757799 8 18
0.87584007 0.3586936 -0.10434125 8 17
0.83295733 0.22174509 -0.11491054 11 16
0.76329809 0.20215382 -0.21598017 38 13
0.76023042 0.20053115 -0.25987595 13 12
0.93380034 0.24604158 0.088966012 7 26
0.90792894 0.23928182 0.042158 10 24
0.92619395 0.37608451 0.022398416 8 23
0.88231182 0.23243013 0 6 22
0.91469187 0.37119505 -0.022108281 6 21
0.86697114 0.22810505 -0.040178202 37 20
0.88743097 0.36004686 -0.063880526 10 19
0.85497218 0.22466698 -0.076226972 7 18
0.89548147 0.36314839 -0.10661572 8 17
0.82413954 0.21634616 -0.11353438 9 16
0.75934446 0.19828701 -0.21460451 55 13
0.76321417 0.1984642 -0.26069319 15 12
0.93469596 0.24261737 0.088966012 9 26
0.90638137 0.23533058 0.04204154 10 24
0.92750108 0.37284917 0.022398416 8 23
0.88557911 0.22981688 0 6 22
0.9160462 0.36784008 -0.022108281 6 21
0.86050564 0.22321424 -0.039828826 45 20
0.87718421 0.35211644 -0.063017271 19 19
0.8485536 0.21967794 -0.07555636 8 18
0.88292801 0.35443285 -0.10490986 8 17
0.83452278 0.21577895 -0.11491054 19 16
0.75537336 0.19445029 -0.21322884 52 13
0.75016004 0.19231902 -0.25578988 21 12
0.9258461 0.23706946 0.088014498 9 26
0.89993489 0.23032495 0.041692164 18 24
0.92647702 0.36867955 0.022340389 8 23
0.88395244 0.22611055 0 5 22
0.91262072 0.36294153 -0.021992227 6 21
0.86854249 0.22204696 -0.040178202 56 20
0.87609255 0.34812531 -0.062844619 22 19
0.84927744 0.21686283 -0.07555636 8 18
0.881854 0.35042548 -0.10462555 8 17
0.83043182 0.21179888 -0.11422246 37 16
0.76537311 0.19414963 -0.21598017 66 13
0.75311917 0.19027127 -0.25660709 23 12
0.92666799 0.23383622 0.088014498 11 26
0.90311658 0.22794482 0.041808624 24 24
0.93001747 0.36652729 0.022398416 6 23
0.89197397 0.22499496 0 6 22
0.91620541 0.36067495 -0.022050254 6 21
0.86200505 0.21735184 -0.039828826 61 20
0.87724221 0.34521818 -0.062844619 31 19
0.84519678 0.2126939 -0.075109281 21 18
0.87377572 0.34383705 -0.10348832 8 17
0.82395685 0.20710671 -0.11319033 38 16
0.76134604 0.19045733 -0.21460451 74 13
0.75145179 0.18720843 -0.25578988 25 12
0.93472815 0.2323848 0.088728137 10 26
0.90875649 0.22598487 0.04204154 25 24
0.92431259 0.36053675 0.022224335 7 23
0.89032632 0.22128284 0 7 22
0.91745883 0.3574746 -0.022050254 6 21
0.86518359 0.21493767 -0.039945286 60 20
0.88076353 0.34306514 -0.063017271 36 19
0.85318905 0.21152163 -0.0757799 38 18
0.87265855 0.3398774 -0.10320401 8 17
0.81986439 0.20305134 -0.11250225 39 16
0.75500023 0.1860933 -0.21254101 78 13
0.7498045 0.18402788 -0.25497264 30 12
0.92589885 0.22661316 0.087776624 11 26
0.89987046 0.22030033 0.041575707 32 24
0.92562777 0.35714656 0.022224335 7 23
0.88870162 0.21742986 0 7 22
0.91876286 0.35410953 -0.022050254 6 21
0.86111104 0.21059072 -0.039712369 60 20
0.87736511 0.33802927 -0.062671974 38 19
0.84185624 0.20547195 -0.074662201 41 18
0.87389839 0.33667666 -0.10320401 8 17
0.81338125 0.19830455 -0.11147011 41 16
0.76736426 0.18612416 -0.21598017 80 13
0.75736862 0.18292227 -0.25742429 25 12
0.92426354 0.22280219 0.087538742 12 26
0.89577579 0.21599868 0.041342791 48 24
0.93619967 0.35750258 0.022456443 6 23
0.88702327 0.21374661 0 8 22
0.91299433 0.34821084 -0.021876173 6 21
0.8594116 0.20700487 -0.039595909 63 20
0.88086784 0.33585924 -0.062844619 39 19
0.84741336 0.20368361 -0.075109281 41 18
0.86347586 0.3291696 -0.10178247 7 17
0.81647784 0.19603586 -0.11181416 38 16
0.84258002 0.32145774 -0.15114631 5 15
0.75865197 0.18123762 -0.21322884 82 13
0.74880201 0.1781178 -0.25415543 27 12
0.91288424 0.21688822 0.086349361 15 26
0.8940931 0.21229941 0.041226331 56 24
0.92576277 0.34978664 0.022166308 7 23
0.88046247 0.2089351 0 7 22
0.90480018 0.34162635 -0.021644065 6 21
0.860129 0.20400369 -0.039595909 63 20
0.87504125 0.33012298 -0.062326673 40 19
0.84323531 0.19973689 -0.074662201 42 18
0.86461961 0.32615349 -0.10178247 8 17
0.82194579 0.19445477 -0.11250225 18 16
0.83679169 0.31588602 -0.14985812 6 15
0.75927997 0.17858832 -0.21322884 83 13
0.74251318 0.17390725 -0.25170377 33 12
0.91363579 0.21370034 0.086349361 15 26
0.89235932 0.20877029 0.041109871 59 24
0.93393397 0.34935904 0.022340389 7 23
0.88115048 0.20601425 0 23 22
0.91066521 0.34022707 -0.021760119 6 21
0.86323386 0.20171247 -0.039712369 61 20
0.87613118 0.32721943 -0.062326673 40 19
0.83907467 0.19567369 -0.074215122 42 18
0.8517493 0.31803381 -0.10007662 17 17
0.812967 0.18936309 -0.11112607 7 16
0.84244394 0.31484652 -0.15071692 7 15
0.76221102 0.17660524 -0.21391667 84 13
0.75230086 0.17354102 -0.25497264 29 12
0.95351535 0.21943611 0.14758374 7 28
0.92165571 0.21216774 0.087062992 13 26
0.89064771 0.20509955 0.040993415 59 24
0.92115629 0.34069663 0.021992227 7 23
0.87455118 0.20127302 0 44 22
0.90482092 0.33442894 -0.021586038 6 21
0.85666174 0.1968874 -0.039362993 60 20
0.87726802 0.32415918 -0.062326673 39 19
0.83489603 0.19164199 -0.073768042 36 18
0.85290927 0.31490985 -0.10007662 23 17
0.82086825 0.18816489 -0.1121582 7 16
0.84820783 0.31347686 -0.1515757 7 15
0.75581819 0.17222887 -0.21185318 84 13
0.74601477 0.16923514 -0.25252098 33 12
0.93985146 0.21270193 0.14526567 7 28
0.91757011 0.2077008 0.086587235 13 26
0.89139348 0.2018338 0.040993415 58 24
0.92468494 0.33834377 0.022050254 7 23
0.875283 0.19806629 0 50 22
0.90134996 0.32938269 -0.021469982 7 21
0.85003233 0.19226161 -0.039013617 59 20
0.87845027 0.32094163 -0.062326673 39 19
0.84045339 0.18966444 -0.074215122 20 18
0.85633397 0.3127892 -0.10036093 34 17
0.81913537 0.18461694 -0.11181416 5 16
0.83774304 0.30625403 -0.14942873 8 15
0.76110846 0.1706275 -0.21322884 84 13
0.75352341 0.16815329 -0.25497264 39 12
0.93576384 0.2083575 0.14449298 7 28
0.9255808 0.20610239 0.087300867 10 26
0.89453137 0.19925812 0.041109871 57 24
0.92586035 0.335114 0.022050254 7 23
0.87108582 0.19393525 0 52 22
0.90249425 0.32623434 -0.021469982 7 21
0.8555764 0.19036579 -0.039246533 55 20
0.87019193 0.31445801 -0.061636072 36 19
0.84111035 0.18672955 -0.074215122 7 18
0.85275322 0.30809748 -0.099792317 39 17
0.81735581 0.18122688 -0.11147011 5 16
0.83186567 0.30079597 -0.14814055 7 15
0.74760771 0.16490495 -0.20910184 85 13
0.74717814 0.16402288 -0.25252098 39 12
0.94855541 0.20770383 0.1464247 6 28
0.9262591 0.20303193 0.087300867 9 26
0.88789934 0.19454867 0.040760498 56 24
0.91526961 0.32763878 0.021760119 7 23
0.87664443 0.19195087 0 47 22
0.89886886 0.32154411 -0.021353928 7 21
0.85379475 0.18685035 -0.039130077 58 20
0.87363058 0.31226423 -0.061808724 16 19
0.83929104 0.18341397 -0.073991582 4 18
0.85148686 0.30427676 -0.099508002 42 17
0.82521433 0.18008022 -0.11250225 6 16
0.83291066 0.29789037 -0.14814055 7 15
0.74817884 0.1622943 -0.20910184 86 13
0.75467896 0.16288863 -0.25497264 50 12
0.93957615 0.20249796 0.14487933 6 28
0.92209423 0.19876006 0.086825117 10 26
0.88365477 0.19056222 0.040527578 54 24
0.91876161 0.32528195 0.021818146 7 23
0.87238574 0.18800148 0 47 22
0.90233982 0.31924412 -0.021411955 7 21
0.84955639 0.18283048 -0.03889716 55 20
0.87935948 0.31104115 -0.062154025 8 19
0.83261883 0.17893264 -0.073320962 5 18
0.85722297 0.30297068 -0.10007662 45 17
0.81372559 0.17463288 -0.11078203 7 16
0.82698667 0.29249781 -0.14685236 8 15
0.75109291 0.16017608 -0.20978966 87 13
0.74830496 0.15880264 -0.25252098 43 12
0.93305922 0.19753505 0.14372028 6 28
0.92038065 0.19486928 0.086587235 12 26
0.95550591 0.33501101 0.068020083 7 25
0.88434726 0.18732217 0.040527578 50 24
0.91753459 0.32124108 0.021760119 7 23
0.86817479 0.18377943 0 47 22
0.89878964 0.31427276 -0.021295901 8 21
0.84774494 0.17935321 -0.0387807 55 20
0.87343717 0.30532831 -0.061636072 4 19
0.83326912 0.17587972 -0.073320962 5 18
0.85827529 0.29997659 -0.10007662 52 17
0.82405746 0.17366628 -0.1121582 9 16
0.83032507 0.290429 -0.14728177 8 15
0.75400126 0.15803945 -0.2104775 87 13
0.805803 0.2819128 -0.1875301 6 14
0.74885476 0.15618961 -0.25252098 35 12
0.93858176 0.19527188 0.14449298 6 28
0.9137423 0.19015159 0.085873604 11 26
0.93548012 0.3242698 0.066458404 8 25
0.88499576 0.1842341 0.040527578 39 24
0.91865039 0.31803629 0.021760119 7 23
0.87370872 0.18175407 0 39 22
0.89280111 0.30866516 -0.021121822 9 21
0.84591949 0.17589076 -0.03866424 58 20
0.87920761 0.30391964 -0.061981373 4 19
0.8241204 0.17097239 -0.072426803 6 18
0.8569718 0.29616117 -0.099792317 51 17
0.81495434 0.16880555 -0.11078203 15 16
0.82900858 0.28671727 -0.14685236 9 15
0.75690389 0.15588449 -0.21116534 88 13
0.81138349 0.28070515 -0.18864635 7 14
0.74244756 0.15217246 -0.25006932 31 12
0.93441558 0.19101632 0.14372028 6 28
0.92171866 0.18843913 0.086587235 11 26
0.92953455 0.31855911 0.065937839 8 25
0.89297694 0.18262714 0.040876955 9 24
0.91975486 0.31482768 0.021760119 7 23
0.87188721 0.17820859 0 20 22
0.89151025 0.30473229 -0.021063795 15 21
0.84652829 0.17293689 -0.03866424 58 20
0.87083173 0.29759759 -0.061290774 4 19
0.82959437 0.16907641 -0.072873883 7 18
0.86034858 0.29397741 -0.10007662 51 17
0.81553864 0.16595981 -0.11078203 12 16
0.83698863 0.28623211 -0.14814055 13 15
0.74801469 0.15136255 -0.208414 86 13
0.8146618 0.27866656 -0.18920447 7 14
0.74992692 0.15095784 -0.25252098 22 12
0.93507659 0.18775342 0.14372028 6 28
0.91501546 0.18392758 0.085873604 14 26
0.94952148 0.32176206 0.067326002 7 25
0.88381076 0.17756529 0.040411122 5 24
0.91611749 0.31000102 0.021644065 7 23
0.87495631 0.17565006 0 6 22
0.88541919 0.2993542 -0.020889714 19 21
0.84957659 0.17046596 -0.0387807 55 20
0.87422591 0.29536057 -0.061463423 4 19
0.82770783 0.16584165 -0.072650343 8 18
0.85431653 0.28856868 -0.099223696 47 17
0.8136552 0.16277522 -0.11043798 19 16
0.82632816 0.2793321 -0.14599358 16 15
0.75325608 0.14967357 -0.20978966 87 13
0.82480574 0.27911451 -0.19143698 8 14
0.74813008 0.14788797 -0.25170377 19 12
0.94539142 0.18654183 0.14526567 8 28
0.90588117 0.17882793 0.084922098 18 26
0.95058322 0.31861153 0.067326002 7 25
0.88684595 0.17511129 0.040527578 4 24
0.92193043 0.30839896 0.021760119 7 23
0.86817223 0.17131399 0 5 22
0.89119542 0.29785854 -0.021005768 27 21
0.83545798 0.16464031 -0.038081951 38 20
0.86811048 0.2900697 -0.060945474 4 19
0.84050369 0.16532269 -0.073768042 10 18
0.85767233 0.28637785 -0.099508002 52 17
0.81664938 0.1604048 -0.11078203 13 16
0.83429915 0.27880755 -0.14728177 23 15
0.74669278 0.14568351 -0.20772617 86 13
0.82346612 0.27545398 -0.19087884 8 14
0.7370382 0.14306001 -0.24761768 16 12
0.94121671 0.18214819 0.14449298 8 28
0.90408605 0.17503932 0.084684223 25 26
0.94228196 0.31196654 0.066631921 7 25
0.88012302 0.17045324 0.040178202 4 24
0.91588831 0.30280724 0.021586038 7 23
0.86879432 0.16813083 0 5 22
0.88990992 0.29380041 -0.020947741 36 21
0.83848059 0.16219094 -0.038198408 52 20
0.8691678 0.28688598 -0.060945474 4 19
0.83621174 0.1613104 -0.073320962 8 18
0.85866678 0.28338224 -0.099508002 51 17
0.81236631 0.15648681 -0.11009394 31 16
0.82124895 0.27121943 -0.1447054 31 15
0.75664461 0.14485626 -0.2104775 86 13
0.82909346 0.27397645 -0.1919951 9 14
0.7444998 0.14179145 -0.25006932 15 12
0.93699139 0.17795122 0.14372028 7 28
0.89979953 0.17096511 0.084208466 30 26
0.948102 0.31023833 0.066978961 7 25
0.87825817 0.16691977 0.040061742 4 24
0.90981841 0.29726151 0.021411955 7 23
0.86937588 0.16509716 0 5 22
0.89330399 0.29147369 -0.021005768 40 21
0.84395099 0.16018188 -0.038431324 59 20
0.86779499 0.2830705 -0.060772825 5 19
0.84166515 0.15930399 -0.073768042 9 18
0.8525731 0.27805346 -0.098655082 48 17
0.81534201 0.15410356 -0.11043798 43 16
0.82452977 0.26912194 -0.14513479 37 15
0.74769169 0.14046712 -0.20772617 85 13
0.82078755 0.26802811 -0.18976259 10 14
0.73569518 0.13748415 -0.24680045 18 12
0.93760693 0.17467943 0.14372028 8 28
0.89791393 0.16752979 0.083970591 32 26
0.93969476 0.30383429 0.06628488 7 25
0.87637937 0.16340138 0.039945286 4 24
0.91797996 0.29640582 0.021586038 7 23
0.86502922 0.16115801 0 8 22
0.89188915 0.28773621 -0.020947741 44 21
0.84450501 0.15723497 -0.038431324 63 20
0.86166275 0.27772501 -0.060254876 6 19
0.83239192 0.1547175 -0.072873883 9 18
0.85353845 0.27507573 -0.098655082 53 17
0.80854088 0.15006302 -0.10940585 49 16
0.81375527 0.26242867 -0.14298783 41 15
0.7529074 0.13871336 -0.20910184 86 13
0.81703818 0.26379386 -0.18864635 10 14
0.74314636 0.13617165 -0.24925211 18 12
0.93575019 0.17113057 0.14333394 8 28
0.89604414 0.16395248 0.083732717 43 26
0.94307083 0.30148178 0.066458404 7 25
0.88428926 0.16182488 0.040294662 5 24
0.91419983 0.29182783 0.021469982 7 23
0.87540019 0.16006285 0 9 22
0.89050883 0.28385594 -0.020889714 45 21
0.83764863 0.15310565 -0.038081951 63 20
0.86732745 0.27639341 -0.060600173 7 19
0.83292687 0.15181099 -0.072873883 12 18
0.85208148 0.27148327 -0.098370776 50 17
0.80662245 0.14680298 -0.1090618 50 16
0.81462103 0.25972873 -0.14298783 45 15
0.7462641 0.13495387 -0.20703833 86 13
0.80171776 0.25570861 -0.18473947 12 14
0.7389406 0.13288437 -0.24761768 16 12
0.93147749 0.1670028 0.14256124 7 28
0.90151232 0.16169056 0.084208466 54 26
0.93461221 0.29516003 0.065764315 7 25
0.87747127 0.15743232 0.039945286 5 24
0.90335429 0.28468826 0.021179849 7 23
0.86364424 0.15483128 0 8 22
0.88673037 0.27923179 -0.02077366 46 21
0.84558213 0.15133543 -0.038431324 63 20
0.86828691 0.27336419 -0.060600173 6 19
0.82854712 0.14803956 -0.072426803 33 18
0.85070348 0.26760653 -0.098086454 52 17
0.80956888 0.14441472 -0.10940585 51 16
0.82026166 0.2582339 -0.14384662 49 15
0.74675369 0.13221776 -0.20703833 85 13
0.8118937 0.25586566 -0.18697198 12 14
0.74407887 0.13098024 -0.24925211 18 12
0.93451703 0.1640089 0.1429476 6 28
0.90700322 0.15923418 0.084684223 55 26
0.94282496 0.29397738 0.06628488 7 25
0.88296378 0.15506701 0.040178202 6 24
0.90911138 0.28303134 0.021295901 7 23
0.87159634 0.15294267 0 8 22
0.8853631 0.27523169 -0.020715633 47 21
0.84118354 0.14753275 -0.038198408 65 20
0.8573848 0.26644665 -0.059736926 22 19
0.82908416 0.14500177 -0.072426803 39 18
0.84926254 0.26389182 -0.097802147 52 17
0.80277145 0.14018852 -0.10837372 52 16
0.81175947 0.25241655 -0.14212905 46 15
0.75194937 0.13041775 -0.208414 84 13
0.803527 0.24996513 -0.18473947 17 14
0.74453151 0.12838212 -0.24925211 17 12
0.93264872 0.16033307 0.14256124 7 28
0.89773893 0.15440363 0.083732717 59 26
0.9367004 0.28846458 0.065764315 8 25
0.88596195 0.1524013 0.040294662 8 24
0.90293264 0.27763399 0.021121822 7 23
0.86226523 0.1482299 0 9 22
0.8863185 0.27213952 -0.020715633 46 21
0.8416934 0.14459556 -0.038198408 65 20
0.85830963 0.26345223 -0.059736926 35 19
0.8344959 0.14293478 -0.072873883 41 18
0.84543365 0.25945514 -0.097233534 52 17
0.79837203 0.13656381 -0.10768563 52 16
0.8149879 0.25031137 -0.14255844 43 15
0.75239998 0.12779216 -0.208414 83 13
0.80439466 0.24715878 -0.18473947 16 14
0.73332083 0.12385098 -0.24516602 18 12
0.93320268 0.15707652 0.14256124 7 28
0.90070099 0.15183352 0.083970591 57 26
0.93770158 0.28519312 0.065764315 6 25
0.88648856 0.14930779 0.040294662 8 24
0.91345471 0.27741009 0.021353928 7 23
0.85291195 0.14358415 0 31 22
0.8848263 0.26846689 -0.020657606 46 21
0.84219301 0.14165664 -0.038198408 66 20
0.86160886 0.2611846 -0.059909575 37 19
0.82513857 0.13854341 -0.071979731 43 18
0.84633416 0.25650245 -0.097233534 51 17
0.81103677 0.13592917 -0.10940585 45 16
0.80879241 0.24529988 -0.14127026 34 15
0.75046945 0.12477784 -0.20772617 83 13
0.81219888 0.24663472 -0.18641384 25 14
0.74074531 0.12242492 -0.24761768 18 12
0.9385944 0.15477341 0.14333394 7 28
0.90122557 0.14868855 0.083970591 63 26
0.93386894 0.28063452 0.065417275 6 25
0.88204885 0.14556614 0.040061742 9 24
0.90240949 0.27075708 0.021063795 8 23
0.85338336 0.140755 0 46 22
0.88815033 0.26610029 -0.020715633 45 21
0.83279783 0.13726425 -0.037732575 67 20
0.86247021 0.25832596 -0.059909575 38 19
0.82807523 0.13605955 -0.072203271 37 18
0.84955746 0.2544136 -0.097517841 49 17
0.80172777 0.13152052 -0.10802967 34 16
0.8166728 0.24475817 -0.14255844 28 15
0.75325239 0.12266781 -0.208414 81 13
0.80605835 0.24167776 -0.18473947 29 14
0.73181337 0.11848618 -0.24434879 18 12
0.92449272 0.14917018 0.14101587 7 28
0.89682347 0.14476058 0.083494842 62 26
0.93484282 0.27737302 0.065417275 7 25
0.87515253 0.14131045 0.039712369 8 24
0.89616555 0.26545712 0.020889714 8 23
0.85386944 0.13777529 0 49 22
0.88188946 0.26085258 -0.020541552 45 21
0.8406713 0.13552968 -0.038081951 63 20
0.85380781 0.25245869 -0.059218969 36 19
0.82608563 0.13277954 -0.071979731 25 18
0.84330064 0.24931404 -0.096664913 49 17
0.814412 0.13064946 -0.10974989 13 16
0.8151626 0.2412003 -0.14212905 24 15
0.75130135 0.1196667 -0.20772617 80 13
0.80456239 0.23816396 -0.18418135 35 14
0.73689198 0.11665548 -0.24598324 20 12
0.92503327 0.14578074 0.14101587 8 28
0.90226644 0.14223577 0.083970591 57 26
0.92867786 0.27182478 0.064896718 7 25
0.88553566 0.13963357 0.040178202 7 24
0.89713246 0.26217067 0.020889714 9 23
0.85189825 0.13426188 0 50 22
0.88523698 0.25832504 -0.020599579 40 21
0.84116238 0.13244756 -0.038081951 63 20
0.85233504 0.24862264 -0.059046321 18 19
0.83394939 0.13088983 -0.072650343 7 18
0.84420878 0.24622153 -0.096664913 49 17
0.80264843 0.12578017 -0.10802967 7 16
0.81131685 0.23681693 -0.14127026 22 15
0.74223071 0.115463 -0.20497483 77 13
0.80075568 0.23383336 -0.1830651 38 14
0.73731458 0.11395386 -0.24598324 20 12
0.92065245 0.14181048 0.14024319 8 28
0.89535177 0.13812268 0.08325696 58 26
0.9344095 0.26997805 0.065243758 7 25
0.87614137 0.13504443 0.039712369 10 24
0.89324296 0.25763962 0.02077366 10 23
0.85236168 0.13128738 0 49 22
0.8812893 0.25399098 -0.020483525 39 21
0.83421195 0.12839024 -0.037732575 63 20
0.85080296 0.24494927 -0.058873672 8 19
0.82453036 0.1266377 -0.071756192 5 18
0.84506315 0.24327318 -0.096664913 50 17
0.80550969 0.12348637 -0.10837372 7 16
0.81686765 0.23536099 -0.14212905 14 15
0.75213844 0.11428749 -0.20772617 75 13
0.80620551 0.23254131 -0.18418135 41 14
0.73303342 0.11068834 -0.24434879 21 12
0.9211176 0.13875671 0.14024319 6 28
0.94503647 0.27003354 0.11572345 4 27
0.89336663 0.13463163 0.083019085 58 26
0.92811006 0.26480687 0.064723194 8 25
0.87658435 0.1321383 0.039712369 31 24
0.89173484 0.25382945 0.020715633 14 23
0.85031933 0.12809405 0 49 22
0.88697487 0.25229347 -0.020599579 38 21
0.83712554 0.12584233 -0.037849031 62 20
0.8635959 0.24557009 -0.059736926 5 19
0.82496738 0.12375878 -0.071756192 5 18
0.84113258 0.23895097 -0.0960963 38 17
0.80348593 0.12031384 -0.10802967 8 16
0.81058341 0.23046666 -0.14084087 23 15
0.75015426 0.11131562 -0.20703833 73 13
0.80232877 0.22837742 -0.1830651 48 14
0.73341531 0.10812892 -0.24434879 21 12
0.91917539 0.13502657 0.13985683 7 28
0.95079362 0.26792604 0.11632933 7 27
0.89385408 0.13135637 0.083019085 58 26
0.93147349 0.26208499 0.064896718 8 25
0.86717629 0.12749639 0.039246533 38 24
0.89021093 0.25003296 0.020657606 18 23
0.84830874 0.12461961 0 47 22
0.87587029 0.24563408 -0.020309445 21 21
0.83014446 0.12185091 -0.037499659 60 20
0.8548919 0.23968355 -0.059046321 4 19
0.82048595 0.12002659 -0.071309105 5 18
0.84196156 0.23601344 -0.0960963 27 17
0.8063727 0.11771915 -0.10837372 9 16
0.81849092 0.22965249 -0.14212905 37 15
0.75291795 0.10903383 -0.20772617 63 13
0.79378343 0.22277293 -0.18083259 48 14
0.72910911 0.1049097 -0.24271436 21 12
0.9147495 0.13112803 0.13908415 8 28
0.93499851 0.25991073 0.11420874 9 27
0.8918429 0.12788823 0.082781211 58 26
0.922777 0.25613916 0.064202629 8 25
0.86761606 0.1244686 0.039246533 37 24
0.88385797 0.24490263 0.020483525 27 23
0.85368979 0.12235442 0 39 22
0.8767224 0.24257523 -0.020309445 9 21
0.83303773 0.11929997 -0.037616115 63 20
0.85332137 0.23602644 -0.058873672 4 19
0.8159681 0.11647132 -0.070862025 5 18
0.83560407 0.23106669 -0.095243372 38 17
0.79696906 0.11353375 -0.10699754 14 16
0.80505764 0.22281024 -0.1395527 47 15
0.75329393 0.10640499 -0.20772617 46 13
0.79690272 0.22065809 -0.18139072 47 14
0.73415232 0.10300611 -0.24434879 22 12
0.98262799 0.13686326 0.22151563 5 30
0.91030771 0.12726201 0.13831146 10 28
0.93829161 0.25730774 0.11451168 8 27
0.89472747 0.12526911 0.083019085 54 26
0.92847294 0.25424609 0.064549677 8 25
0.87299335 0.12211885 0.039479453 12 24
0.89193481 0.24381208 0.020657606 35 23
0.85411167 0.11937375 0 25 22
0.87752193 0.23966658 -0.020309445 6 21
0.83592325 0.11673032 -0.037732575 63 20
0.85173583 0.23238318 -0.05870102 4 19
0.81388271 0.11342777 -0.070638485 6 18
0.83879995 0.22880888 -0.095527679 48 17
0.80224824 0.11155896 -0.10768563 22 16
0.81295234 0.22196576 -0.14084087 58 15
0.75842476 0.10441643 -0.20910184 37 13
0.78823519 0.21541591 -0.17915823 45 14
0.72982371 0.099817052 -0.24271436 23 12
0.96617711 0.13134615 0.21757005 5 30
0.91317284 0.12457057 0.1386978 13 28
0.94153357 0.25484923 0.11481462 8 27
0.89515924 0.12214516 0.083019085 52 26
0.91728127 0.24788161 0.063682072 8 25
0.87091827 0.11889166 0.039362993 5 24
0.89514971 0.24151038 0.020715633 39 23
0.86193657 0.11753526 0 7 22
0.868707 0.23397575 -0.020077337 4 21
0.83383042 0.11362693 -0.037616115 64 20
0.85250169 0.22955745 -0.05870102 5 19
0.81427372 0.1105861 -0.070638485 7 18
0.83955407 0.22602606 -0.095527679 50 17
0.80508745 0.1090837 -0.10802967 17 16
0.81368393 0.21926869 -0.14084087 59 15
0.74923474 0.10064928 -0.20635051 33 13
0.79603529 0.21458732 -0.18083259 38 14
0.73249358 0.097701438 -0.24353158 22 12
0.96662974 0.12797277 0.21757005 6 30
0.90625441 0.12042403 0.13753878 13 28
0.94481331 0.25220716 0.11511756 8 27
0.89558023 0.11901972 0.083019085 49 26
0.92054921 0.24532662 0.063855588 8 25
0.87132806 0.11585086 0.039362993 5 24
0.89361519 0.23757932 0.020657606 42 23
0.85490447 0.11355727 0 5 22
0.87917376 0.23353451 -0.020309445 4 21
0.8292883 0.10992675 -0.037383199 56 20
0.85329783 0.22658026 -0.05870102 6 19
0.81712419 0.10806291 -0.070862025 8 18
0.84037685 0.22294743 -0.095527679 55 17
0.79318422 0.1046867 -0.10630946 22 16
0.81210369 0.21564582 -0.14041148 61 15
0.75198275 0.098206677 -0.20703833 30 13
0.78030694 0.20737503 -0.17692572 31 14
0.73519069 0.09531258 -0.24434879 22 12
0.9646759 0.12412376 0.2170064 6 30
0.9042393 0.11679121 0.13715242 16 28
0.93853635 0.24683078 0.11420874 9 27
0.88119686 0.11385982 0.081591815 50 26
0.92144221 0.24195099 0.063855588 8 25
0.89443904 0.23445855 0.020657606 46 23
0.8528347 0.11010936 0 5 22
0.87035906 0.22775348 -0.020077337 4 21
0.82966703 0.10703133 -0.037383199 38 20
0.85171151 0.22281334 -0.058528371 6 19
0.81998521 0.10537805 -0.071085565 10 18
0.83634764 0.21874198 -0.094959065 57 17
0.80339038 0.10301166 -0.10768563 25 16
0.81285143 0.21280973 -0.14041148 60 15
0.74755043 0.094989501 -0.20566267 22 13
0.80226147 0.21013467 -0.18194884 23 14
0.73551893 0.092745706 -0.24434879 24 12
0.94092858 0.11778738 0.21136987 7 30
0.91199577 0.11453972 0.13831146 17 28
0.93939221 0.24355318 0.11420874 7 27
0.88156956 0.11093704 0.081591815 48 26
0.91263002 0.23620836 0.063161507 8 25
0.88799751 0.22943988 0.020483525 50 23
0.84576994 0.10621642 0 6 22
0.86869121 0.22423474 -0.020019308 5 21
0.82507813 0.1035259 -0.037150279 56 20
0.85731065 0.22109796 -0.058873672 8 19
0.81538707 0.10205314 -0.070638485 11 18
0.83950949 0.21644817 -0.095243372 59 17
0.7914378 0.098846659 -0.10596541 36 16
0.80644065 0.20810364 -0.13912331 59 15
0.75026381 0.092666991 -0.20635051 21 13
0.79823875 0.20623966 -0.18083259 14 14
0.73349226 0.089897551 -0.24353158 24 12
0.95098776 0.11582174 0.21362448 6 30
0.90991819 0.11122107 0.13792512 24 28
0.9353894 0.23919487 0.11360286 7 27
0.88195145 0.1078591 0.081591815 45 26
0.92065287 0.2350502 0.063682072 8 25
0.87001389 0.10642316 0.039246533 5 24
0.88875347 0.22649392 0.020483525 50 23
0.85108209 0.10400492 0 7 22
0.86946863 0.22120108 -0.020019308 6 21
0.82541698 0.10078928 -0.037150279 68 20
0.85079306 0.2163893 -0.058355723 8 19
0.82068354 0.099794202 -0.071085565 17 18
0.83781719 0.21304412 -0.094959065 58 17
0.80161405 0.097249337 -0.10734159 54 16
0.81666613 0.20788652 -0.14084087 58 15
0.75056702 0.090178519 -0.20635051 18 13
0.7942344 0.202235 -0.17971635 7 14
0.73613316 0.087737083 -0.24434879 25 12
0.9489668 0.11222109 0.21306083 7 30
0.89803374 0.10661831 0.13599339 30 28
0.93862343 0.23654081 0.1139058 7 27
0.88973868 0.10564188 0.082305454 29 26
0.92146778 0.23183508 0.063682072 8 25
0.86293828 0.10252061 0.03889716 5 24
0.88953865 0.22339022 0.020483525 49 23
0.85143989 0.10103346 0 9 22
0.86296755 0.21632159 -0.019845227 7 21
0.82824445 0.098194882 -0.037266739 71 20
0.84429073 0.21157894 -0.057837773 11 19
0.8284477 0.097784869 -0.071756192 10 18
0.8361482 0.20950775 -0.094674759 58 17
0.78964865 0.093036138 -0.10562137 58 16
0.81261259 0.20382208 -0.13998209 57 15
0.74848896 0.087286755 -0.20566267 17 13
0.73173922 0.084638603 -0.24271436 25 12
0.93968993 0.10765622 0.21080622 6 30
0.90578181 0.10415468 0.13715242 34 28
0.94429815 0.23430642 0.11451168 6 27
0.89259297 0.10265838 0.082543328 10 26
0.91747278 0.22724441 0.063335031 8 25
0.86827153 0.099915572 0.039130077 6 24
0.88792676 0.21952206 0.020425498 50 23
0.84932017 0.097632982 0 9 22
0.8686043 0.21436818 -0.019961281 6 21
0.82859874 0.095158562 -0.037266739 73 20
0.84264076 0.20787884 -0.057665121 32 19
0.82137662 0.093919009 -0.071085565 12 18
0.83932024 0.20704342 -0.094959065 57 17
0.78998435 0.090141304 -0.10562137 61 16
0.80857569 0.19964737 -0.13912331 53 15
0.74880379 0.084542811 -0.20566267 18 13
0.73439336 0.082211643 -0.24353158 26 12
0.9424814 0.10463848 0.21136987 6 30
0.90368444 0.10072466 0.13676608 39 28
0.9354738 0.22862756 0.11329992 8 27
0.88799787 0.099002749 0.082067572 9 26
0.9134177 0.2228456 0.062987991 9 25
0.87358016 0.097425267 0.039362993 7 24
0.88626093 0.21582341 0.020367472 46 23
0.8421998 0.093856417 0 12 22
0.86692035 0.21073787 -0.019903254 7 21
0.82892585 0.092265628 -0.037266739 72 20
0.84820491 0.20612772 -0.058010422 38 19
0.82169944 0.091051295 -0.071085565 11 18
0.83521414 0.20292579 -0.094390452 59 17
0.78537023 0.08685264 -0.10493328 62 16
0.80209363 0.19505627 -0.13783513 50 15
0.74192435 0.081166022 -0.20359915 17 13
0.7276268 0.078905508 -0.24107993 24 12
0.93799633 0.10083878 0.21024257 5 30
0.90157419 0.097310565 0.13637973 48 28
0.93385494 0.22477385 0.11299698 8 27
0.88337141 0.09553463 0.081591815 10 26
0.90691972 0.21788889 0.062467426 9 25
0.8739149 0.094375312 0.039362993 8 24
0.88700891 0.21272846 0.020367472 48 23
0.8524673 0.09196303 0 14 22
0.87004334 0.20845085 -0.019961281 13 21
0.83172655 0.089632623 -0.037383199 71 20
0.85376716 0.20434026 -0.058355723 39 19
0.81704402 0.087807126 -0.070638485 31 18
0.83591735 0.20000909 -0.094390452 57 17
0.79057962 0.084762007 -0.10562137 58 16
0.80516303 0.19283603 -0.13826452 36 15
0.74937588 0.079313159 -0.20566267 18 13
0.76856488 0.18422005 -0.17301884 4 14
0.73024839 0.076604314 -0.24189714 27 12
0.73225117 0.17706591 -0.29057091 6 11
0.93832552 0.097727723 0.21024257 6 30
0.89452034 0.093567617 0.13522071 55 28
0.92976898 0.22051805 0.11239109 8 27
0.88369954 0.092450507 0.081591815 10 26
0.89793587 0.2125565 0.061773345 10 25
0.87919188 0.091984116 0.039595909 11 24
0.88527864 0.20920454 0.020309445 50 23
0.84281915 0.088121615 0 17 22
0.86590368 0.2042516 -0.019845227 33 21
0.82953471 0.086621225 -0.037266739 75 20
0.84716254 0.19977018 -0.057837773 41 19
0.80991352 0.084202282 -0.069967866 39 18
0.83416015 0.19665912 -0.094106138 60 17
0.78840691 0.081753328 -0.10527733 57 16
0.8105886 0.19131066 -0.13912331 30 15
0.7520265 0.077065587 -0.20635051 18 13
0.77394319 0.18267061 -0.17413509 5 14
0.73284972 0.07441368 -0.24271436 26 12
0.73962295 0.17614254 -0.29338288 7 11
0.94593287 0.095166057 0.21193352 7 30
0.89484155 0.090444595 0.13522071 58 28
0.92811793 0.21670075 0.11208815 8 27
0.88154024 0.089121111 0.08135394 12 26
0.90595448 0.21113822 0.062293906 11 25
0.87205184 0.088179626 0.039246533 10 24
0.88847232 0.20653084 0.020367472 48 23
0.83814573 0.084689438 0 36 22
0.86904436 0.20179978 -0.019903254 38 21
0.81990516 0.082605474 -0.036800902 73 20
0.8454268 0.19624102 -0.057665121 43 19
0.81268072 0.081616759 -0.070191406 40 18
0.83245742 0.19303244 -0.093821831 58 17
0.79115206 0.079240695 -0.10562137 53 16
0.80648959 0.18721029 -0.13826452 25 15
0.74034101 0.073163182 -0.20291133 19 13
0.79592359 0.18499853 -0.17915823 6 14
0.73076534 0.071504384 -0.24189714 27 12
0.72898996 0.17074892 -0.28869626 9 11
0.93900084 0.091010757 0.21024257 7 30
0.89024913 0.086697616 0.13444801 62 28
0.9289059 0.21329756 0.11208815 7 27
0.87195081 0.08494924 0.080402434 23 26
0.90186334 0.20668918 0.061946865 17 25
0.86739695 0.084511042 0.039013617 14 24
0.88431811 0.20230038 0.020251418 49 23
0.83347273 0.081145495 0 55 22
0.8722133 0.19917631 -0.019961281 39 21
0.82516092 0.080212995 -0.037033822 74 20
0.84371054 0.19257918 -0.057492472 37 19
0.81545347 0.078870609 -0.070414945 38 18
0.83554608 0.190685 -0.094106138 56 17
0.78650635 0.075878687 -0.10493328 52 16
0.81433618 0.18606107 -0.1395527 18 15
0.74059188 0.070578463 -0.20291133 18 13
0.78472638 0.17932878 -0.17636758 6 14
0.73336345 0.069167651 -0.24271436 28 12
0.72958159 0.1682032 -0.28869626 9 11
0.94173849 0.087953232 0.21080622 6 30
0.89300609 0.083814263 0.13483436 60 28
0.932064 0.21060696 0.11239109 6 27
0.88461918 0.083191521 0.081591815 35 26
0.90744215 0.20465 0.062293906 21 25
0.86271286 0.081028342 0.0387807 9 24
0.88501889 0.1992123 0.020251418 48 23
0.83624053 0.07846266 0 57 22
0.86799508 0.19517283 -0.019845227 40 21
0.82543588 0.077332154 -0.037033822 71 20
0.83465022 0.18741931 -0.05680187 21 19
0.8107509 0.075716428 -0.069967866 29 18
0.83136284 0.186665 -0.093537524 59 17
0.79168594 0.07371553 -0.10562137 52 16
0.80777693 0.18157542 -0.13826452 10 15
0.73843962 0.067780472 -0.20222348 20 13
0.79719573 0.17943746 -0.17915823 8 14
0.73124671 0.066400982 -0.24189714 31 12
0.73013532 0.16578291 -0.28869626 10 11
0.93717223 0.084404424 0.20967892 7 30
0.88835824 0.080419369 0.13406166 61 28
0.92791528 0.20642467 0.11178521 7 27
0.8749879 0.079230331 0.080640309 49 26
0.90324938 0.20054567 0.061946865 27 25
0.85800141 0.077729128 0.038547784 12 24
0.88323599 0.19572906 0.020193391 48 23
0.83649611 0.075689152 0 54 22
0.86379343 0.19104882 -0.019729175 40 21
0.82319999 0.074376397 -0.036917362 73 20
0.84013444 0.18574116 -0.057147171 10 19
0.81597137 0.073318221 -0.070414945 9 18
0.8295536 0.18336399 -0.093253218 60 17
0.79440534 0.071165673 -0.10596541 39 16
0.81318074 0.17997442 -0.13912331 9 15
0.73866028 0.065331347 -0.20222348 18 13
0.79068416 0.17505138 -0.17748384 8 14
0.72910857 0.063777193 -0.24107993 24 12
0.73296976 0.16374633 -0.2896336 10 11
0.94959646 0.082153723 0.21249717 7 30
0.89355594 0.077733867 0.13483436 58 28
0.93105304 0.20372106 0.11208815 8 27
0.8802188 0.076594658 0.081116065 60 26
0.90881407 0.19846854 0.062293906 35 25
0.86075592 0.074943937 0.03866424 33 24
0.88394743 0.1924905 0.020193391 49 23
0.83924639 0.072978839 0 53 22
0.86689579 0.18857041 -0.019787202 21 21
0.82097858 0.071149752 -0.036800902 70 20
0.83347094 0.18119691 -0.056629222 7 19
0.81622237 0.070469499 -0.070414945 6 18
0.82779443 0.1797881 -0.092968903 60 17
0.80205196 0.069008686 -0.10699754 23 16
0.80180979 0.17434007 -0.13697633 9 15
0.7436859 0.063014969 -0.20359915 21 13
0.79604936 0.17334186 -0.17860009 9 14
0.73640251 0.061674125 -0.24353158 25 12
0.72904098 0.16004919 -0.28775895 11 11
0.94018 0.07789138 0.21024257 8 30
0.89137286 0.074259356 0.13444801 61 28
0.92936867 0.19977942 0.11178521 8 27
0.88297415 0.073568434 0.08135394 61 26
0.90709829 0.19460665 0.062120385 39 25
0.85604644 0.071386315 0.038431324 43 24
0.88217145 0.1888739 0.020135364 49 23
0.83950824 0.06990236 0 52 22
0.86025304 0.18380475 -0.019613121 10 21
0.82122195 0.068283573 -0.036800902 67 20
0.84631711 0.18078038 -0.057492472 5 19
0.80902898 0.066882238 -0.069744334 6 18
0.82113451 0.17532027 -0.092115983 37 17
0.79736263 0.065675691 -0.10630946 15 16
0.80482024 0.17206229 -0.13740572 15 15
0.74629754 0.060605954 -0.20428699 23 13
0.78715366 0.16835481 -0.17636758 9 14
0.72483492 0.058194865 -0.23944546 23 12
0.73412269 0.15849715 -0.2896336 11 11
0.94530308 0.074982792 0.21136987 8 30
0.88423878 0.07057637 0.13328896 63 28
0.92278051 0.19497611 0.11087639 8 27
0.87578177 0.069910444 0.080640309 63 26
0.90533328 0.19091801 0.061946865 41 25
0.85878032 0.068590172 0.038547784 46 24
0.88282537 0.18579341 0.020135364 49 23
0.83476192 0.066587038 0 50 22
0.86333388 0.18132128 -0.019671148 7 21
0.81647539 0.065033376 -0.036567986 66 20
0.84694296 0.17782506 -0.057492472 4 19
0.80925751 0.06405779 -0.069744334 4 18
0.82902944 0.17400467 -0.092968903 58 17
0.79017985 0.062328521 -0.10527733 11 16
0.8030073 0.16873817 -0.13697633 20 15
0.74890137 0.058179479 -0.20497483 23 13
0.79011977 0.16611484 -0.17692572 12 14
0.72974634 0.056011263 -0.24107993 24 12
0.73240602 0.15544465 -0.28869626 12 11
0.94312996 0.071504228 0.21080622 8 30
0.88940632 0.067852885 0.13406166 60 28
0.92345548 0.1917538 0.11087639 7 27
0.87602055 0.066852972 0.080640309 61 26
0.90599418 0.18775666 0.061946865 45 25
0.85652393 0.065408282 0.038431324 38 24
0.88346851 0.18271065 0.020135364 48 23
0.83997577 0.064039834 0 43 22
0.86151522 0.17779462 -0.019613121 5 21
0.819188 0.062365845 -0.036684446 67 20
0.83535284 0.17231324 -0.056629222 6 19
0.79705918 0.060327258 -0.068626635 4 18
0.82963175 0.17110975 -0.092968903 60 17
0.78792292 0.059390701 -0.10493328 10 16
0.7939496 0.16391282 -0.13525876 35 15
0.74430501 0.055223793 -0.20359915 22 13
0.78592485 0.16235495 -0.17580946 12 14
0.72050983 0.052802742 -0.23781103 25 12
0.73294413 0.15288712 -0.28869626 14 11
0.71627551 0.15009004 -0.32736358 8 10
0.94579166 0.06854663 0.21136987 8 30
0.88716251 0.064729542 0.13367532 61 28
0.92165619 0.18818764 0.11057345 8 27
0.87623739 0.063947618 0.080640309 60 26
0.90905416 0.18525569 0.062120385 45 25
0.85424501 0.062392082 0.038314868 19 24
0.87672597 0.17826585 0.019961281 49 23
0.83519584 0.060903497 0 28 22
0.8596521 0.17443292 -0.019555094 4 21
0.814408 0.059299704 -0.03645153 65 20
0.84569091 0.17155325 -0.05731982 6 19
0.80719084 0.058375083 -0.069520794 6 18
0.82532907 0.16735624 -0.09240029 65 17
0.78317493 0.056435511 -0.1042452 14 16
0.79690087 0.16177641 -0.13568816 45 15
0.74448407 0.052755285 -0.20359915 25 13
0.7888456 0.16024034 -0.17636758 31 14
0.7253958 0.050727967 -0.23944546 27 12
0.73117834 0.14998218 -0.28775895 16 11
0.69683808 0.14353195 -0.31779775 9 10
0.94359487 0.065082945 0.21080622 8 30
0.8873831 0.06163238 0.13367532 57 28
0.92473936 0.18546365 0.11087639 7 27
0.87148911 0.060556125 0.080164559 56 26
0.90236282 0.18059358 0.061599825 43 25
0.85944104 0.059743453 0.038547784 7 24
0.87737346 0.17505129 0.019961281 49 23
0.84039223 0.058320858 0 9 22
0.86515528 0.17242169 -0.019671148 5 21
0.8146199 0.056314345 -0.03645153 70 20
0.84384006 0.16810597 -0.057147171 7 19
0.80490506 0.055392951 -0.069297254 7 18
0.82837152 0.16482192 -0.092684597 65 17
0.78583801 0.053863764 -0.10458924 21 16
0.79748845 0.15885453 -0.13568816 55 15
0.7398752 0.049718559 -0.20222348 25 13
0.77984685 0.15554909 -0.17413509 32 14
0.7302928 0.048366446 -0.24107993 26 12
0.72037095 0.14497514 -0.28307232 18 11
0.70844084 0.14325969 -0.3231121 14 10
0.93410367 0.061012316 0.2085516 8 30
0.89006805 0.058535494 0.13406166 55 28
0.92297924 0.18158765 0.11057345 8 27
0.87170517 0.057361551 0.080164559 56 26
0.89812672 0.17631108 0.061252784 42 25
0.85716194 0.056435369 0.038431324 5 24
0.87797922 0.17198762 0.019961281 48 23
0.83062017 0.054610621 0 6 22
0.86578143 0.16924958 -0.019671148 6 21
0.8173039 0.053627264 -0.036567986 68 20
0.83955777 0.16404146 -0.05680187 8 19
0.80510265 0.052442454 -0.069297254 8 18
0.82894176 0.16192935 -0.092684597 67 17
0.78603017 0.050983157 -0.10458924 27 16
0.80045378 0.15654987 -0.13611755 64 15
0.74484253 0.047426559 -0.20359915 25 13
0.78519189 0.15364061 -0.17525133 34 14
0.72809869 0.045676421 -0.24026269 27 12
0.7299608 0.1442889 -0.28682163 17 11
0.72002584 0.14302994 -0.32842645 17 10
0.94403642 0.058329109 0.21080622 9 30
0.89026695 0.055428218 0.13406166 52 28
0.91143084 0.17598021 0.10905875 8 27
0.87437487 0.05461945 0.080402434 51 26
0.89873672 0.17317496 0.061252784 36 25
0.85984659 0.053591941 0.038547784 5 24
0.86630881 0.16652881 0.019671148 38 23
0.83829248 0.052156992 0 5 22
0.8565253 0.16446492 -0.01943904 6 21
0.81000739 0.050329693 -0.036218613 49 20
0.83033317 0.15920289 -0.056111272 8 19
0.81272918 0.050212763 -0.069967866 8 18
0.82462603 0.15808527 -0.092115983 68 17
0.7886669 0.048521437 -0.10493328 30 16
0.80341256 0.15422644 -0.13654694 63 15
0.74020427 0.04455208 -0.20222348 25 13
0.78330541 0.15056849 -0.17469321 32 14
0.72825366 0.043134604 -0.24026269 29 12
0.72816175 0.14141771 -0.28588429 20 11
0.71386254 0.13919251 -0.32523784 18 10
0.93206555 0.054516323 0.20798795 9 30
0.97708589 0.18633595 0.18517582 5 29
0.88551378 0.052197337 0.13328896 51 28
0.91688323 0.17389448 0.10966463 8 27
0.86959076 0.051286533 0.079926684 49 26
0.90175521 0.170664 0.061426304 21 25
0.8525396 0.05031817 0.038198408 5 24
0.87667489 0.165537 0.019903254 22 23
0.83097261 0.048955549 0 7 22
0.85709417 0.16147408 -0.01943904 7 21
0.80767649 0.047503505 -0.036102153 38 20
0.82840687 0.1559799 -0.055938624 10 19
0.80544102 0.046961121 -0.069297254 11 18
0.82514572 0.15534985 -0.092115983 70 17
0.78141409 0.04535868 -0.10390116 34 16
0.79666322 0.15017058 -0.13525876 61 15
0.73314774 0.041709803 -0.20015997 28 13
0.78861266 0.14875159 -0.17580946 17 14
0.73075211 0.040843867 -0.24107993 28 12
0.73320115 0.13975872 -0.28775895 20 11
0.70765758 0.13552339 -0.32204923 20 10
0.939547 0.051646166 0.20967892 12 30
0.97290689 0.18200925 0.18422864 5 29
0.89062363 0.049367122 0.13406166 46 28
0.91992319 0.17115322 0.10996757 9 27
0.87224966 0.048382334 0.080164559 48 26
0.89499295 0.16612996 0.060905743 10 25
0.85520381 0.047473952 0.038314868 5 24
0.86253756 0.15955389 0.019555094 22 23
0.83363497 0.046186328 0 7 22
0.86010897 0.15894231 -0.019497067 6 21
0.80784518 0.044542897 -0.036102153 58 20
0.81914133 0.15124702 -0.055248018 27 19
0.80560005 0.044149321 -0.069297254 10 18
0.82326823 0.15186673 -0.091831677 70 17
0.78651345 0.042886496 -0.10458924 42 16
0.79962867 0.14770436 -0.13568816 60 15
0.73809677 0.039263096 -0.20153564 29 13
0.7771529 0.14374401 -0.17301884 10 14
0.72853708 0.038049422 -0.24026269 31 12
0.72232485 0.13490306 -0.28307232 12 11
0.71703935 0.13463102 -0.32630071 19 10
0.94216269 0.048321184 0.21024257 13 30
0.94943362 0.17395613 0.17949268 5 29
0.88833165 0.045980975 0.13367532 45 28
0.92298442 0.16823177 0.11027051 9 27
0.87490678 0.045307491 0.080402434 36 26
0.89804828 0.1633013 0.061079264 8 25
0.8478893 0.043970563 0.037965491 6 24
0.87292111 0.15835367 0.019787202 37 23
0.8238107 0.042640347 0 8 22
0.86068577 0.15578879 -0.019497067 8 21
0.81797296 0.042210691 -0.036567986 68 20
0.82950187 0.15004802 -0.055938624 40 19
0.81073058 0.041437019 -0.069744334 19 18
0.82379341 0.14899208 -0.091831677 69 17
0.77924526 0.039647084 -0.10355711 67 16
0.79771739 0.14446597 -0.13525876 57 15
