# .PCD v0.7 - Point Cloud Data file format
VERSION 0.7
FIELDS x y z intensity ring
SIZE 4 4 4 4 2
TYPE F F F F U
COUNT 1 1 1 1 1
WIDTH 852
HEIGHT 1
VIEWPOINT 0 0 0 1 0 0 0
POINTS 852
DATA ascii
1.720762 -0.11146396 0.26425987 38 28
1.6913502 0.11224756 0.2026675 8 27
1.6664705 -0.10788918 0.1562852 42 26
1.6399418 0.10819202 0.1119208 37 25
1.627274 -0.1053056 0.074417017 6 24
1.601033 0.10501154 0.036440946 8 23
1.5716119 -0.10190351 0 21 22
1.5375326 -0.099915437 -0.070224509 25 20
1.5206659 -0.099588737 -0.13367663 10 18
1.7203623 -0.11746986 0.26425987 39 28
1.694208 0.10650223 0.20297045 8 27
1.6586556 -0.11289791 0.15557158 33 26
1.6403096 0.10246689 0.1119208 40 25
1.621914 -0.11063854 0.074184105 6 24
1.6063783 0.099739611 0.036557 8 23
1.5737406 -0.1075628 0 34 22
1.5446482 -0.10580443 -0.070573889 13 20
1.5203272 -0.1046309 -0.13367663 10 18
1.7199633 -0.12317415 0.26425987 40 28
1.6895978 0.10058133 0.20236456 8 27
1.6706617 -0.11959183 0.15676096 9 26
1.638151 0.096875928 0.11174729 41 25
1.6265194 -0.11637958 0.074417017 6 24
1.6042056 0.094261706 0.036498971 9 23
1.5708817 -0.11259869 0 45 22
1.5467793 -0.11110855 -0.070690341 9 20
1.5174694 -0.10975396 -0.13345309 9 18
1.7219858 -0.1293654 0.26464623 36 28
1.6874614 0.094540507 0.20206162 8 27
1.6677527 -0.12523317 0.15652309 33 26
1.640969 0.09129937 0.1119208 39 25
1.6335737 -0.12262734 0.074766397 6 24
1.6045402 0.088381365 0.036498971 9 23
1.5779574 -0.11865418 0 49 22
1.5413817 -0.11639385 -0.070457429 9 20
1.5220423 -0.11543404 -0.13390017 9 18
1.7215 -0.13567592 0.26464623 38 28
1.6952304 0.088755019 0.20297045 8 27
1.6573597 -0.13055007 0.15557158 40 26
1.6388023 0.085151181 0.11174729 31 25
1.6231557 -0.12781622 0.074300557 6 24
1.5998473 0.082514837 0.036382917 9 23
1.5775119 -0.12443689 0 49 22
1.5384769 -0.12157329 -0.070340969 8 20
1.5216091 -0.12101183 -0.13390017 9 18
1.7185545 -0.14147843 0.26425987 38 28
1.685616 0.082338274 0.20175868 8 27
1.6593739 -0.13654192 0.15580945 44 26
1.649053 0.079927936 0.11244137 17 25
1.627677 -0.13389751 0.074533477 9 24
1.6051182 0.077177502 0.036498971 9 23
1.5795591 -0.13015144 0 50 22
1.5430202 -0.12736078 -0.070573889 9 20
1.5162151 -0.12590317 -0.13345309 9 18
1.720511 -0.14769086 0.26464623 39 28
1.6933299 0.076801978 0.2026675 8 27
1.6589119 -0.14204384 0.15580945 43 26
1.6468306 0.074055426 0.11226784 8 25
1.6197362 -0.138928 0.074184105 35 24
1.5928944 0.07099852 0.036208838 17 23
1.5790951 -0.13566433 0 50 22
1.5375907 -0.13231084 -0.070340969 8 20
1.5182697 -0.13114834 -0.13367663 9 18
1.7175518 -0.15317288 0.26425987 39 28
1.6960545 0.071294077 0.20297045 8 27
1.6584061 -0.14783366 0.15580945 44 26
1.6570338 0.069023855 0.11296193 6 25
1.6217537 -0.14452349 0.074300557 35 24
1.6031092 0.066143267 0.036440946 31 23
1.5761467 -0.14067434 0 51 22
1.5396304 -0.13763484 -0.070457429 9 20
1.5227619 -0.13690035 -0.13412371 9 18
1.7194659 -0.15939848 0.26464623 39 28
1.6863745 0.064976685 0.20175868 8 27
1.6578801 -0.15362167 0.15580945 44 26
1.6522806 0.063041747 0.11261488 8 25
1.6311847 -0.15111846 0.074766397 9 24
1.5958382 0.060252599 0.036266863 40 23
1.578135 -0.14640966 0 49 22
1.5391406 -0.14300831 -0.070457429 9 20
1.5222749 -0.14221495 -0.13412371 9 18
1.71887 -0.16569959 0.26464623 38 28
1.6940414 0.059065584 0.2026675 8 27
1.6573058 -0.15969709 0.15580945 42 26
1.642531 0.056626819 0.1119208 27 25
1.6231633 -0.15636754 0.074417017 6 24
1.598546 0.05449212 0.036324892 43 23
1.577588 -0.15219283 0 48 22
1.5361209 -0.1484049 -0.070340969 9 20
1.5242213 -0.14803769 -0.13434725 9 18
1.7207384 -0.17194729 0.26503256 38 28
1.6942371 0.05315192 0.2026675 8 27
1.6592143 -0.16573182 0.15604733 42 26
1.6427187 0.050892968 0.1119208 40 25
1.6300614 -0.16278701 0.074766397 6 24
1.6012245 0.048992068 0.036382917 43 23
1.5720725 -0.1571943 0 43 22
1.5687667 0.047401223 -0.035628568 7 21
1.5355935 -0.15376607 -0.070340969 8 20
1.5261724 -0.15361024 -0.13457079 9 18
1.7176714 -0.17769542 0.26464623 38 28
1.6894513 0.047092095 0.20206162 8 27
1.6561804 -0.17097422 0.15580945 42 26
1.6354077 0.044941764 0.11140025 42 25
1.6245158 -0.16795564 0.074533477 6 24
1.5938909 0.043187864 0.036208838 31 23
1.5690279 -0.16242002 0 15 22
1.5639186 0.042056561 -0.035512514 9 21
1.5400146 -0.15964742 -0.070573889 8 20
1.5330832 -0.15945378 -0.1352414 9 18
1.7195282 -0.1836559 0.26503256 33 28
1.6871173 0.041424878 0.20175868 8 27
1.6605219 -0.17728928 0.1562852 30 26
1.640534 0.039646268 0.11174729 41 25
1.6313984 -0.17414701 0.074882858 6 24
1.6040261 0.03787512 0.036440946 9 23
1.5784225 -0.16869873 0 30 22
1.5640559 0.036597207 -0.035512514 9 21
1.5369651 -0.16475238 -0.070457429 8 20
1.5424186 -0.16588339 -0.13613556 9 18
1.723753 -0.190506 0.26580524 9 28
1.682296 0.035130143 0.20115279 8 27
1.6598608 -0.1833742 0.1562852 25 26
1.6406683 0.033633143 0.11174729 42 25
1.6307492 -0.18012522 0.074882858 6 24
1.6016498 0.032221708 0.036382917 6 23
1.5728247 -0.17392634 0 42 22
1.5691772 0.030970842 -0.035628568 9 21
1.5413443 -0.17067313 -0.070690341 8 20
1.7279849 -0.19708793 0.26657793 8 28
1.689852 0.02939794 0.20206162 8 27
1.6542662 -0.18859673 0.15580945 38 26
1.6407757 0.027905935 0.11174729 41 25
1.6301105 -0.18581651 0.074882858 6 24
1.5992535 0.026585346 0.036324892 6 23
1.5746915 -0.17970237 0 48 22
1.5617788 0.025359726 -0.035454486 9 21
1.5407389 -0.17605239 -0.070690341 8 20
1.7174755 -0.20195211 0.26503256 29 28
1.6924254 0.023537191 0.20236456 8 27
1.6585742 -0.19466819 0.1562852 41 26
1.6358757 0.022103526 0.11140025 38 25
1.6319318 -0.19180036 0.074999318 7 24
1.5993366 0.021002743 0.036324892 6 23
1.5765371 -0.18549354 0 46 22
1.5643535 0.020216744 -0.035512514 9 21
1.5351557 -0.18083812 -0.070457429 8 20
1.7143446 -0.20734665 0.26464623 39 28
1.6949756 0.017954662 0.2026675 8 27
1.6578846 -0.2004565 0.1562852 41 26
1.6384337 0.016707808 0.11157376 28 25
1.6362444 -0.19781707 0.07523223 7 24
1.6018966 0.015727391 0.036382917 6 23
1.5759134 -0.19072051 0 37 22
1.5644144 0.014756008 -0.035512514 9 21
1.539505 -0.1865357 -0.070690341 8 20
1.7185119 -0.21394613 0.26541892 40 28
1.6950279 0.012037983 0.2026675 8 27
1.6571747 -0.20624237 0.1562852 42 26
1.6359882 0.010968045 0.11140025 10 25
1.6256329 -0.20228063 0.074766397 33 24
1.6069421 0.0098944278 0.036498971 6 23
1.5777184 -0.19653277 0 26 22
1.5644565 0.0092950938 -0.035512514 10 21
1.5437661 -0.19280301 -0.070923261 9 20
1.7152666 -0.21992607 0.26503256 40 28
1.7000237 0.0058495682 0.20327339 9 27
1.65394 -0.21199518 0.15604733 42 26
1.6459934 0.0050170445 0.11209433 10 25
1.6347872 -0.20952061 0.07523223 9 24
1.6069669 0.0042850929 0.036498971 6 23
1.5769874 -0.20231408 0 13 22
1.556982 0.0035322213 -0.035338432 22 21
1.5406073 -0.19786894 -0.070806809 9 20
1.7169369 -0.22623798 0.26541892 41 28
1.692589 -9.5052877e-05 0.20236456 14 27
1.6581235 -0.21842377 0.15652309 41 26
1.6410129 -0.0007337979 0.11174729 33 25
1.6340457 -0.21522582 0.07523223 6 24
1.599474 -0.0013295285 0.036324892 7 23
1.5787498 -0.20814778 0 9 22
1.5569848 -0.0019026815 -0.035338432 33 21
1.5473331 -0.2042363 -0.071156181 9 20
1.7161368 -0.23222984 0.26541892 40 28
1.69506 -0.0060084881 0.2026675 25 27
1.6524194 -0.22353663 0.15604733 40 26
1.6410003 -0.0064619971 0.11174729 42 25
1.6332846 -0.22092839 0.07523223 6 24
1.594461 -0.0068987682 0.036208838 7 23
1.5804905 -0.21399622 0 9 22
1.5594682 -0.0073454138 -0.03539646 47 21
1.5441368 -0.20929736 -0.071039721 9 20
1.7178034 -0.23826192 0.26580524 40 28
1.6851045 -0.01157577 0.20145573 32 27
1.6516693 -0.22901499 0.15604733 37 26
1.6384758 -0.011889351 0.11157376 43 25
1.6275966 -0.22565082 0.074999318 6 24
1.5969265 -0.012480138 0.036266863 17 23
1.5822479 -0.21958323 0 8 22
1.5594352 -0.012516756 -0.03539646 51 21
1.5409237 -0.21433856 -0.070923261 8 20
1.7144737 -0.24420495 0.26541892 38 28
1.6900139 -0.017796954 0.20206162 37 27
1.6582086 -0.23612939 0.15676096 14 26
1.6359276 -0.01787108 0.11140025 43 25
1.619343 -0.23054875 0.074649937 6 24
1.5968733 -0.018054375 0.036266863 18 23
1.588856 -0.2264494 0 8 22
1.5593787 -0.018232288 -0.03539646 50 21
1.5426379 -0.22007228 -0.071039721 8 20
1.5536544 -0.018180428 -0.10514389 9 19
1.7136108 -0.25018811 0.26541892 38 28
1.6874599 -0.02366491 0.20175868 38 27
1.6549121 -0.2415535 0.15652309 7 26
1.6408427 -0.023645844 0.11174729 42 25
1.6259402 -0.23729177 0.074999318 6 24
1.5918022 -0.02356209 0.036150813 7 23
1.5756897 -0.23017028 0 8 22
1.5618048 -0.023709446 -0.035454486 39 21
1.5492718 -0.22655016 -0.071389094 8 20
1.5236559 -0.023196165 -0.10307208 9 19
1.7151694 -0.25653666 0.26580524 30 28
1.6873671 -0.029555099 0.20175868 38 27
1.6590239 -0.24778177 0.15699884 14 26
1.6357628 -0.029291479 0.11140025 42 25
1.625102 -0.24296592 0.074999318 6 24
1.5967083 -0.029202124 0.036266863 6 23
1.5822924 -0.23678927 0 8 22
1.5567195 -0.028803825 -0.035338432 18 21
1.5509408 -0.2323302 -0.071505554 8 20
1.5260595 -0.028557235 -0.10324474 9 19
1.7240736 -0.26372936 0.26735064 12 28
1.6897411 -0.035198525 0.20206162 35 27
1.6532297 -0.25281245 0.15652309 35 26
1.6381501 -0.034764886 0.11157376 41 25
1.6316915 -0.24949588 0.07534869 6 24
1.5991014 -0.034546997 0.036324892 6 23
1.5839694 -0.24241664 0 8 22
1.564106 -0.034390718 -0.035512514 7 21
1.5476938 -0.23709039 -0.071389094 8 20
1.5259564 -0.033617672 -0.10324474 9 19
1.7772667 -0.041573748 0.33625278 7 29
1.7231426 -0.26974589 0.26735064 8 28
1.6920887 -0.041153338 0.20236456 27 27
1.6547953 -0.25896975 0.15676096 39 26
1.6355255 -0.040424999 0.11140025 42 25
1.6258773 -0.25441128 0.07511577 7 24
1.6039613 -0.040526405 0.036440946 6 23
1.5855829 -0.24833448 0 8 22
1.5589793 -0.039730746 -0.03539646 6 21
1.5492811 -0.24315205 -0.071505554 8 20
1.5233364 -0.038884416 -0.10307208 9 19
1.759925 -0.047646672 0.33293763 7 29
1.7197039 -0.27566564 0.26696429 7 28
1.696888 -0.047486529 0.20297045 9 27
1.6538351 -0.26503316 0.15676096 41 26
1.6353664 -0.046419233 0.11140025 36 25
1.6273992 -0.26076713 0.07523223 33 24
1.6038101 -0.046125028 0.036440946 6 23
1.5797261 -0.25334573 0 8 22
1.5613214 -0.045513336 -0.035454486 8 21
1.5484228 -0.24855858 -0.071505554 8 20
1.5206906 -0.044398699 -0.10289944 10 19
1.7720164 -0.054147355 0.3353056 7 29
1.7187312 -0.28166685 0.26696429 7 28
1.7016727 -0.05355845 0.20357633 6 27
1.6554025 -0.2709212 0.15699884 41 26
1.6426728 -0.052354619 0.1119208 28 25
1.6166235 -0.26481819 0.074766397 41 24
1.6011411 -0.051646326 0.036382917 6 23
1.5812987 -0.25926635 0 8 22
1.561162 -0.050690614 -0.035454486 26 21
1.5820384 -0.25967225 -0.073135972 9 20
1.5130477 -0.049474221 -0.10238149 17 19
1.7571063 -0.05954523 0.33246404 7 29
1.7299656 -0.28941801 0.26889601 7 28
1.6940453 -0.05895298 0.2026675 6 27
1.6519927 -0.27628425 0.15676096 39 26
1.6399977 -0.057717636 0.11174729 33 25
1.6157364 -0.27017766 0.074766397 43 24
1.6059568 -0.057125706 0.036498971 6 23
1.5878255 -0.26575685 0 8 22
1.5584778 -0.056053862 -0.03539646 42 21
1.515368 -0.054577131 -0.10255414 22 19
1.7667004 -0.066031262 0.33435842 7 29
1.7240766 -0.2946167 0.26812333 7 28
1.6938292 -0.064865947 0.2026675 6 27
1.6534709 -0.28247139 0.15699884 38 26
1.6372938 -0.063349247 0.11157376 42 25
1.6123223 -0.2753922 0.074649937 43 24
1.6032392 -0.062917247 0.036440946 7 23
1.5819609 -0.27044848 0 8 22
1.56077 -0.061588258 -0.035454486 50 21
1.5176605 -0.059960857 -0.10272679 24 19
1.7688993 -0.07260333 0.33483198 7 29
1.7278503 -0.30178988 0.26889601 7 28
1.6886209 -0.070872799 0.20206162 6 27
1.6548754 -0.28896108 0.15723671 27 26
1.6395427 -0.069451638 0.11174729 43 25
1.6137617 -0.28173259 0.074766397 44 24
1.5955182 -0.068204477 0.036266863 14 23
1.5784971 -0.27581114 0 8 22
1.5580368 -0.067204565 -0.03539646 52 21
1.5149387 -0.065419391 -0.10255414 23 19
1.7588254 -0.078354344 0.33293763 7 29
1.6982799 -0.077203177 0.20327339 9 27
1.6587555 -0.29561561 0.15771246 8 26
1.6392902 -0.075174287 0.11174729 43 25
1.6176844 -0.28824672 0.074999318 43 24
1.597767 -0.073885083 0.036324892 36 23
1.5824459 -0.282204 0 8 22
1.5577927 -0.072642721 -0.03539646 52 21
1.5147011 -0.070707113 -0.10255414 15 19
1.7634453 -0.084722005 0.33388481 7 29
1.6880851 -0.082659766 0.20206162 33 27
1.6700064 -0.30335447 0.15890186 6 26
1.6415089 -0.081015237 0.1119208 43 25
1.6142118 -0.29344171 0.074882858 38 24
1.5999959 -0.079582222 0.036382917 33 23
1.5814509 -0.28772604 0 8 22
1.5600394 -0.077928931 -0.035454486 45 21
1.5169361 -0.076114938 -0.10272679 9 19
1.7680581 -0.0908143 0.33483198 7 29
1.6878017 -0.088257208 0.20206162 38 27
1.6615977 -0.30781245 0.15818822 6 26
1.6337591 -0.086075798 0.11140025 44 25
1.6205946 -0.30016735 0.07523223 24 24
1.5947312 -0.084630318 0.036266863 15 23
1.5780307 -0.2925097 0 8 22
1.5597581 -0.083374009 -0.035454486 26 21
1.5216568 -0.081403308 -0.10307208 9 19
1.7628276 -0.09672334 0.33388481 7 29
1.6899611 -0.094282813 0.20236456 39 27
1.6629581 -0.31407574 0.15842611 9 26
1.6384293 -0.092050508 0.11174729 42 25
1.619537 -0.30582246 0.07523223 10 24
1.5969058 -0.090612501 0.036324892 7 23
1.577 -0.29801628 0 8 22
1.5644485 -0.089094497 -0.03557054 8 21
1.5238535 -0.086852312 -0.10324474 9 19
1.5003576 -0.085819811 -0.16802637 10 17
1.7624614 -0.10318378 0.33388481 7 29
1.689604 -0.10047621 0.20236456 38 27
1.6544666 -0.31874663 0.15771246 29 26
1.6380808 -0.098055035 0.11174729 42 25
1.6233083 -0.31270757 0.07546515 8 24
1.6015699 -0.096479155 0.036440946 6 23
1.5808054 -0.30474746 0 8 22
1.5715964 -0.095269948 -0.035744622 6 21
1.5235251 -0.092436925 -0.10324474 9 19
1.4950901 -0.090763636 -0.16745776 10 17
1.7669909 -0.10963245 0.33483198 7 29
1.6867664 -0.10622105 0.20206162 30 27
1.6558419 -0.32471338 0.15795034 37 26
1.6377286 -0.10377239 0.11174729 39 25
1.6246568 -0.31885633 0.075581603 8 24
1.5962342 -0.1017587 0.036324892 6 23
1.5870894 -0.31171915 0 8 22
1.5637883 -0.10001414 -0.03557054 6 21
1.5256822 -0.097910181 -0.10341739 9 19
1.4972432 -0.096137017 -0.16774207 10 17
1.7568188 -0.1148646 0.33293763 8 29
1.6913576 -0.11213514 0.2026675 14 27
1.6546983 -0.33049136 0.15795034 38 26
1.6448414 -0.10968946 0.11226784 20 25
1.6162456 -0.32276514 0.07523223 8 24
1.595888 -0.10705144 0.036324892 6 23
1.5811453 -0.31599385 0 8 22
1.5609357 -0.10530783 -0.035512514 6 21
1.5228606 -0.102805 -0.10324474 10 19
1.501873 -0.10142814 -0.16831069 10 17
1.7613053 -0.12132683 0.33388481 8 29
1.6959072 -0.11837683 0.20327339 7 27
1.6559727 -0.33676448 0.15818822 36 26
1.6494248 -0.11577222 0.11261488 10 25
1.6200023 -0.32940665 0.07546515 8 24
1.6029651 -0.11341777 0.036498971 6 23
1.5751344 -0.32050747 0 8 22
1.5580653 -0.11058284 -0.035454486 7 21
1.5249804 -0.10829282 -0.10341739 10 19
1.4990132 -0.1067597 -0.16802637 10 17
1.7608489 -0.12778153 0.33388481 8 29
1.6979373 -0.12477013 0.20357633 6 27
1.6522911 -0.34232357 0.15795034 38 26
1.6440145 -0.12145679 0.11226784 28 25
1.6236734 -0.33636171 0.075698063 8 24
1.6000667 -0.11883116 0.036440946 7 23
1.5739491 -0.32627845 0 8 22
1.5601423 -0.11647487 -0.035512514 17 21
1.5270607 -0.11406323 -0.10359004 9 19
1.5184488 -0.11343994 -0.17030084 10 17
1.7579442 -0.13374449 0.33341122 8 29
1.6925423 -0.13032243 0.20297045 7 27
1.6583896 -0.34963882 0.15866399 39 26
1.6386068 -0.12681727 0.1119208 39 25
1.6176035 -0.3409906 0.07546515 8 24
1.5971501 -0.12422571 0.036382917 18 23
1.5728006 -0.33177057 0 8 22
1.5597262 -0.12192006 -0.035512514 40 21
1.5266533 -0.11939296 -0.10359004 9 19
1.7599138 -0.14007136 0.33388481 7 29
1.6945509 -0.13642526 0.20327339 27 27
1.657221 -0.35513631 0.15866399 37 26
1.6381541 -0.13253631 0.1119208 43 25
1.6212857 -0.34768879 0.075698063 8 24
1.5991981 -0.12999876 0.036440946 38 23
1.5740767 -0.33778656 0 8 22
1.5642961 -0.12748992 -0.035628568 51 21
1.521255 -0.12432295 -0.10324474 9 19
1.7618864 -0.14610609 0.33435842 7 29
1.6866697 -0.14143254 0.20236456 38 27
1.6656946 -0.36305141 0.15961549 23 26
1.6377056 -0.1379679 0.1119208 43 25
1.6250024 -0.35413319 0.075930983 8 24
1.6012491 -0.13550813 0.036498971 44 23
1.5753896 -0.34354049 0 8 22
1.5588602 -0.13253389 -0.035512514 51 21
1.5183489 -0.12915953 -0.10307208 9 19
1.7613657 -0.15225534 0.33435842 7 29
1.6886383 -0.14753167 0.2026675 38 27
1.6619883 -0.36832199 0.1593776 9 26
1.6372141 -0.1436837 0.1119208 43 25
1.6213188 -0.35925987 0.075814523 8 24
1.6007662 -0.14109671 0.036498971 44 23
1.5888208 -0.35230455 0 8 22
1.5583881 -0.13797452 -0.035512514 46 21
1.5203736 -0.13467483 -0.10324474 9 19
1.7656862 -0.15914391 0.3353056 7 29
1.6880862 -0.15371984 0.2026675 38 27
1.6630542 -0.3749615 0.15961549 7 26
1.6366765 -0.14968343 0.1119208 43 25
1.6248621 -0.36630473 0.076047435 8 24
1.6002382 -0.14696287 0.036498971 35 23
1.5553827 -0.14345971 -0.035454486 31 21
1.5223535 -0.14047155 -0.10341739 9 19
1.7553422 -0.16440448 0.33341122 7 29
1.6900101 -0.15984149 0.20297045 38 27
1.666652 -0.38159144 0.16009125 7 26
1.6386272 -0.1556277 0.11209433 43 25
1.626007 -0.37253526 0.076163903 7 24
1.5947387 -0.15208089 0.036382917 14 23
1.5598752 -0.14908457 -0.03557054 21 21
1.5243369 -0.14601855 -0.10359004 9 19
1.7621183 -0.1709252 0.33483198 7 29
1.6894706 -0.16544491 0.20297045 38 27
1.6628865 -0.38683978 0.15985337 7 26
1.6356196 -0.16082038 0.1119208 34 25
1.6198994 -0.37678728 0.075930983 7 24
1.604176 -0.15833528 0.036615025 7 23
1.5668079 -0.15525641 -0.035744622 10 21
1.5188799 -0.15058847 -0.10324474 9 19
1.7615108 -0.17707512 0.33483198 7 29
1.6888829 -0.17134126 0.20297045 34 27
1.6591049 -0.39206651 0.15961549 7 26
1.6424929 -0.1672758 0.11244137 10 25
1.6258633 -0.38417187 0.076280355 8 24
1.6010983 -0.16396299 0.036557 6 23
1.5662564 -0.16072464 -0.035744622 9 21
1.5208263 -0.15614018 -0.10341739 9 19
1.763292 -0.18378122 0.3353056 11 29
1.6956487 -0.17829801 0.20387927 23 27
1.664914 -0.39989784 0.16032912 7 26
1.6393881 -0.17303661 0.11226784 6 25
1.6195893 -0.38895568 0.076047435 8 24
1.6005162 -0.16955087 0.036557 6 23
1.5681425 -0.16672458 -0.035802651 8 21
1.5227244 -0.16197309 -0.10359004 9 19
1.7675216 -0.19045429 0.33625278 22 29
1.6925485 -0.18395127 0.20357633 8 27
1.665925 -0.40629983 0.160567 7 26
1.6412539 -0.17902485 0.11244137 7 25
1.6206472 -0.39520156 0.076163903 7 24
1.6023995 -0.17540488 0.036615025 7 23
1.567551 -0.17219739 -0.035802651 8 21
1.5246292 -0.16755587 -0.10376269 9 19
1.7619659 -0.19608675 0.3353056 20 29
1.6943626 -0.19013143 0.20387927 19 27
1.6430976 -0.1850282 0.11261488 13 25
1.6192578 -0.40085626 0.076163903 7 24
1.5918418 -0.17988975 0.036382917 20 23
1.5545518 -0.17600815 -0.035512514 8 21
1.5265137 -0.17315395 -0.10393534 9 19
1.7686234 -0.20275711 0.33672637 12 29
1.6887916 -0.19518639 0.20327339 36 27
1.6350417 -0.18962502 0.11209433 31 25
1.6251835 -0.40805769 0.076513276 7 24
1.5986855 -0.18602282 0.036557 41 23
1.5638597 -0.18257733 -0.035744622 9 21
1.5259311 -0.1782151 -0.10393534 9 19
1.7630285 -0.20836012 0.33577919 9 29
1.6856354 -0.20079023 0.20297045 38 27
1.6393235 -0.19591576 0.11244137 39 25
1.6164917 -0.41186881 0.076163903 7 24
1.600475 -0.19217524 0.036615025 48 23
1.5607309 -0.18774049 -0.035686597 9 21
1.5203465 -0.18295249 -0.10359004 9 19
1.7598159 -0.21452694 0.3353056 7 29
1.6898152 -0.20756501 0.20357633 38 27
1.6361185 -0.20162152 0.11226784 42 25
1.6270556 -0.42093399 0.076746188 7 24
1.5973135 -0.19745789 0.036557 48 23
1.5674747 -0.19437076 -0.035860676 9 21
1.5246167 -0.18912978 -0.10393534 9 19
1.7639285 -0.22127278 0.33625278 7 29
1.6866179 -0.21315472 0.20327339 38 27
1.6354048 -0.20733139 0.11226784 42 25
1.6207471 -0.42533681 0.076513276 7 24
1.5990943 -0.20334388 0.036615025 46 23
1.5643071 -0.19952869 -0.035802651 9 21
1.5288961 -0.19507396 -0.10428064 9 19
1.7680154 -0.22804996 0.33719999 7 29
1.6883249 -0.21935701 0.20357633 37 27
1.6371448 -0.21335742 0.11244137 40 25
1.6289022 -0.43357369 0.076979108 8 24
1.595896 -0.20860434 0.036557 46 23
1.5685583 -0.20563002 -0.035918705 9 21
1.5356259 -0.20137067 -0.10479859 9 19
1.7648154 -0.23359294 0.33672637 7 29
1.6875882 -0.22495449 0.20357633 38 27
1.6413732 -0.21943884 0.11278841 25 25
1.6250451 -0.43831939 0.076862648 7 24
1.6001506 -0.21455216 0.036673054 46 23
1.5678679 -0.21083041 -0.035918705 9 21
1.5423667 -0.20744757 -0.10531654 9 19
1.6892519 -0.23117682 0.20387927 37 27
1.6356546 -0.22449607 0.11244137 8 25
1.633137 -0.44663683 0.077328481 7 24
1.5968772 -0.22007811 0.036615025 44 23
1.5695984 -0.21663991 -0.03597673 9 21
1.6834773 -0.2366828 0.20327339 36 27
1.6397607 -0.23117854 0.11278841 6 25
1.6242725 -0.45060742 0.076979108 7 24
1.6010498 -0.22634315 0.036731079 46 23
1.5712692 -0.22273828 -0.036034759 9 21
1.6924678 -0.24395987 0.20448515 25 27
1.653757 -0.23901974 0.11382953 6 25
1.6226897 -0.45627439 0.076979108 8 24
1.5977758 -0.23157571 0.036673054 44 23
1.5705218 -0.22794758 -0.036034759 9 21
1.6867384 -0.24885362 0.20387927 27 27
1.6504875 -0.24414115 0.11365601 6 25
1.6235687 -0.46234006 0.077095568 14 24
1.6019447 -0.23759875 0.036789104 40 23
1.5672439 -0.23306452 -0.03597673 9 21
1.6858596 -0.25473991 0.20387927 37 27
1.6496253 -0.24990094 0.11365601 8 25
1.6195463 -0.46730903 0.076979108 20 24
1.593691 -0.2420744 0.036615025 29 23
1.5688922 -0.23890626 -0.036034759 9 21
1.6849599 -0.26062313 0.20387927 37 27
1.6462778 -0.25527915 0.11348249 22 25
1.6274894 -0.47577482 0.077444941 13 24
1.5952631 -0.24829456 0.036673054 17 23
1.5705189 -0.24476232 -0.036092784 8 21
1.686445 -0.26718184 0.20418221 37 27
1.6354765 -0.2597611 0.11278841 37 25
1.6017933 -0.25502935 0.036847133 9 23
1.5696112 -0.25051692 -0.036092784 8 21
1.6904024 -0.27385366 0.20478809 37 27
1.6345596 -0.26546839 0.11278841 41 25
1.6008934 -0.26061907 0.036847133 9 23
1.5712392 -0.25611883 -0.036150813 8 21
1.6870362 -0.27905628 0.20448515 38 27
1.6336704 -0.27088735 0.11278841 34 25
1.6000202 -0.26592639 0.036847133 8 23
1.5678697 -0.26119503 -0.036092784 8 21
1.6884993 -0.28535342 0.20478809 36 27
1.6425531 -0.27823991 0.11348249 12 25
1.6014994 -0.27220407 0.036905158 8 23
1.5718774 -0.26749736 -0.036208838 8 21
1.6874421 -0.29154021 0.20478809 35 27
1.6513544 -0.28594598 0.11417657 6 25
1.6079291 -0.27906376 0.037079241 8 23
1.5684235 -0.27283224 -0.036150813 8 21
1.6839696 -0.29700115 0.20448515 36 27
1.6429766 -0.29041705 0.11365601 6 25
1.6020217 -0.28381023 0.036963187 8 23
1.5650486 -0.2775991 -0.036092784 8 21
1.6903046 -0.30389065 0.20539397 35 27
1.6469146 -0.29674104 0.11400305 6 25
1.6010718 -0.28912115 0.036963187 9 23
1.5665301 -0.28350174 -0.036150813 8 21
1.6892335 -0.30978903 0.20539397 33 27
1.6532295 -0.3038297 0.11452361 6 25
1.6024599 -0.29543686 0.037021212 9 23
1.5630724 -0.28851834 -0.036092784 8 21
1.6929666 -0.31688449 0.20599985 27 27
1.6398453 -0.30760601 0.11365601 6 25
1.6063329 -0.30194479 0.037137266 8 23
1.5693749 -0.29562205 -0.036266863 8 21
1.6894119 -0.3223305 0.20569691 10 27
1.6485627 -0.31518731 0.11435009 7 25
1.6052692 -0.30755007 0.037137266 8 23
1.6907129 -0.32869577 0.20599985 7 27
1.6401066 -0.31952003 0.11382953 12 25
1.6090934 -0.31410205 0.037253324 8 23
1.6920488 -0.33477879 0.20630279 7 27
1.6316967 -0.32351276 0.11330897 31 25
1.6055907 -0.31895295 0.037195295 8 23
1.6884365 -0.3401964 0.20599985 7 27
1.6354482 -0.33018643 0.11365601 40 25
1.6019605 -0.32434326 0.037137266 8 23
1.6847467 -0.34588698 0.20569691 7 27
1.6366706 -0.33667734 0.11382953 40 25
1.6081644 -0.33143574 0.037311349 8 23
1.6908187 -0.35327795 0.20660573 7 27
1.6354854 -0.34238833 0.11382953 38 25
1.6021041 -0.33602846 0.037195295 8 23
1.6944313 -0.36020297 0.20721161 7 27
1.6391604 -0.34912708 0.11417657 28 25
1.6033665 -0.34213674 0.037253324 8 23
1.6404319 -0.35508487 0.11435009 14 25
1.602223 -0.34745184 0.037253324 8 23
1.6488647 -0.36322695 0.11504417 9 25
1.6058216 -0.35439187 0.037369378 8 23
1.6402835 -0.36735588 0.11452361 8 25
1.5996958 -0.35890809 0.037253324 8 23
1.6535866 -0.37637922 0.11556474 8 25
1.6008707 -0.36504191 0.037311349 8 23
1.647468 -0.38074455 0.1152177 8 25
1.6020871 -0.37090868 0.037369378 8 23
1.6509863 -0.38762602 0.11556474 9 25
1.6031506 -0.37734714 0.037427403 8 23
1.6471279 -0.39309913 0.11539122 15 25
1.6018237 -0.38294089 0.037427403 8 23
1.6530197 -0.40059802 0.11591178 15 25
1.6004772 -0.38852996 0.037427403 8 23
1.6492596 -0.40548551 0.11573827 9 25
1.59918 -0.39383522 0.037427403 8 23
1.6478341 -0.41124001 0.11573827 7 25
1.6147044 -0.40391448 0.037833594 8 23
1.6487341 -0.41788611 0.11591178 7 25
1.6302483 -0.41382828 0.038239781 8 23
1.6448491 -0.42302102 0.11573827 7 25
1.6506046 -0.43063843 0.11625882 7 25
1.6491675 -0.43610966 0.11625882 7 25
1.6476351 -0.44186369 0.11625882 7 25
1.6508194 -0.4492023 0.11660586 7 25
1.6596392 0.20659144 0.15652309 8 26
1.6727055 0.20227462 0.15771246 9 26
1.6659852 0.19557385 0.15699884 9 26
1.6616787 0.18949075 0.15652309 8 26
1.6697518 0.18449946 0.15723671 8 26
1.6654669 0.17785627 0.15676096 8 26
1.6586204 0.17157404 0.15604733 8 26
1.6616857 0.16602747 0.1562852 8 26
1.6597778 0.15999061 0.15604733 8 26
1.640553 0.15815705 0.07523223 6 24
1.6578746 0.15367971 0.15580945 8 26
1.6336608 0.15146144 0.074882858 7 24
1.6559218 0.14767396 0.15557158 8 26
1.6267164 0.14510243 0.074533477 8 24
1.6638417 0.14281054 0.1562852 8 26
1.622236 0.13900356 0.074300557 8 24
1.6593691 0.1366 0.15580945 8 26
1.6276664 0.13402644 0.074533477 8 24
1.6598358 0.13080689 0.15580945 8 26
1.6306142 0.12853689 0.074649937 8 24
1.6603041 0.12472241 0.15580945 8 26
1.6285838 0.12237577 0.074533477 8 24
1.6631911 0.11939086 0.15604733 8 26
1.6290009 0.11669021 0.074533477 8 24
1.6586314 0.11325205 0.15557158 8 26
1.6343625 0.11162123 0.074766397 10 24
1.6540494 0.10714652 0.15509583 8 26
1.6272652 0.10544121 0.074417017 24 24
1.6569152 0.10123187 0.1553337 8 26
1.6176695 0.098880388 0.073951185 38 24
1.6522889 0.095167965 0.15485795 8 26
1.6155113 0.093092792 0.073834725 44 24
1.6650214 0.090345986 0.15604733 8 26
1.6183203 0.0875846 0.073951185 45 24
1.6628411 0.084410556 0.15580945 8 26
1.6186019 0.082217582 0.073951185 43 24
1.580386 0.080051929 0 8 22
1.6606532 0.078201614 0.15557158 8 26
1.621387 0.076398715 0.074067645 17 24
1.5781713 0.074145146 0 9 22
1.6609161 0.072404377 0.15557158 8 26
1.6216438 0.070738547 0.074067645 8 24
1.5784205 0.068635844 0 8 22
1.6735808 0.067380354 0.15676096 9 26
1.6218809 0.065077521 0.074067645 18 24
1.5836468 0.063318521 0 9 22
1.6638575 0.061185446 0.15580945 14 26
1.6146007 0.059433438 0.073718272 38 24
1.5788511 0.05789037 0 9 22
1.664061 0.055377118 0.15580945 24 26
1.6197902 0.053956557 0.073951185 43 24
1.5740461 0.052220002 0 8 22
1.7236148 0.050968722 0.26425987 7 28
1.6567897 0.049066596 0.15509583 36 26
1.6174808 0.04794877 0.073834725 44 24
1.5792251 0.046590965 0 9 22
1.7262516 0.045013081 0.26464623 8 28
1.6594388 0.043344691 0.1553337 41 26
1.6176382 0.042302415 0.073834725 45 24
1.5868758 0.041262709 0 10 22
1.7140511 0.038724124 0.26271451 7 28
1.6595734 0.037841555 0.1553337 42 26
1.6177762 0.036655545 0.073834725 45 24
1.5795118 0.035564847 0 24 22
1.7215787 0.033173114 0.26387355 8 28
1.6621838 0.03209307 0.15557158 41 26
1.615392 0.031245716 0.073718272 45 24
1.5771215 0.030282304 0 38 22
1.7241585 0.026898336 0.26425987 7 28
1.6622902 0.026000649 0.15557158 42 26
1.6154957 0.025324799 0.073718272 39 24
1.5797216 0.024537001 0 47 22
1.7267118 0.020906463 0.26464623 7 28
1.6648593 0.020224942 0.15580945 35 26
1.6280599 0.019820625 0.074300557 11 24
1.5822974 0.019049209 0 49 22
1.548158 0.018415492 -0.070573889 3 20
1.7267741 0.014878985 0.26464623 7 28
1.6773602 0.014797345 0.15699884 10 26
1.6306163 0.01415582 0.074417017 7 24
1.5773544 0.013490067 0 49 22
1.55071 0.013028733 -0.070690341 9 20
1.7218741 0.0091328854 0.26387355 7 28
1.6724242 0.0089221932 0.15652309 6 26
1.6331517 0.0087584499 0.074533477 7 24
1.5748905 0.0082496963 0 49 22
1.5432529 0.0078588631 -0.070340969 9 20
1.7169557 0.0031197804 0.26310086 7 28
1.6724452 0.0030842894 0.15652309 6 26
1.6256804 0.0030537101 0.074184105 7 24
1.5799097 0.0027539982 0 48 22
1.5507631 0.0022025055 -0.070690341 9 20
1.7218955 -0.0031887169 0.26387355 7 28
1.6699566 -0.0030377314 0.1562852 6 26
1.6231834 -0.0028968814 0.074067645 24 24
1.5799092 -0.0030366792 0 49 22
1.5457668 -0.0031932471 -0.070457429 9 20
1.7268137 -0.0092319958 0.26464623 7 28
1.6699374 -0.0085754907 0.1562852 9 26
1.620666 -0.0085462686 0.073951185 41 24
1.577389 -0.0085345563 0 49 22
1.5507407 -0.0086238291 -0.070690341 9 20
1.7218338 -0.014909123 0.26387355 7 28
1.6624318 -0.014330336 0.15557158 34 26
1.620629 -0.013920545 0.073951185 43 24
1.5723523 -0.013714706 0 49 22
1.5457093 -0.013714792 -0.070457429 9 20
1.7217712 -0.020919353 0.26387355 7 28
1.6598831 -0.020099772 0.1553337 41 26
1.661711 0.19773635 0.11400305 8 25
1.6180733 -0.01954395 0.073834725 44 24
1.5747947 -0.019237189 0 48 22
1.5456487 -0.019380009 -0.070457429 9 20
1.721683 -0.027229819 0.26387355 8 28
1.6597983 -0.026183413 0.1553337 43 26
1.6326989 0.18817364 0.1119208 12 25
1.6204877 -0.025517065 0.073951185 45 24
1.5772133 -0.025052166 0 48 22
1.5405778 -0.024688043 -0.070224509 18 20
1.7240468 -0.033290315 0.26425987 8 28
1.662185 -0.03202828 0.15557158 42 26
1.6333456 0.1824733 0.1119208 15 25
1.6203889 -0.031173468 0.073951185 34 24
1.5771163 -0.030557513 0 44 22
1.5479724 -0.030222414 -0.070573889 26 20
1.7189817 -0.03918919 0.26348719 7 28
1.6570936 -0.037421107 0.15509583 42 26
1.6513264 0.17867437 0.11313545 9 25
1.6327529 -0.037130207 0.074533477 9 24
1.5819983 -0.036183778 0 26 22
1.5353748 -0.035320587 -0.069991596 39 20
1.7163733 -0.044821654 0.26310086 7 28
1.656953 -0.043205217 0.15509583 39 26
1.65687 0.17372483 0.11348249 9 25
1.6326209 -0.042544406 0.074533477 7 24
1.5768715 -0.041291814 0 8 22
1.5352421 -0.040679831 -0.069991596 53 20
1.7161975 -0.051112171 0.26310086 7 28
1.6667333 -0.049587175 0.15604733 26 26
1.6574955 0.16765094 0.11348249 9 25
1.6299578 -0.048450403 0.074417017 6 24
1.5767096 -0.047071058 0 18 22
1.5350907 -0.046038575 -0.069991596 55 20
1.7209456 -0.057273183 0.26387355 8 28
1.6615757 -0.055232886 0.15557158 8 26
1.6580706 0.16186418 0.11348249 8 25
1.6347705 -0.054312289 0.074649937 7 24
1.5765357 -0.052574515 0 43 22
1.5374167 -0.051483922 -0.070108056 54 20
1.5205553 -0.051686123 -0.13345309 9 18
1.7232033 -0.063374005 0.26425987 8 28
1.6613835 -0.060742568 0.15557158 7 26
1.656143 0.15583813 0.11330897 8 25
1.6320754 -0.059923377 0.074533477 7 24
1.5763426 -0.058077335 0 48 22
1.5372276 -0.056850195 -0.070108056 53 20
1.5228636 -0.056824636 -0.13367663 9 18
1.7254516 -0.069190145 0.26464623 8 28
1.6636478 -0.066644415 0.15580945 22 26
1.6541671 0.15011625 0.11313545 9 25
1.6193919 -0.064818859 0.073951185 8 24
1.5786391 -0.063408166 0 48 22
1.5345353 -0.061843365 -0.069991596 55 20
1.522656 -0.062140074 -0.13367663 9 18
1.7153296 -0.074769668 0.26310086 7 28
1.7083769 0.14969996 0.20509103 4 27
1.6584326 -0.072228044 0.1553337 38 26
1.6447443 0.14345962 0.11244137 13 25
1.6241454 -0.070695154 0.074184105 25 24
1.5784082 -0.068918258 0 49 22
1.5367932 -0.067580596 -0.070108056 53 20
1.5174551 -0.06722711 -0.13322955 9 18
1.7249122 -0.081535347 0.26464623 8 28
1.6916059 0.1419597 0.20297045 7 27
1.6581568 -0.078306019 0.1553337 44 26
1.645259 0.13743035 0.11244137 17 25
1.6188866 -0.076405227 0.073951185 42 24
1.580642 -0.074824646 0 50 22
1.5365479 -0.072944589 -0.070108056 53 20
1.5221725 -0.073034286 -0.13367663 9 18
1.7172173 -0.08717069 0.26348719 9 28
1.6896181 0.13585156 0.2026675 8 27
1.6553881 -0.083964206 0.15509583 43 26
1.6457287 0.13168649 0.11244137 12 25
1.6186101 -0.082055733 0.073951185 45 24
1.5778745 -0.080211252 0 51 22
1.536284 -0.078307696 -0.070108056 54 20
1.5243945 -0.078478828 -0.13390017 9 18
1.7267671 -0.093712434 0.26503256 12 28
1.690082 0.12995288 0.2026675 8 27
1.6575698 -0.089880139 0.1553337 43 26
1.6436918 0.12574708 0.11226784 12 25
1.6233007 -0.087982297 0.074184105 34 24
1.5775851 -0.08571858 0 49 22
1.5384945 -0.083809249 -0.070224509 53 20
1.5265975 -0.083939783 -0.13412371 9 18
1.7190325 -0.099302538 0.26387355 28 28
1.6929998 0.12423778 0.20297045 8 27
1.659747 -0.095522635 0.15557158 43 26
1.6490949 0.12037928 0.11261488 22 25
1.6229837 -0.093648136 0.074184105 8 24
1.6027534 0.116371 0.036498971 7 23
1.5772762 -0.091224857 0 49 22
1.5406855 -0.089327194 -0.070340969 49 20
1.5238252 -0.088853158 -0.13390017 9 18
1.7211589 -0.1051563 0.26425987 37 28
1.6909274 0.11844592 0.2026675 8 27
1.6569195 -0.10116068 0.1553337 43 26
1.6370467 0.11402498 0.11174729 29 25
1.6251565 -0.099185124 0.074300557 6 24
1.5981443 0.1107024 0.036382917 9 23
1.5794601 -0.096610896 0 43 22
1.5378884 -0.094279438 -0.070224509 37 20
1.5235057 -0.094171762 -0.13390017 9 18
