# .PCD v0.7 - Point Cloud Data file format
VERSION 0.7
FIELDS x y z intensity ring
SIZE 4 4 4 4 2
TYPE F F F F U
COUNT 1 1 1 1 1
WIDTH 1331
HEIGHT 1
VIEWPOINT 0 0 0 1 0 0 0
POINTS 1331
DATA ascii
2.9137995 -1.4060988 0.74063998 64 30
3.19451 -1.0448873 0.64172184 62 29
2.9171009 -1.4064595 0.50108927 68 28
3.2116687 -1.0535629 0.40836442 65 27
2.9302075 -1.4121729 0.30757499 69 26
3.2129588 -1.0552206 0.23286469 68 25
2.9355078 -1.41537 0.15034801 71 24
3.2170475 -1.0577977 0.077814184 66 23
2.9361644 -1.416319 0 72 22
3.2192373 -1.0591384 -0.077872217 60 21
2.9395101 -1.4185684 -0.15058091 73 20
3.221777 -1.0606014 -0.23238699 68 19
2.948452 -1.4241537 -0.29082492 73 18
3.2251849 -1.061727 -0.38466951 70 17
2.9340591 -1.4184468 -0.4479447 71 16
2.793787 -0.91899616 -0.50668365 8 15
2.9396653 -1.4268173 -0.92513806 68 13
3.110059 -1.021553 -0.74174851 21 14
2.9163938 -1.4192451 -1.1097848 33 12
2.7610221 -0.90035629 -1.1604091 4 11
0.76756442 -0.37452495 -0.43500599 7 9
nan nan nan 0 10
0.69044071 -0.33805943 -0.44356787 6 8
0.65758228 -0.21290712 -0.44419184 9 7
0.54878879 -0.27017051 -0.4392409 10 6
0.53832 -0.17259385 -0.44905618 11 5
0.45211923 -0.22437473 -0.44915554 9 4
0.43196291 -0.13711645 -0.44394141 8 3
nan nan nan 0 2
nan nan nan 0 1
nan nan nan 0 0
3.1919091 -1.0527029 0.88750184 59 31
2.9091208 -1.4157536 0.74063998 64 30
3.1886966 -1.0547057 0.64124829 63 29
2.9124212 -1.4161252 0.50108927 67 28
3.2105136 -1.0649871 0.40866736 64 27
2.923023 -1.4213028 0.30733714 68 26
3.2094421 -1.0658695 0.23286469 66 25
2.9330432 -1.4261904 0.15046446 71 24
3.2111495 -1.067673 0.077756159 67 23
2.9336991 -1.4271431 0 71 22
3.2155206 -1.0703692 -0.077872217 67 21
2.9303005 -1.4261197 -0.15034801 72 20
3.2135079 -1.0697073 -0.23204169 69 19
2.9389875 -1.4322524 -0.29037786 72 18
3.2192891 -1.0716336 -0.3843852 69 17
2.9268649 -1.4275928 -0.44760063 72 16
2.7766986 -0.92360342 -0.50410724 9 15
2.9306014 -1.4344414 -0.92376232 69 13
3.1573627 -1.0492722 -0.75402725 43 14
2.9095514 -1.4278661 -1.1089675 33 12
2.7424512 -0.90491867 -1.1538477 6 11
0.77218717 -0.38014412 -0.43852359 7 9
nan nan nan 0 10
0.685426 -0.33856016 -0.44098148 6 8
0.66081297 -0.21635927 -0.44699433 9 7
0.54961997 -0.27297661 -0.44075555 11 6
0.54498613 -0.17678982 -0.45551741 10 5
0.45133328 -0.22595155 -0.44915554 8 4
0.4380253 -0.14067662 -0.45121911 8 3
nan nan nan 0 2
nan nan nan 0 1
nan nan nan 0 0
3.1836314 -1.0623127 0.88621283 61 31
2.9019759 -1.4248248 0.74007642 65 30
3.1826668 -1.0650527 0.64077467 65 29
2.9052434 -1.4251935 0.50070292 67 28
3.1926568 -1.0714601 0.40684968 65 27
2.9135768 -1.4293022 0.30686137 68 26
3.2033374 -1.0762734 0.23269117 66 25
2.9235647 -1.4342171 0.15023154 70 24
3.202476 -1.0778443 0.077640109 66 23
2.9219689 -1.4340659 0 71 22
3.2141337 -1.0823829 -0.077930234 67 21
2.9228129 -1.4357476 -0.15023154 72 20
3.2050261 -1.0793296 -0.2316964 66 19
2.9317362 -1.4414026 -0.29015431 73 18
3.2106314 -1.0818428 -0.3838166 69 17
2.9196432 -1.4367059 -0.44725662 72 16
2.7896378 -0.93926173 -0.50711298 4 15
2.9210157 -1.4430408 -0.92238671 69 13
3.0150549 -1.0137959 -0.72053975 49 14
2.9021819 -1.4374703 -1.1081504 34 12
2.7764971 -0.9274137 -1.1697823 5 11
0.7669059 -0.380862 -0.43617857 7 9
0.9192487 -0.30784416 -0.43896481 5 10
0.68991572 -0.34395212 -0.44486105 6 8
0.65214425 -0.21620555 -0.44138938 9 7
0.54861575 -0.27498922 -0.44075555 11 6
0.54796612 -0.17995839 -0.45874804 11 5
0.45532778 -0.23007475 -0.4543381 9 4
0.43914071 -0.14280038 -0.45303854 8 3
nan nan nan 0 2
nan nan nan 0 1
nan nan nan 0 0
3.1797163 -1.0739741 0.88621283 61 31
2.8923707 -1.4332855 0.73894906 65 30
3.1764164 -1.0759249 0.64030105 63 29
2.9000003 -1.4358323 0.50070292 68 28
3.1887083 -1.0831547 0.40684968 65 27
2.910548 -1.4410772 0.30709925 68 26
3.1946471 -1.0864044 0.23234412 66 25
2.9182885 -1.4449228 0.15023154 71 24
3.1963277 -1.0882126 0.077582076 66 23
2.9144537 -1.4436548 0 71 22
3.2030463 -1.0917422 -0.077756159 60 21
2.9200206 -1.4470518 -0.15034801 73 20
3.196326 -1.0894635 -0.23135109 66 19
2.9242039 -1.4510299 -0.28993076 73 18
3.1997805 -1.0906445 -0.38296366 69 17
2.9099236 -1.4451914 -0.44656852 72 16
nan nan nan 0 15
2.9159608 -1.4532284 -0.92238671 69 13
3.2074628 -1.0914217 -0.7679804 69 14
2.8971467 -1.4475921 -1.1081504 34 12
2.7798321 -0.93931991 -1.1725942 6 11
0.76156247 -0.38168061 -0.43383348 7 9
0.9203136 -0.3117713 -0.44002765 6 10
0.69061923 -0.34732559 -0.44615427 6 8
0.65335119 -0.21913108 -0.44279063 9 7
0.55119503 -0.27871221 -0.44378477 11 6
0.54189324 -0.1800926 -0.4539021 11 5
0.44649348 -0.22751719 -0.44570053 9 4
0.44027182 -0.14485739 -0.45485798 8 3
nan nan nan 0 2
nan nan nan 0 1
nan nan nan 0 0
3.1690891 -1.0827292 0.88427925 60 31
2.8895278 -1.4444637 0.73951274 65 30
3.1679957 -1.0854183 0.63935393 64 29
2.8927617 -1.4448413 0.50031662 68 28
3.1778655 -1.0918649 0.40594089 65 27
2.9010484 -1.449001 0.30662349 68 26
3.1884768 -1.0967398 0.23217061 66 25
2.9132266 -1.4551008 0.15023154 71 24
3.1806908 -1.0953029 0.077291943 64 23
2.9093966 -1.4538192 0 71 22
3.194489 -1.1012903 -0.077640109 68 21
2.9082527 -1.4538813 -0.14999864 73 20
3.1877868 -1.0989919 -0.23100579 66 19
2.9168952 -1.4601125 -0.28970721 73 18
3.1959538 -1.1018072 -0.38296366 67 17
2.904861 -1.4553403 -0.44656852 73 16
3.1766522 -1.0939478 -0.57968044 68 15
2.9065771 -1.4612359 -0.92101103 70 13
3.1529274 -1.085201 -0.75570166 69 14
2.8899665 -1.4566313 -1.1073331 34 12
2.8138294 -0.96172786 -1.1885288 7 11
0.76612854 -0.3873418 -0.43735108 7 9
0.92993271 -0.31862056 -0.445342 7 10
0.69130766 -0.35070822 -0.44744751 6 8
0.6565088 -0.22272493 -0.44559309 9 7
0.54668266 -0.27881256 -0.44075555 10 6
0.54850805 -0.1843783 -0.46036333 10 5
0.44569656 -0.22907436 -0.44570053 8 4
0.43813312 -0.14586265 -0.45303854 8 3
nan nan nan 0 2
nan nan nan 0 1
nan nan nan 0 0
3.1607232 -1.0922103 0.88299024 60 31
2.8822942 -1.4534431 0.73894906 65 30
3.1618674 -1.0956678 0.63888031 64 29
2.8877008 -1.4549299 0.50031662 68 28
3.1693459 -1.1013254 0.40533501 65 27
2.8940058 -1.4574924 0.30638564 68 26
3.1799169 -1.1062274 0.23182356 66 25
2.9081299 -1.465261 0.15023154 72 24
3.1744871 -1.1055787 0.077233911 66 23
2.9020724 -1.4628392 0 71 22
3.1813765 -1.1085949 -0.077408001 67 21
2.9031601 -1.4640242 -0.14999864 72 20
3.1768644 -1.1076545 -0.23048784 61 19
2.9120374 -1.4697771 -0.28970721 73 18
3.1827047 -1.1096925 -0.3818264 63 17
2.8956001 -1.462729 -0.44588044 73 16
3.1704876 -1.1042212 -0.57925099 68 15
2.8993158 -1.4702843 -0.92032325 70 13
3.1976576 -1.1124297 -0.76742232 68 14
2.8848646 -1.4667103 -1.1073331 34 12
2.8150074 -0.97256339 -1.1904035 9 11
0.75698245 -0.38584727 -0.43266097 8 9
0.93309498 -0.32333508 -0.44746774 7 10
0.68443561 -0.35005778 -0.44356787 5 8
0.66161036 -0.22700764 -0.44979683 9 7
0.55105013 -0.28337446 -0.44529942 11 6
0.54427427 -0.18498658 -0.45713273 10 5
0.44973451 -0.23307115 -0.45088306 8 4
0.43927559 -0.14785084 -0.45485798 8 3
nan nan nan 0 2
nan nan nan 0 1
nan nan nan 0 0
3.1525218 -1.1010962 0.88170117 62 31
2.875288 -1.4618876 0.73838538 65 30
3.1558995 -1.1053373 0.63840669 63 29
2.8784573 -1.4622575 0.49954388 67 28
3.1656764 -1.1118293 0.40533501 64 27
2.8866827 -1.4664567 0.30614775 68 26
3.1715245 -1.1151154 0.23147653 66 25
2.8965778 -1.4714988 0.14988217 70 24
3.1731617 -1.1169276 0.077291943 68 23
2.8927498 -1.4701864 0 71 22
3.1774874 -1.1196932 -0.077408001 65 21
2.8960638 -1.4725099 -0.14988217 73 20
3.1708212 -1.1173559 -0.23031519 62 19
2.9024525 -1.4776707 -0.28926015 73 18
3.1790075 -1.1202404 -0.3818264 39 17
2.8904767 -1.4728276 -0.44588044 73 16
3.15519 -1.1106488 -0.57710403 68 15
2.890146 -1.4776993 -0.91894752 69 13
3.1868565 -1.1211637 -0.7657479 69 14
2.8778832 -1.4751896 -1.106516 35 12
2.8203497 -0.985434 -1.1941527 10 11
0.76151341 -0.39153257 -0.43617857 7 9
0.92560476 -0.32420066 -0.44427913 6 10
0.68510789 -0.35343176 -0.44486105 5 8
0.6647715 -0.23054166 -0.45259929 9 7
0.55886674 -0.28991133 -0.45287254 12 6
0.53458744 -0.18382971 -0.44905618 10 5
0.45051527 -0.2354852 -0.45261058 9 4
0.43713009 -0.14884153 -0.45303854 7 3
nan nan nan 0 2
nan nan nan 0 1
nan nan nan 0 0
3.1463809 -1.1112911 0.88105673 60 31
2.8701677 -1.4719154 0.73838538 65 30
3.1450784 -1.1138934 0.6369859 63 29
2.8733354 -1.4722962 0.49954388 68 28
3.1547582 -1.1203864 0.40442616 64 27
2.8793321 -1.4753878 0.30590984 67 26
3.1605608 -1.123678 0.23095596 65 25
2.8892019 -1.4804604 0.14976572 71 24
3.162178 -1.1254883 0.07711786 68 23
2.8853765 -1.4791331 0 70 22
3.1735594 -1.1307778 -0.077408001 67 21
2.8864634 -1.4803278 -0.14964925 71 20
3.1622014 -1.1267465 -0.22996989 64 19
2.8950627 -1.4866542 -0.2890366 73 18
3.1703973 -1.1296666 -0.3812578 21 17
2.8831165 -1.4817749 -0.4455364 73 16
nan nan nan 0 15
2.8849699 -1.4877789 -0.91894752 68 13
nan nan nan 0 14
2.8727164 -1.4852264 -1.106516 36 12
2.8212645 -0.99681318 -1.1960274 10 11
0.75622761 -0.3921445 -0.43383348 7 9
0.92446744 -0.32742965 -0.44427913 7 10
0.6781854 -0.35284036 -0.44098148 5 8
0.65613699 -0.23015085 -0.44699433 9 7
0.55257565 -0.2890729 -0.44832867 10 6
0.53755325 -0.18692949 -0.45228681 12 5
0.44331411 -0.23365165 -0.44570053 8 4
0.43823272 -0.15091394 -0.45485798 7 3
nan nan nan 0 2
nan nan nan 0 1
nan nan nan 0 0
3.1379318 -1.1206459 0.87976766 61 31
2.8628497 -1.4808048 0.73782176 65 30
3.1434827 -1.1256909 0.63745952 63 29
2.8681786 -1.4823172 0.49954388 68 28
3.1508284 -1.1313915 0.40442616 64 27
2.8719544 -1.4842854 0.30567196 68 26
3.1519244 -1.1330197 0.23060893 65 25
2.879581 -1.4882405 0.14953279 71 24
3.1533272 -1.1353806 0.077001803 68 23
2.8801956 -1.4891959 0 71 22
3.1625371 -1.1393126 -0.077233911 67 21
2.8810182 -1.4908973 -0.14964925 69 20
3.1559019 -1.1369343 -0.22979723 65 19
2.8898554 -1.4967507 -0.2890366 70 18
3.1568868 -1.137917 -0.38012058 7 17
2.8779266 -1.4918299 -0.4455364 73 16
nan nan nan 0 15
2.8773663 -1.4972318 -0.91825968 69 13
2.9220576 -1.0512009 -0.70323783 8 14
2.8651595 -1.4946511 -1.1056987 37 12
2.8154092 -1.0063688 -1.1950902 10 11
0.76462257 -0.39992562 -0.4396961 7 9
0.91686451 -0.32854307 -0.44109055 7 10
0.68256122 -0.35832518 -0.44486105 5 8
0.66115081 -0.23460807 -0.45119807 9 7
0.55502266 -0.29296744 -0.45135793 10 6
0.53506142 -0.18827444 -0.45067149 11 5
0.44086376 -0.2344179 -0.443973 8 4
0.43767664 -0.15251914 -0.45485798 7 3
nan nan nan 0 2
nan nan nan 0 1
nan nan nan 0 0
3.1292586 -1.1305015 0.87847865 63 31
2.857403 -1.4912877 0.73782176 66 30
3.1393359 -1.1372048 0.63745952 64 29
2.8627264 -1.4928195 0.49954388 67 28
3.1396611 -1.140396 0.40351737 65 27
2.8687007 -1.495954 0.30590984 68 26
3.1454058 -1.143714 0.2304354 68 25
2.8763204 -1.499941 0.14964925 71 24
3.1446464 -1.1446747 0.076885752 68 23
2.8702865 -1.4974266 0 70 22
3.1536424 -1.1491883 -0.07711786 67 21
2.8757968 -1.5009447 -0.14964925 65 20
3.1493697 -1.1476414 -0.22962458 68 19
2.8799384 -1.5050231 -0.28858954 73 18
3.0688608 -1.1183769 -0.36988544 3 17
2.8702459 -1.5012188 -0.44519237 73 16
nan nan nan 0 15
2.8699951 -1.5061483 -0.9175719 68 13
3.1472521 -1.1450508 -0.75905037 9 14
2.8578346 -1.5035417 -1.1048815 34 12
2.8140593 -1.016976 -1.1960274 10 11
0.75340211 -0.39754584 -0.43383348 7 9
0.91571212 -0.33174151 -0.44109055 7 10
0.67753088 -0.35869139 -0.44227466 5 8
0.65057021 -0.23345722 -0.44419184 9 7
0.54523724 -0.29019442 -0.44378477 10 6
0.53440094 -0.19014101 -0.45067149 11 5
0.43527889 -0.23336771 -0.43879044 8 4
0.4371416 -0.15404598 -0.45485798 7 3
nan nan nan 0 2
nan nan nan 0 1
nan nan nan 0 0
3.118485 -1.1389369 0.87654501 62 31
2.8478711 -1.4989809 0.73669446 65 30
3.1261244 -1.1447866 0.63556516 65 29
2.8509424 -1.4993497 0.49838486 67 28
3.1333313 -1.1504948 0.4032144 66 27
2.8568559 -1.5024787 0.30519623 67 26
3.1390529 -1.1538278 0.23026188 68 25
2.8688579 -1.5088081 0.14953279 72 24
3.1406317 -1.1556445 0.076885752 67 23
2.865042 -1.5074366 0 70 22
3.1425738 -1.1576028 -0.076943778 67 21
2.868331 -1.5098094 -0.14953279 65 20
3.1406627 -1.156907 -0.22927928 64 19
2.8702633 -1.5127418 -0.28814244 73 18
3.0999081 -1.1419349 -0.3741501 3 17
2.8649881 -1.5112288 -0.44519237 73 16
nan nan nan 0 15
2.8604732 -1.5139058 -0.91619617 69 13
3.1569624 -1.1610667 -0.76239914 69 14
2.8525686 -1.5135083 -1.1048815 34 12
2.8104923 -1.0267928 -1.1960274 10 11
0.75200981 -0.40017328 -0.43383348 7 9
0.91029477 -0.33339104 -0.43896481 7 10
0.67439049 -0.36004055 -0.44098148 6 8
0.64975137 -0.23572668 -0.44419184 9 7
0.54247236 -0.2911481 -0.44227016 10 6
0.52653903 -0.18945879 -0.44421026 11 5
0.44397134 -0.24009424 -0.44915554 8 4
0.43336344 -0.15444155 -0.45121911 7 3
nan nan nan 0 2
nan nan nan 0 1
nan nan nan 0 0
3.11449 -1.1498156 0.87654501 61 31
2.8426213 -1.5089127 0.73669446 65 30
3.1221094 -1.1556919 0.63556516 63 29
2.8456912 -1.5092922 0.49838486 67 28
3.1269691 -1.1605633 0.40291145 66 27
2.8518579 -1.5119441 0.30519623 67 26
3.127991 -1.1621774 0.22974132 66 25
2.8591626 -1.5164698 0.14929987 70 24
3.1295485 -1.1639916 0.07671167 68 23
2.8597627 -1.5174284 0 70 22
3.1387177 -1.1680176 -0.076943778 64 21
2.858633 -1.5174677 -0.14929987 66 20
3.1342676 -1.1669943 -0.22910663 67 19
2.8674293 -1.5234214 -0.28836599 73 18
3.0796051 -1.1466938 -0.37215996 7 17
2.8599608 -1.520721 -0.44519237 73 16
nan nan nan 0 15
2.8530512 -1.5227481 -0.91550833 69 13
3.1485248 -1.169835 -0.76128286 68 14
2.8472681 -1.5234563 -1.1048815 38 12
2.8114219 -1.0377084 -1.1979021 10 11
0.75650704 -0.40581232 -0.43735108 7 9
0.91549796 -0.33890614 -0.44215339 7 10
0.67507368 -0.36329487 -0.44227466 6 8
0.65281785 -0.23940346 -0.44699433 9 7
0.54674023 -0.29580626 -0.44681406 11 6
0.52950108 -0.19248895 -0.44744086 11 5
0.44159067 -0.24069186 -0.44742805 8 4
0.43769988 -0.15758798 -0.45667741 7 3
nan nan nan 0 2
nan nan nan 0 1
nan nan nan 0 0
3.1038685 -1.1576101 0.8746115 62 31
2.8376019 -1.5183308 0.73669446 65 30
3.1113601 -1.1634645 0.63414431 63 29
2.8341384 -1.5152225 0.49722585 68 28
3.1114819 -1.1665791 0.40139678 66 27
2.8377872 -1.5171905 0.30424473 67 26
3.121784 -1.1716692 0.22956778 65 25
2.8519166 -1.5247637 0.14918341 70 24
3.1186509 -1.1717312 0.076537587 66 23
2.8503077 -1.5245422 0 70 22
3.1299417 -1.1772105 -0.076827727 63 21
2.8513842 -1.5257592 -0.14918341 62 20
3.1233754 -1.1747527 -0.22858869 67 19
2.8598998 -1.532244 -0.28814244 73 18
3.0897379 -1.162136 -0.37386578 7 17
2.8524537 -1.5295233 -0.4448483 73 16
3.0989523 -1.1643792 -0.57109255 6 15
2.8458703 -1.5310606 -0.91482049 69 13
3.146704 -1.1816732 -0.761841 69 14
2.8380432 -1.5306438 -1.103247 40 12
2.8077822 -1.0475157 -1.1979021 10 11
0.75508595 -0.40845057 -0.43735108 6 9
0.9080044 -0.33957946 -0.43896481 6 10
0.67192417 -0.36462262 -0.44098148 5 8
0.64813179 -0.24014392 -0.44419184 8 7
0.54047805 -0.29483381 -0.44227016 10 6
0.5252372 -0.1930384 -0.44421026 11 5
0.44548482 -0.24486843 -0.45261058 8 4
0.43714714 -0.15911487 -0.45667741 7 3
nan nan nan 0 2
nan nan nan 0 1
nan nan nan 0 0
3.0998089 -1.1684375 0.8746115 62 31
2.830142 -1.5270685 0.73613077 66 30
3.1049831 -1.1734523 0.63367075 63 29
2.8331785 -1.5274534 0.49799851 68 28
3.1097121 -1.1783108 0.40169969 66 27
2.8324742 -1.5270869 0.30424473 68 26
3.1176751 -1.1825593 0.22956778 66 25
2.8465767 -1.5347095 0.14918341 71 24
3.1119983 -1.1822679 0.076479562 68 23
2.8383698 -1.5309174 0 70 22
3.1188028 -1.1854699 -0.076653644 64 21
2.8457727 -1.5361998 -0.14918341 62 20
3.1122601 -1.1829951 -0.22807074 67 19
2.8523443 -1.5410324 -0.28791893 73 18
3.1040351 -1.1805021 -0.37614024 11 17
2.8470972 -1.5394708 -0.4448483 73 16
3.1222997 -1.1862053 -0.57624531 69 15
2.8360162 -1.539185 -0.91344488 69 13
3.1380024 -1.1909243 -0.76072478 69 14
2.82619 -1.5376436 -1.1007954 42 12
2.801755 -1.0569836 -1.1969647 10 11
0.75172013 -0.41002113 -0.43617857 6 9
0.91522837 -0.34608388 -0.44321629 6 10
0.6780771 -0.3712163 -0.44615427 6 8
0.65113056 -0.24395509 -0.44699433 9 7
0.54113227 -0.29777884 -0.44378477 10 6
0.53348601 -0.19823928 -0.45228681 12 5
0.43985704 -0.24384563 -0.44742805 8 4
0.43172237 -0.15897116 -0.45121911 7 3
nan nan nan 0 2
nan nan nan 0 1
nan nan nan 0 0
3.0932477 -1.1789324 0.87396699 63 31
2.8223875 -1.5362653 0.73556709 65 30
3.1006613 -1.1848246 0.63367075 66 29
2.8232234 -1.5354643 0.49722585 66 28
3.1030545 -1.1888144 0.40139678 66 27
2.8268583 -1.5374582 0.30424473 68 26
3.1109905 -1.1930867 0.22939426 67 25
2.8365469 -1.5427432 0.1489505 70 24
3.1055186 -1.1922295 0.076421537 68 23
2.8349349 -1.5425066 0 69 22
3.1097693 -1.1951033 -0.076537587 61 21
2.8403931 -1.546124 -0.14918341 67 20
3.1079032 -1.1943941 -0.22807074 69 19
2.8444912 -1.5502834 -0.28769538 73 18
3.0929387 -1.1886623 -0.37528732 16 17
2.8370898 -1.5475211 -0.44416022 73 16
3.11814 -1.1970969 -0.57624531 71 15
2.830626 -1.5490752 -0.91344488 33 13
3.1290643 -1.2006749 -0.75960851 70 14
2.8187351 -1.5463617 -1.0999782 15 12
2.7980483 -1.066757 -1.1969647 10 11
0.74828076 -0.41170377 -0.43500599 6 9
0.91401476 -0.34927651 -0.44321629 6 10
0.67303753 -0.37150121 -0.44356787 6 8
0.64833593 -0.24550109 -0.44559309 9 7
0.54008955 -0.29966596 -0.44378477 10 6
0.52921146 -0.19877696 -0.44905618 10 5
0.43900317 -0.24537954 -0.44742805 8 4
0.42633232 -0.15871544 -0.44576085 6 3
nan nan nan 0 2
nan nan nan 0 1
nan nan nan 0 0
3.0868587 -1.1888562 0.87332243 62 31
2.8148732 -1.5449346 0.73500353 65 30
3.0896344 -1.1929932 0.63224995 65 29
2.8178465 -1.5453098 0.49722585 67 28
3.0942562 -1.1978505 0.40079087 67 27
2.8192928 -1.5461181 0.30400684 67 26
3.0975025 -1.2003411 0.22870018 65 25
2.8311443 -1.5526352 0.1489505 71 24
3.0943456 -1.2003559 0.076247454 68 23
2.8229606 -1.548781 0 70 22
3.1009178 -1.2041451 -0.076421537 69 21
2.8306022 -1.5536234 -0.1489505 71 20
3.0967381 -1.2025321 -0.22755279 68 19
2.8368809 -1.5590024 -0.28747183 73 18
3.0540302 -1.1859903 -0.37102267 4 17
2.8316705 -1.5574151 -0.44416022 73 16
3.1162388 -1.2088629 -0.57667464 70 15
2.4717996 -1.3636167 -0.79788858 18 13
3.1203089 -1.2098315 -0.75849229 71 14
2.4020612 -1.3283207 -0.93735135 16 12
2.7964711 -1.0773489 -1.1979021 10 11
0.74876684 -0.41538978 -0.43617857 7 9
0.90433764 -0.34922713 -0.43896481 6 10
0.67546898 -0.37594107 -0.44615427 7 8
0.65328485 -0.24995925 -0.44979683 9 7
0.53730851 -0.30057117 -0.44227016 10 6
0.53208911 -0.20195886 -0.45228681 12 5
0.44128308 -0.24870169 -0.45088306 7 4
0.4273845 -0.16079551 -0.44758025 6 3
nan nan nan 0 2
nan nan nan 0 1
nan nan nan 0 0
3.0804384 -1.1987499 0.87267798 62 31
2.8073332 -1.5535702 0.73443985 65 30
3.083164 -1.2028801 0.63177639 63 29
2.805953 -1.5515463 0.49606681 66 28
3.0854325 -1.2068398 0.40018502 66 27
2.8097954 -1.5530479 0.30353108 66 26
3.090971 -1.2102386 0.22852667 65 25
2.8213382 -1.5600883 0.14871758 69 24
3.092464 -1.2120602 0.076305479 68 23
2.8197238 -1.5598371 0 70 22
3.0945802 -1.2135106 -0.076363511 69 21
2.8251619 -1.5634946 -0.1489505 72 20
3.0901992 -1.2124252 -0.22738014 68 19
2.8316956 -1.5684012 -0.28747183 74 18
3.0591233 -1.2002656 -0.37215996 4 17
2.8264904 -1.5667965 -0.44416022 72 16
3.105119 -1.2170422 -0.57538646 70 15
2.4481289 -1.3617064 -0.79169804 13 13
3.1094701 -1.2175118 -0.75681788 70 14
2.3974099 -1.3366973 -0.93735135 17 12
2.7928829 -1.0866164 -1.1979021 10 11
0.74738532 -0.41787049 -0.43617857 7 9
0.90522337 -0.35319853 -0.44002765 6 10
0.67235589 -0.37712637 -0.44486105 7 8
0.64854026 -0.25076023 -0.44699433 9 7
0.54149443 -0.30530316 -0.44681406 10 6
0.52784622 -0.20237455 -0.44905618 10 5
0.43888932 -0.24926284 -0.44915554 8 4
0.42845571 -0.16281007 -0.44939968 7 3
nan nan nan 0 2
nan nan nan 0 1
nan nan nan 0 0
3.0764463 -1.2089585 0.87267798 62 31
2.802166 -1.5628711 0.73443985 65 30
3.0768733 -1.2121997 0.63130277 63 29
2.7986357 -1.5596389 0.49568045 67 28
3.074487 -1.214335 0.39927617 65 27
2.8065302 -1.5640594 0.30376896 68 26
3.0869405 -1.2204819 0.22852667 67 25
2.8183298 -1.5706528 0.14883403 71 24
3.0791295 -1.2186364 0.076073371 68 23
2.8123529 -1.5679603 0 70 22
3.0856767 -1.2224677 -0.076247454 69 21
2.8156013 -1.5704186 -0.14871758 72 20
3.0815232 -1.2208321 -0.22703484 67 19
2.8240304 -1.5770605 -0.28724828 73 18
3.0643659 -1.214056 -0.37329718 4 17
2.8210042 -1.5766534 -0.44416022 73 16
3.0964851 -1.2255232 -0.57452768 70 15
2.4435999 -1.3698171 -0.79169804 12 13
3.0984013 -1.2256743 -0.75514352 69 14
2.6544299 -1.4918483 -1.0411383 37 12
2.7890732 -1.0963588 -1.1979021 10 11
0.74976289 -0.42265603 -0.43852359 7 9
0.90615463 -0.35702223 -0.44109055 6 10
0.66545832 -0.37629378 -0.44098148 7 8
0.64577359 -0.25216416 -0.44559309 9 7
0.53525019 -0.30422154 -0.44227016 10 6
0.52178824 -0.20217566 -0.44421026 12 5
0.43957999 -0.25169963 -0.45088306 8 4
0.43109423 -0.16551231 -0.45303854 7 3
nan nan nan 0 2
nan nan nan 0 1
nan nan nan 0 0
3.0722077 -1.2196898 0.87267798 61 31
2.7966936 -1.5726428 0.73443985 65 30
3.0657792 -1.2202145 0.62988198 63 29
2.7931747 -1.5693984 0.49568045 67 28
3.0679243 -1.2241417 0.39897326 66 27
2.7967165 -1.5714055 0.30329323 67 26
3.0757113 -1.2284799 0.22800609 67 25
2.8106537 -1.5792563 0.14871758 69 24
3.0748565 -1.2293772 0.076073371 67 23
2.8068626 -1.5777676 0 70 22
3.0813906 -1.2332312 -0.076247454 66 21
2.8101025 -1.5802373 -0.14871758 72 20
3.0749264 -1.2306561 -0.22686218 68 19
2.8163395 -1.5856856 -0.28702477 76 18
3.053189 -1.2219815 -0.37244424 4 17
2.8111703 -1.5840566 -0.44347212 73 16
3.0876131 -1.2344991 -0.5736689 70 15
2.4325292 -1.3747858 -0.78963453 12 13
3.0941038 -1.2364824 -0.75514352 69 14
2.6553702 -1.5046039 -1.0435899 20 12
2.785229 -1.1060878 -1.1979021 10 11
0.74828297 -0.42527065 -0.43852359 7 9
0.90279824 -0.35935196 -0.44002765 7 10
0.66785139 -0.3807455 -0.44356787 7 8
0.64874738 -0.25592095 -0.44839555 9 7
0.53762817 -0.30808002 -0.44529942 10 6
0.52464008 -0.20536835 -0.44744086 11 5
0.43401796 -0.25049731 -0.44570053 7 4
0.43371901 -0.1682349 -0.45667741 6 3
nan nan nan 0 2
nan nan nan 0 1
nan nan nan 0 0
3.0609891 -1.2282484 0.87074435 61 31
2.786675 -1.5804765 0.73331249 65 30
3.0590084 -1.2305286 0.62940842 62 29
2.7874036 -1.5796254 0.49568045 67 28
3.0611148 -1.2344517 0.39867029 66 27
2.7887733 -1.5804169 0.30305535 68 26
3.0642478 -1.2369491 0.22748554 67 25
2.8026748 -1.5883145 0.14860111 71 24
3.0680122 -1.2397041 0.076015346 69 23
2.7945392 -1.5843413 0 71 22
3.0722148 -1.2426461 -0.076131403 57 21
2.7999489 -1.5880593 -0.14848466 71 20
3.0680828 -1.2409848 -0.22668955 68 19
2.8061798 -1.5935353 -0.28657767 69 18
3.0901482 -1.2498975 -0.37756181 42 17
2.8074977 -1.5955745 -0.44381618 73 16
3.0807836 -1.2448866 -0.57323951 70 15
2.4316483 -1.3860762 -0.79101026 11 13
3.0872908 -1.2469035 -0.75458539 72 14
2.6211317 -1.4978927 -1.032149 23 12
2.7833078 -1.1171502 -1.1988394 10 11
0.74863183 -0.42911369 -0.4396961 7 9
0.90988135 -0.36601394 -0.44427913 7 10
0.66460001 -0.3821184 -0.44227466 6 8
0.64587879 -0.25753784 -0.44699433 9 7
0.52790564 -0.30503705 -0.43772629 11 6
0.52566171 -0.2079827 -0.44905618 11 5
0.43621075 -0.25392127 -0.44915554 7 4
0.42669809 -0.16736232 -0.44939968 6 3
nan nan nan 0 2
nan nan nan 0 1
nan nan nan 0 0
3.0544438 -1.2380203 0.8700999 61 31
2.7790277 -1.5889839 0.73274893 65 30
3.0478697 -1.2384319 0.62798756 63 29
2.777585 -1.5868919 0.49490774 67 28
3.0544879 -1.2441949 0.39836735 66 27
2.7835171 -1.5896561 0.30305535 66 26
3.0576015 -1.2466979 0.22731201 66 25
2.790611 -1.594367 0.14825174 70 24
3.0567224 -1.2475778 0.07584127 69 23
2.7911611 -1.5953285 0 72 22
3.0657623 -1.2518839 -0.076073371 61 21
2.7943885 -1.5978234 -0.14848466 72 20
3.0591133 -1.2498038 -0.22634423 69 19
2.8008802 -1.6028322 -0.28657767 73 18
3.0719666 -1.2550504 -0.37585592 63 17
2.7978954 -1.6024116 -0.44312811 73 16
3.0718575 -1.253775 -0.57238072 69 15
2.4247122 -1.3933564 -0.79032236 11 13
3.0786247 -1.2552977 -0.75346917 71 14
2.6383967 -1.5200236 -1.0411383 31 12
2.7774394 -1.1255051 -1.1979021 10 11
0.74529582 -0.43048421 -0.43852359 7 9
0.90230238 -0.36664921 -0.44109055 7 10
0.66332924 -0.38432017 -0.44227466 6 8
0.6468994 -0.2605567 -0.44839555 9 7
0.52860582 -0.30779395 -0.4392409 9 6
0.53207135 -0.2125195 -0.45551741 11 5
0.438474 -0.25721163 -0.45261058 7 4
0.43093565 -0.17063813 -0.45485798 6 3
nan nan nan 0 2
nan nan nan 0 1
nan nan nan 0 0
3.043613 -1.2454032 0.86816627 61 31
2.7716336 -1.5969733 0.73218524 65 30
3.0414746 -1.2476023 0.627514 63 29
2.7723074 -1.5960939 0.49490774 66 28
3.0480494 -1.2533749 0.3980644 66 27
2.7779515 -1.5993626 0.30305535 67 26
3.0511436 -1.2558829 0.2271385 67 25
2.7853084 -1.6036121 0.14825174 70 24
3.0456336 -1.2548561 0.075667188 69 23
2.7836905 -1.6033262 0 71 22
3.0567517 -1.2606753 -0.075957321 63 21
2.7847486 -1.6045843 -0.14825174 71 20
3.0503392 -1.2580428 -0.22599894 69 19
2.793112 -1.6113534 -0.28635412 74 18
3.0631943 -1.26334 -0.37528732 48 17
2.7858539 -1.6084493 -0.44209597 73 16
3.0654051 -1.2630183 -0.57195133 70 15
2.4242361 -1.4038017 -0.79169804 10 13
3.069716 -1.2641838 -0.75235289 71 14
2.6272144 -1.5252012 -1.0386868 38 12
2.7756393 -1.1360694 -1.1988394 10 11
0.74759859 -0.43531579 -0.44086865 7 9
0.89898568 -0.36878616 -0.44002765 7 10
0.66382766 -0.38771823 -0.44356787 6 8
0.64987379 -0.26424491 -0.45119807 9 7
0.52410603 -0.30760935 -0.43621168 10 6
0.52423388 -0.21155593 -0.44905618 10 5
0.43292165 -0.25595656 -0.44742805 7 4
0.42554903 -0.17026287 -0.44939968 6 3
nan nan nan 0 2
nan nan nan 0 1
nan nan nan 0 0
3.039247 -1.2560197 0.86816627 61 31
2.7681477 -1.6078631 0.73274893 64 30
3.0393693 -1.2591493 0.62798756 65 29
2.7667191 -1.6057614 0.49490774 67 28
3.0367782 -1.2611569 0.39715558 67 27
2.7680488 -1.6065483 0.30257958 67 26
3.0444374 -1.2655702 0.22696498 66 25
2.7796938 -1.613325 0.14825174 70 24
3.0433218 -1.2669693 0.075725213 67 23
2.7737544 -1.6105196 0 70 22
3.0500243 -1.2703785 -0.075899296 66 21
2.7788486 -1.6147802 -0.14825174 71 20
3.0436261 -1.2677256 -0.22582629 69 19
2.7853186 -1.6198401 -0.28613058 74 18
3.0631297 -1.2764659 -0.37585592 40 17
2.7823617 -1.619411 -0.44244 73 16
3.0584807 -1.2733001 -0.57152194 71 15
2.4149258 -1.4102501 -0.79032236 10 13
3.0630336 -1.2739574 -0.75179476 72 14
2.6134548 -1.5300395 -1.0354178 38 12
2.7714567 -1.146235 -1.1988394 10 11
0.74417347 -0.43679979 -0.4396961 7 9
0.90181327 -0.37380028 -0.44215339 7 10
0.65504187 -0.38578194 -0.43839508 7 8
0.64890093 -0.26662505 -0.45119807 9 7
0.52809715 -0.31258887 -0.44075555 10 6
0.52345496 -0.21347591 -0.44905618 10 5
0.4335278 -0.25847524 -0.44915554 7 4
0.42173451 -0.17055744 -0.44576085 6 3
nan nan nan 0 2
nan nan nan 0 1
nan nan nan 0 0
3.0323935 -1.2662216 0.86752182 60 31
2.7580342 -1.6155331 0.73162156 65 30
3.0324688 -1.2693346 0.627514 63 29
2.7586842 -1.6146419 0.49452141 67 28
3.0321355 -1.2722788 0.39715558 68 27
2.7621417 -1.616683 0.30257958 67 26
3.0397782 -1.27672 0.22696498 67 25
2.7694535 -1.6209763 0.14801884 71 24
3.0342712 -1.275651 0.075609162 67 23
2.7678328 -1.6206752 0 71 22
3.0384345 -1.2786455 -0.075725213 62 21
2.7688875 -1.6219431 -0.14801884 72 20
3.0366597 -1.2779069 -0.22565363 69 19
2.7793632 -1.6300379 -0.28613058 72 18
3.0540757 -1.2852272 -0.37528732 70 17
2.7764075 -1.629598 -0.44244 73 16
3.0494754 -1.2820629 -0.57066315 70 15
2.4141288 -1.4211131 -0.79169804 10 13
3.0560968 -1.2842331 -0.75123668 71 14
2.5979285 -1.533141 -1.0313317 39 12
2.7695782 -1.1567936 -1.1997766 10 11
0.74256754 -0.43952438 -0.4396961 7 9
0.90050304 -0.37694594 -0.44215339 7 10
0.66287255 -0.39355662 -0.44486105 7 8
0.64222002 -0.26653063 -0.44699433 9 7
0.52700275 -0.31443039 -0.44075555 10 6
0.52624261 -0.21673693 -0.45228681 11 5
0.42644715 -0.25623056 -0.44224548 7 4
0.42431977 -0.17330365 -0.44939968 6 3
nan nan nan 0 2
nan nan nan 0 1
nan nan nan 0 0
3.0235021 -1.2749252 0.86623275 60 31
2.7523782 -1.6251507 0.73162156 65 30
3.0234962 -1.2780041 0.62656683 63 29
2.753031 -1.6242616 0.49452141 66 28
3.0231047 -1.2809223 0.39654973 67 27
2.754339 -1.6250486 0.3023417 66 26
3.0307097 -1.2853788 0.22661793 67 25
2.7637782 -1.6306336 0.14801884 68 24
3.0274987 -1.28526 0.07555113 69 23
2.7578547 -1.6277825 0 71 22
3.0339525 -1.2892438 -0.075725213 69 21
2.7632089 -1.6315984 -0.14801884 72 20
3.0275881 -1.2865515 -0.22530833 70 19
2.7736561 -1.6397299 -0.28613058 73 18
3.0472839 -1.2949104 -0.37500301 69 17
2.7707021 -1.6392797 -0.44244 75 16
3.0381784 -1.2898175 -0.56937498 70 15
2.4070876 -1.4283031 -0.79101026 10 13
3.0448632 -1.2920424 -0.74956226 72 14
2.576324 -1.5325247 -1.024794 37 12
2.763387 -1.1655554 -1.1988394 10 11
0.7372427 -0.4398407 -0.43735108 7 9
0.89709514 -0.37921154 -0.44109055 7 10
0.66332704 -0.39697254 -0.44615427 7 8
0.64128572 -0.26877075 -0.44699433 9 7
0.53440303 -0.32142863 -0.44832867 10 6
0.52548283 -0.21857251 -0.45228681 10 5
0.43017212 -0.26055107 -0.44742805 6 4
0.41735476 -0.17221127 -0.44212192 5 3
nan nan nan 0 2
nan nan nan 0 1
nan nan nan 0 0
3.0123639 -1.2826378 0.86429924 61 31
2.7466886 -1.6347483 0.73162156 64 30
3.0144997 -1.2866266 0.62561965 64 29
2.7452228 -1.6325978 0.49413508 66 28
3.0163329 -1.2904927 0.39624676 67 27
2.7489352 -1.6341735 0.3023417 66 26
3.0262043 -1.2959503 0.22661793 66 25
2.7580695 -1.6402712 0.14801884 69 24
3.0206957 -1.294837 0.075493105 69 23
2.7543035 -1.6386789 0 71 22
3.0227678 -1.2963476 -0.07555113 64 21
2.7574968 -1.6412338 -0.14801884 71 20
3.0230787 -1.297112 -0.22530833 67 19
2.7639267 -1.6463673 -0.28568351 73 18
3.0358956 -1.3026065 -0.3741501 69 17
2.7588727 -1.6446502 -0.44140789 73 16
3.0359218 -1.3013835 -0.56980437 70 15
2.4041486 -1.4379319 -0.79169804 10 13
3.038321 -1.3011746 -0.74900419 72 14
2.5507045 -1.5293434 -1.0166217 34 12
2.7573733 -1.1738068 -1.1979021 10 11
0.73389089 -0.44114023 -0.43617857 7 9
0.89368248 -0.38145798 -0.44002765 6 10
0.66566455 -0.40139121 -0.44874069 6 8
0.64416349 -0.27260628 -0.44979683 9 7
0.5282439 -0.32008573 -0.44378477 9 6
0.51770282 -0.21739559 -0.44582558 10 5
0.42469317 -0.25912732 -0.44224548 6 4
0.41836864 -0.17424273 -0.44394141 5 3
nan nan nan 0 2
nan nan nan 0 1
nan nan nan 0 0
3.0080941 -1.2926201 0.86429924 61 31
2.7370768 -1.6413395 0.73049426 65 30
3.0079613 -1.2956464 0.62514603 64 29
2.735558 -1.6391503 0.49336237 67 28
3.0097578 -1.2995061 0.39594382 67 27
2.74108 -1.6424786 0.30210382 67 26
3.0150201 -1.3030154 0.22609738 67 25
2.754756 -1.6506932 0.14813529 70 24
3.0186799 -1.3058374 0.07555113 70 23
2.746711 -1.6465169 0 72 22
3.018224 -1.3068911 -0.07555113 66 21
2.7477574 -1.6477972 -0.14778592 73 20
3.0141819 -1.3051511 -0.22496304 70 19
2.7560291 -1.6547217 -0.28545997 73 18
3.029279 -1.3116815 -0.37386578 71 17
2.7531152 -1.6542706 -0.44140789 73 16
3.0293286 -1.3104675 -0.56937498 72 15
2.4055402 -1.4496232 -0.79376155 10 13
3.0337605 -1.3117725 -0.74900419 72 14
2.5334911 -1.530454 -1.0117184 34 12
2.7575192 -1.1852515 -1.1997766 10 11
0.73611701 -0.4459981 -0.43852359 7 9
0.8924126 -0.38441944 -0.44002765 7 10
0.6551351 -0.39812762 -0.44227466 6 8
0.63753426 -0.27232397 -0.44559309 9 7
0.52881646 -0.32297134 -0.44529942 10 6
0.51870131 -0.2199371 -0.44744086 11 5
0.42685446 -0.26251814 -0.44570053 6 4
0.41775787 -0.17570205 -0.44394141 5 3
nan nan nan 0 2
nan nan nan 0 1
nan nan nan 0 0
3.0013471 -1.3021526 0.86365467 61 31
2.7292471 -1.6496222 0.72993064 65 30
3.0011685 -1.3051611 0.62467241 64 29
2.7319331 -1.6499676 0.49374872 67 28
3.0006518 -1.3080242 0.39533794 67 27
2.7353301 -1.6520368 0.30210382 68 26
3.0058799 -1.3115405 0.22575033 68 25
2.7425671 -1.6564215 0.14778592 69 24
3.0047095 -1.3128966 0.075319022 67 23
2.7409468 -1.6560946 0 72 22
3.0090623 -1.31542 -0.07543508 68 21
2.7459717 -1.6604446 -0.14801884 72 20
3.0073218 -1.3146673 -0.22479038 64 19
2.7523658 -1.6656228 -0.28568351 74 18
3.0244513 -1.3227755 -0.37386578 70 17
2.7515581 -1.6664393 -0.44209597 72 16
3.0199902 -1.3195931 -0.56851619 70 15
2.4043169 -1.4609298 -0.79513723 9 13
3.0246949 -1.3204079 -0.74788791 73 14
2.4996283 -1.522501 -1.0002773 33 12
2.7489035 -1.1935078 -1.1979021 10 11
0.73267448 -0.44740897 -0.43735108 7 9
0.89307499 -0.38858494 -0.44109055 6 10
0.65185076 -0.39940247 -0.44098148 7 8
0.63843608 -0.27547145 -0.44699433 9 7
0.52593982 -0.32385755 -0.44378477 10 6
0.52492303 -0.22480544 -0.4539021 10 5
0.42282805 -0.26215971 -0.44224548 6 4
0.41869366 -0.17789175 -0.44576085 5 3
nan nan nan 0 2
nan nan nan 0 1
nan nan nan 0 0
2.9943409 -1.3121766 0.86301017 61 31
2.7252614 -1.6608834 0.73049426 65 30
2.9918683 -1.3141812 0.62372524 64 29
2.7174325 -1.6548251 0.49220335 67 28
2.9912939 -1.317017 0.39473206 68 27
2.7271321 -1.6607552 0.30186594 69 26
2.99877 -1.3215446 0.22557682 68 25
2.7364776 -1.6664624 0.14778592 69 24
3.0023961 -1.3243842 0.075377055 68 23
2.7305901 -1.6635252 0 71 22
3.004221 -1.32644 -0.07543508 70 21
2.7358956 -1.6674174 -0.14778592 73 20
3.0024831 -1.3256809 -0.22479038 68 19
2.7441177 -1.674401 -0.28545997 74 18
3.0175426 -1.3323233 -0.37358147 71 17
2.7369821 -1.6713451 -0.44071978 72 16
3.0153656 -1.3301268 -0.56851619 71 15
2.4012513 -1.4705703 -0.79582506 9 13
3.0153739 -1.3295221 -0.74677163 72 14
2.4781983 -1.5213159 -0.9937396 32 12
2.7489674 -1.2049533 -1.1997766 10 11
0.73102969 -0.4500913 -0.43735108 7 9
0.89171308 -0.3917 -0.44109055 7 10
0.66135347 -0.40845537 -0.44874069 7 8
0.64507633 -0.2809754 -0.45259929 9 7
0.52143496 -0.32357994 -0.44075555 10 6
0.51886946 -0.22439151 -0.44905618 9 5
0.41885573 -0.26170227 -0.43879044 6 4
0.41965038 -0.18001743 -0.44758025 5 3
nan nan nan 0 2
nan nan nan 0 1
nan nan nan 0 0
2.9831133 -1.3196943 0.86107659 60 31
2.7173727 -1.6691101 0.72993064 65 30
2.985018 -1.3236233 0.62325168 67 29
2.715848 -1.6668874 0.49297601 67 28
2.9866781 -1.3274505 0.39473206 68 27
2.7213182 -1.6702645 0.30186594 69 26
2.9941385 -1.3320043 0.22557682 67 25
2.7242615 -1.6720809 0.14743654 68 24
2.9977548 -1.3348564 0.075377055 69 23
2.7226372 -1.671737 0 71 22
2.9972887 -1.3359026 -0.075377055 70 21
2.7258048 -1.6743404 -0.147553 72 20
2.9978373 -1.3361534 -0.22479038 65 19
2.7382562 -1.6839697 -0.28545997 73 18
3.0060654 -1.33982 -0.37272856 70 17
2.735347 -1.6834873 -0.44140789 73 16
3.0039523 -1.3376437 -0.56722802 71 15
2.4022362 -1.4827354 -0.79788858 9 13
3.0084877 -1.3390504 -0.7462135 71 14
2.4547987 -1.5187551 -0.98638457 31 12
2.7426245 -1.2136056 -1.1988394 10 11
0.73507279 -0.45614854 -0.44086865 7 9
0.8965534 -0.39754537 -0.44427913 6 10
0.65448511 -0.40735242 -0.44486105 7 8
0.63839597 -0.28074771 -0.44839555 9 7
0.52871192 -0.33070627 -0.44832867 11 6
0.51808304 -0.22620134 -0.44905618 11 5
0.41489181 -0.26122031 -0.4353354 5 4
0.41428569 -0.1794689 -0.44212192 5 3
nan nan nan 0 2
nan nan nan 0 1
nan nan nan 0 0
2.9784887 -1.3300992 0.86107659 61 31
2.7094598 -1.6773016 0.72936696 65 30
2.9781382 -1.3330338 0.62277806 64 29
2.7058136 -1.6737556 0.49220335 67 28
2.9797614 -1.3368537 0.39442912 68 27
2.7133558 -1.6784428 0.30162805 68 26
2.9826431 -1.3393878 0.22505625 68 25
2.7226536 -1.6842104 0.14766945 69 24
2.993077 -1.3453124 0.075377055 70 23
2.7146602 -1.6799135 0 71 22
2.9880471 -1.3443094 -0.075260997 68 21
2.7220657 -1.6851608 -0.14766945 71 20
2.993155 -1.3466096 -0.22479038 70 19
2.7302458 -1.6922044 -0.28523642 70 18
2.9991043 -1.3492875 -0.37244424 70 17
2.7273507 -1.6917185 -0.44106382 73 16
2.9947705 -1.3461052 -0.56636924 72 15
2.4031656 -1.4949255 -0.79995209 9 13
3.0015717 -1.3485467 -0.74565536 73 14
2.4394631 -1.5210564 -0.98229849 31 12
2.7404883 -1.2241151 -1.1997766 10 11
0.73534483 -0.45988756 -0.44204116 7 9
0.89102459 -0.39883468 -0.44215339 7 10
0.65305924 -0.40963453 -0.44486105 7 8
0.64120334 -0.28463948 -0.45119807 8 7
0.52251965 -0.32934731 -0.44378477 10 6
0.52429008 -0.23105057 -0.45551741 11 5
0.42005956 -0.26657313 -0.44224548 5 4
0.41838339 -0.18294273 -0.44758025 5 3
nan nan nan 0 2
nan nan nan 0 1
nan nan nan 0 0
2.9674523 -1.3369974 0.85914308 61 31
2.701817 -1.6849872 0.72880328 65 30
2.9669874 -1.3398765 0.62135726 64 29
2.7023437 -1.6840272 0.49258971 66 28
2.9730504 -1.3457061 0.39412618 68 27
2.7056639 -1.6861137 0.3013902 68 26
2.9804578 -1.3502988 0.22522977 69 25
2.712817 -1.6905855 0.14743654 70 24
2.9863224 -1.3541999 0.075319022 70 23
2.7090747 -1.6889066 0 71 22
2.9812963 -1.3531797 -0.075202972 68 21
2.7164629 -1.6941783 -0.14766945 71 20
2.9841294 -1.3544698 -0.22444509 69 19
2.720397 -1.6986085 -0.28478935 68 18
2.9900885 -1.3571758 -0.37187561 70 17
2.7175276 -1.6981262 -0.44037575 72 16
2.9902902 -1.3560289 -0.56636924 70 15
2.4043021 -1.5067202 -0.8020156 9 13
2.9948628 -1.3574885 -0.74509722 73 14
2.4224074 -1.5215876 -0.97739518 30 12
2.7343001 -1.2322458 -1.1988394 10 11
0.72635627 -0.45759508 -0.43735108 7 9
0.8938266 -0.40363875 -0.44427913 7 10
0.64808702 -0.40950069 -0.44227466 7 8
0.64214879 -0.28760302 -0.45259929 9 7
0.52142459 -0.33107823 -0.44378477 10 6
0.52002615 -0.23125522 -0.45228681 9 5
0.4191733 -0.2679646 -0.44224548 5 4
0.41462782 -0.18296616 -0.44394141 5 3
nan nan nan 0 2
nan nan nan 0 1
nan nan nan 0 0
2.964967 -1.3483459 0.85978758 61 31
2.6917965 -1.6918128 0.72767603 65 30
2.9622924 -1.3502251 0.62135726 64 29
2.6922674 -1.6908196 0.491817 66 28
2.9683349 -1.3560756 0.39412618 68 27
2.7018683 -1.6968731 0.30162805 68 26
2.9711885 -1.3586234 0.22488274 68 25
2.7090135 -1.7013744 0.147553 70 24
2.9790659 -1.3640972 0.075260997 70 23
2.7031627 -1.6983526 0 70 22
2.9720082 -1.3614994 -0.075086914 68 21
2.708122 -1.7027925 -0.147553 70 20
2.9771149 -1.3638409 -0.22427243 69 19
2.7123446 -1.7067664 -0.28456581 73 18
2.9805768 -1.3660595 -0.37130699 70 17
2.7094891 -1.7062807 -0.44003171 72 16
2.9785798 -1.3639088 -0.56508106 71 15
2.4068868 -1.5206639 -0.80476695 9 13
2.9856725 -1.3659101 -0.743981 73 14
2.4048438 -1.5228622 -0.97249186 28 12
2.7382066 -1.246092 -1.2025887 10 11
0.73405826 -0.46607083 -0.44321367 7 9
0.88821852 -0.40504542 -0.44215339 7 10
0.6501835 -0.41418374 -0.44486105 7 8
0.63731086 -0.2882632 -0.44979683 9 7
0.51686621 -0.33082879 -0.44075555 10 6
0.51917505 -0.23315965 -0.45228681 10 5
0.41970202 -0.2704863 -0.443973 4 4
0.40767127 -0.18173565 -0.43666363 5 3
nan nan nan 0 2
nan nan nan 0 1
nan nan nan 0 0
2.9534171 -1.3561848 0.85785401 60 31
2.687634 -1.7029725 0.72823966 64 30
2.9573238 -1.3610734 0.62135726 68 29
2.6860521 -1.700676 0.491817 66 28
2.9633451 -1.3669461 0.39412618 67 27
2.6935291 -1.7054318 0.3013902 68 26
2.9616587 -1.3674167 0.22453569 69 25
2.6964321 -1.7072798 0.14720361 70 24
2.9697471 -1.3723944 0.075144947 67 23
2.6969199 -1.7082487 0 70 22
2.9647288 -1.3713357 -0.075028889 58 21
2.700053 -1.7108972 -0.14743654 71 20
2.9720962 -1.3747436 -0.22427243 69 19
2.7081726 -1.7180318 -0.28478935 73 18
2.97579 -1.3764554 -0.37130699 69 17
2.7073963 -1.7188573 -0.44071978 73 16
2.9760373 -1.3753291 -0.56551045 72 15
2.4035907 -1.5303485 -0.80545479 9 13
2.9784329 -1.3758237 -0.74342287 75 14
2.3915505 -1.5261571 -0.96922296 27 12
2.7275193 -1.2527457 -1.1997766 10 11
0.72491956 -0.46397641 -0.43852359 7 9
0.88474119 -0.40720287 -0.44109055 7 10
0.64334339 -0.41296619 -0.44098148 7 8
0.643848 -0.29389542 -0.45540178 9 7
0.51404136 -0.33154595 -0.4392409 10 6
0.51661617 -0.23419167 -0.45067149 9 5
0.41422459 -0.26897249 -0.43879044 5 4
0.41017115 -0.18454301 -0.44030249 5 3
nan nan nan 0 2
nan nan nan 0 1
nan nan nan 0 0
2.9486651 -1.3664861 0.85785401 61 31
2.6796212 -1.7110316 0.72767603 65 30
2.9458735 -1.3682911 0.61993653 64 29
2.6780179 -1.7087117 0.49143064 66 28
2.9540541 -1.3751905 0.3935203 68 27
2.6878588 -1.7143544 0.3013902 68 26
2.9568675 -1.3777465 0.22453569 69 25
2.6925604 -1.7180264 0.14732008 71 24
2.9626722 -1.3816977 0.075086914 68 23
2.688834 -1.7163059 0 70 22
2.9601653 -1.3811597 -0.075028889 64 21
2.6940646 -1.7203118 -0.14743654 70 20
2.9650187 -1.3840564 -0.22409979 69 19
2.7003632 -1.7256604 -0.28456581 73 18
2.9664645 -1.3847367 -0.37073839 66 17
2.697511 -1.7251549 -0.44003171 72 16
2.96452 -1.3825912 -0.56422228 72 15
2.4002559 -1.540029 -0.80614257 8 13
2.9738543 -1.385693 -0.74342287 73 14
2.3703194 -1.5242597 -0.96268523 26 12
2.7275579 -1.2637289 -1.2016513 10 11
0.72337699 -0.46637779 -0.43852359 7 9
0.87920481 -0.40839332 -0.43896481 6 10
0.64914209 -0.4197672 -0.44615427 7 8
0.63151509 -0.29098758 -0.44699433 9 7
0.51959234 -0.33761084 -0.44529942 10 6
0.51757598 -0.23668815 -0.45228681 9 5
0.41483733 -0.27134201 -0.44051796 4 4
0.4079909 -0.18520427 -0.43848306 5 3
nan nan nan 0 2
nan nan nan 0 1
nan nan nan 0 0
2.9441175 -1.3762567 0.85785401 61 31
2.6739326 -1.7199081 0.72767603 64 30
2.9390962 -1.3770126 0.61946291 67 29
2.6744139 -1.7189196 0.491817 66 28
2.9494777 -1.384979 0.3935203 68 27
2.6776733 -1.7210323 0.30091444 68 26
2.9500246 -1.3864851 0.22436216 68 25
2.6868482 -1.7269458 0.14732008 71 24
2.962599 -1.3936392 0.075202972 70 23
2.681026 -1.7238592 0 72 22
2.9530642 -1.3904212 -0.074970864 71 21
2.6862452 -1.7278835 -0.14732008 72 20
2.9604127 -1.3938812 -0.22409979 69 19
2.6922305 -1.7337264 -0.28434226 73 18
2.9596081 -1.3935097 -0.37045407 71 17
2.6893921 -1.7332176 -0.43968767 72 16
2.9576895 -1.3913677 -0.56379288 71 15
2.3971534 -1.5492862 -0.80683041 9 13
2.9667931 -1.3950299 -0.74286473 73 14
2.3533599 -1.524395 -0.95778185 25 12
2.72313 -1.2732421 -1.2016513 10 11
0.71619999 -0.46527588 -0.43500599 7 9
0.88810378 -0.41607916 -0.44427913 7 10
0.6458841 -0.42085689 -0.44486105 7 8
0.6343087 -0.29481047 -0.44979683 9 7
0.51177269 -0.33503723 -0.4392409 10 6
0.51674664 -0.23849337 -0.45228681 9 5
0.40637043 -0.26777506 -0.43188035 4 4
0.40108743 -0.18381378 -0.43120533 4 3
nan nan nan 0 2
nan nan nan 0 1
nan nan nan 0 0
2.9305539 -1.3824098 0.85527593 60 31
2.6658697 -1.7279053 0.72711235 64 30
2.9276114 -1.3841209 0.61804205 65 29
2.6683974 -1.7282447 0.491817 67 28
2.9423819 -1.3942052 0.39321736 68 27
2.6716492 -1.7303686 0.30091444 68 26
2.9384041 -1.3935732 0.22384161 69 25
2.6766138 -1.7335961 0.14708717 72 24
2.9506955 -1.4012767 0.075028889 67 23
2.6749921 -1.7332075 0 70 22
2.9414179 -1.3975083 -0.074796781 70 21
2.6819887 -1.7390778 -0.14743654 73 20
2.9487686 -1.4010006 -0.22358184 69 19
2.6861625 -1.7431136 -0.28434226 72 18
2.9499924 -1.4022186 -0.36988544 71 17
2.6874774 -1.7452949 -0.44037575 75 16
2.9481192 -1.4000891 -0.5629341 72 15
2.3954847 -1.5606891 -0.80820614 8 13
2.959703 -1.4043343 -0.74230659 73 14
2.3418252 -1.5291301 -0.95533019 26 12
2.7184448 -1.2832143 -1.2016513 10 11
0.71825951 -0.47020203 -0.43735108 7 9
0.88657284 -0.41933143 -0.44427913 7 10
0.64969087 -0.42676216 -0.44874069 7 8
0.63134605 -0.29626131 -0.44839555 9 7
0.51219672 -0.33801311 -0.44075555 10 6
0.51586902 -0.24038576 -0.45228681 9 5
0.40538627 -0.26926267 -0.43188035 4 4
0.40041098 -0.18528259 -0.43120533 4 3
nan nan nan 0 2
nan nan nan 0 1
nan nan nan 0 0
2.927649 -1.3941783 0.85592049 62 31
2.6574807 -1.7363306 0.72654867 65 30
2.9225185 -1.3948419 0.61804205 65 29
2.6579106 -1.73531 0.49104431 66 28
2.937252 -1.4049802 0.39321736 68 27
2.6652892 -1.7401493 0.30091444 68 26
2.9310265 -1.4032584 0.22366808 69 25
2.6723316 -1.7447615 0.14720361 70 24
2.945786 -1.4115679 0.075028889 70 23
2.6665294 -1.7416315 0 71 22
2.936276 -1.4082798 -0.074796781 71 21
2.6696332 -1.7443267 -0.14708717 72 20
2.9391148 -1.4096453 -0.22323653 71 19
2.6797554 -1.7529471 -0.28434226 65 18
2.9428399 -1.4114352 -0.36960116 70 17
2.6769207 -1.7524179 -0.43968767 72 16
2.9387701 -1.4082463 -0.56207532 72 15
2.4000633 -1.5756445 -0.81164533 9 13
2.954536 -1.4151728 -0.74230659 72 14
2.3266101 -1.530794 -0.95124412 24 12
2.7097623 -1.2907058 -1.1997766 10 11
0.72204977 -0.47649512 -0.44086865 7 9
0.88101423 -0.42048526 -0.44215339 7 10
0.63929516 -0.42309496 -0.44227466 7 8
0.63405758 -0.30022052 -0.45119807 9 7
0.51431704 -0.3420153 -0.44378477 10 6
0.51675761 -0.24298805 -0.4539021 9 5
0.39845899 -0.26662251 -0.42497027 4 4
0.40287891 -0.18810827 -0.4348442 4 3
nan nan nan 0 2
nan nan nan 0 1
nan nan nan 0 0
2.9184086 -1.4023004 0.85463142 62 31
2.6493704 -1.7442558 0.72598505 65 30
2.9132071 -1.4029082 0.61709493 65 29
2.6518371 -1.7445772 0.49104431 66 28
2.9278584 -1.4130708 0.39261147 67 27
2.6550426 -1.7467037 0.3004387 68 26
2.9238641 -1.412398 0.22349457 69 25
2.66414 -1.7527051 0.14708717 70 24
2.9340882 -1.4185834 0.074854806 69 23
2.6583467 -1.7495532 0 70 22
2.926841 -1.4163465 -0.074680731 71 21
2.661443 -1.75226 -0.1469707 72 20
2.9319308 -1.4188116 -0.22306389 69 19
2.6673861 -1.7581751 -0.28367165 72 18
2.9356582 -1.4206187 -0.36931685 72 17
2.6687212 -1.7603866 -0.4393436 72 16
2.9338365 -1.4184959 -0.56207532 71 15
2.392545 -1.5826851 -0.81095743 9 13
2.949578 -1.4254776 -0.74230659 72 14
2.3153479 -1.5349846 -0.94879246 24 12
2.7094202 -1.3021612 -1.2016513 10 11
0.72221732 -0.48024035 -0.44204116 7 9
0.88770646 -0.42746323 -0.44640484 7 10
0.6413669 -0.42770931 -0.44486105 7 8
0.63300574 -0.30243194 -0.45119807 9 7
0.51312 -0.3438085 -0.44378477 10 6
0.51417828 -0.2439813 -0.45228681 10 5
0.3960332 -0.26699317 -0.42324275 4 4
0.39599565 -0.1866335 -0.4275665 4 3
nan nan nan 0 2
nan nan nan 0 1
nan nan nan 0 0
2.9113219 -1.411427 0.85398692 62 31
2.6473229 -1.756189 0.72711235 65 30
2.9082921 -1.4130688 0.61709493 65 29
2.6457314 -1.7538232 0.49104431 66 28
2.9251399 -1.424367 0.39291441 67 27
2.6510026 -1.7573372 0.30067655 68 26
2.918916 -1.4225956 0.22349457 69 25
2.6580057 -1.761994 0.14708717 72 24
2.9268715 -1.4277228 0.074796781 69 23
2.6563883 -1.7615879 0 72 22
2.9241259 -1.4276494 -0.074738756 71 21
2.6553104 -1.7615396 -0.1469707 72 20
2.9292021 -1.4301299 -0.22323653 70 19
2.663306 -1.7688544 -0.28389519 73 18
2.9284487 -1.4297694 -0.36903253 71 17
2.6604989 -1.7683192 -0.43899956 72 16
2.9266529 -1.4276501 -0.56164593 72 15
2.3930023 -1.5950309 -0.81302094 9 13
2.9402018 -1.433632 -0.74119037 72 14
2.2981946 -1.5351735 -0.9438892 23 12
2.7027721 -1.3106015 -1.200714 10 11
0.71138191 -0.4765881 -0.43617857 7 9
0.88009518 -0.42760903 -0.44321629 6 10
0.64164209 -0.43114439 -0.44615427 7 8
0.6356833 -0.30642301 -0.45400053 8 7
0.50698525 -0.34223852 -0.4392409 9 6
0.52367473 -0.25066543 -0.46197864 10 5
0.39212054 -0.26632628 -0.41978768 4 4
0.39378825 -0.18728922 -0.42574707 4 3
nan nan nan 0 2
nan nan nan 0 1
nan nan nan 0 0
2.902036 -1.4194615 0.85269785 62 31
2.6391525 -1.7640642 0.72654867 65 30
2.898932 -1.4210542 0.6161477 65 29
2.6375403 -1.7616745 0.49065799 67 28
2.9156938 -1.4323839 0.39230853 68 27
2.6410229 -1.763352 0.30020082 68 26
2.9116933 -1.4316771 0.22332105 68 25
2.6497631 -1.7698729 0.1469707 71 24
2.9151399 -1.434625 0.074622698 67 23
2.6439898 -1.7666786 0 70 22
2.9126463 -1.4340314 -0.074564673 61 21
2.6470699 -1.7694086 -0.14685424 72 20
2.9174778 -1.4370449 -0.22271858 69 19
2.6532881 -1.7749047 -0.2834481 72 18
2.92344 -1.4399829 -0.36903253 71 17
2.656677 -1.778511 -0.4393436 72 16
2.919441 -1.4367715 -0.56121653 72 15
2.3774488 -1.5966662 -0.80958176 9 13
2.933244 -1.4423007 -0.74063224 72 14
2.2849858 -1.5379028 -0.94062024 22 12
2.698411 -1.319557 -1.200714 10 11
0.70979762 -0.47894454 -0.43617857 7 9
0.88063169 -0.43166909 -0.44427913 7 10
0.63490456 -0.42965552 -0.44227466 7 8
0.62714809 -0.30504739 -0.44839555 9 7
0.51240802 -0.34841835 -0.44529942 10 6
0.51767313 -0.24993807 -0.45713273 10 5
0.38677812 -0.26453888 -0.41460511 4 4
0.39936945 -0.1915163 -0.43302476 3 3
nan nan nan 0 2
nan nan nan 0 1
nan nan nan 0 0
2.8929784 -1.4269435 0.85140884 63 31
2.6292493 -1.770083 0.72542143 65 30
2.896405 -1.4317459 0.61662132 65 29
2.6316838 -1.7704111 0.49065799 66 28
2.9087033 -1.4409448 0.39200559 68 27
2.6369157 -1.7739507 0.3004387 68 26
2.9069297 -1.4413247 0.22332105 68 25
2.6438794 -1.77865 0.1469707 72 24
2.9103665 -1.4442841 0.074622698 67 23
2.6401899 -1.7768339 0 71 22
2.9098623 -1.4452999 -0.074622698 66 21
2.6411879 -1.7781767 -0.14685424 72 20
2.9149308 -1.4478195 -0.22289124 69 19
2.6512041 -1.7869419 -0.28389519 72 18
2.9141984 -1.447463 -0.36846393 71 17
2.6484005 -1.7863876 -0.43899956 71 16
2.9102464 -1.4442585 -0.56035769 72 15
2.374131 -1.6058897 -0.81026959 9 13
2.9281914 -1.4525309 -0.74063224 73 14
2.275964 -1.5428171 -0.93898582 22 12
