# .PCD v0.7 - Point Cloud Data file format
VERSION 0.7
FIELDS x y z intensity ring
SIZE 4 4 4 4 2
TYPE F F F F U
COUNT 1 1 1 1 1
WIDTH 1135
HEIGHT 1
VIEWPOINT 0 0 0 1 0 0 0
POINTS 1135
DATA ascii
0.022333292 -0.5412969 -0.2380826 98 10
-0.049723163 -0.52464324 -0.29743618 99 8
0.024450889 -0.53949916 -0.34190163 95 7
-0.051183261 -0.52366793 -0.3741121 100 6
0.025986914 -0.53224051 -0.4215959 95 5
-0.053157166 -0.52191138 -0.4681583 99 4
0.025670916 -0.48853356 -0.48214942 11 3
-0.04559283 -0.43470138 -0.4751122 5 2
0.020367015 -0.37060574 -0.44148776 7 1
-0.036621235 -0.34428927 -0.43813115 7 0
0.019707689 -0.53453934 0.13341531 97 31
-0.047127862 -0.52235305 0.11329425 94 30
0.019196661 -0.53286237 0.096139885 96 29
-0.04622142 -0.51448566 0.075337246 95 28
0.018479235 -0.52592701 0.059982307 95 27
-0.046342 -0.51563615 0.046148144 94 26
0.01879191 -0.53835374 0.035051167 95 25
-0.047675796 -0.52973402 0.023175254 95 24
0.01816394 -0.52695441 0.011431315 89 23
-0.045705456 -0.50786281 0 91 22
0.018851334 -0.54943776 -0.011953559 93 21
-0.046920642 -0.51977247 -0.022709418 92 20
0.018126708 -0.53090245 -0.034357365 89 19
-0.046816356 -0.51585209 -0.043366667 93 18
0.018811297 -0.54871935 -0.058851875 93 17
-0.047206916 -0.51810622 -0.067432538 95 16
0.018622646 -0.53946042 -0.08802554 97 15
-0.047904156 -0.5182125 -0.13894267 96 13
0.018681021 -0.5390119 -0.11553194 98 14
-0.048302796 -0.51700342 -0.1675301 97 12
0.019755704 -0.53745419 -0.20339964 97 11
-0.049388304 -0.51165795 -0.25443748 98 9
0.020443676 -0.54137152 -0.2380826 98 10
-0.051773392 -0.52659476 -0.29872939 99 8
0.022470368 -0.53751302 -0.34050038 95 7
-0.053010892 -0.52348608 -0.3741121 100 6
0.024225757 -0.53423357 -0.42321122 96 5
-0.054581419 -0.5181303 -0.46470326 100 4
0.023965459 -0.48862019 -0.48214942 11 3
-0.047370605 -0.43613604 -0.47702029 5 2
0.019255567 -0.37369907 -0.44546515 7 1
-0.037311397 -0.33984494 -0.43201771 7 0
0.017841678 -0.53460491 0.13341531 96 31
-0.04800022 -0.51248938 0.11103964 95 30
0.017336506 -0.53292614 0.096139885 96 29
-0.048497364 -0.51923776 0.076109938 95 28
0.016553225 -0.52350837 0.059679367 95 27
-0.048293207 -0.51795655 0.046386018 93 26
0.017181536 -0.54589313 0.035571728 93 25
-0.049524624 -0.52956438 0.023175254 95 24
0.016502354 -0.53201008 0.01154737 90 23
-0.047721472 -0.51018834 0 91 22
0.016852167 -0.54450178 -0.011837505 91 21
-0.049465779 -0.52706164 -0.023058794 92 20
0.016097579 -0.52597749 -0.034012061 91 19
-0.048526727 -0.51569402 -0.043366667 92 18
0.016720695 -0.54381716 -0.058283258 93 17
-0.049411472 -0.52287525 -0.068120621 95 16
0.016739462 -0.53952217 -0.08802554 97 15
-0.049472794 -0.51565057 -0.13825484 97 13
0.017068684 -0.54394162 -0.11664818 98 14
-0.050107181 -0.5168317 -0.1675301 97 12
0.017973335 -0.53751671 -0.20339964 97 11
-0.050855108 -0.50929534 -0.25326493 99 9
0.01837693 -0.53691745 -0.23595686 97 10
-0.053293116 -0.52429265 -0.29743618 99 8
0.02059396 -0.53758818 -0.34050038 95 7
-0.05388042 -0.51539892 -0.36805359 99 6
0.022272944 -0.5304991 -0.41998059 96 5
-0.05650387 -0.51974195 -0.46643078 98 4
0.02243414 -0.4904092 -0.48396885 13 3
-0.04900676 -0.43758067 -0.47892839 5 2
0.017930079 -0.37224832 -0.44347647 7 1
-0.038087685 -0.33684421 -0.42794207 7 0
0.015733253 -0.52500498 0.13083725 97 31
-0.050190859 -0.51717377 0.11216695 95 30
0.015818466 -0.54034066 0.097560667 96 29
-0.049970631 -0.51661658 0.075723588 92 28
0.014980808 -0.52852088 0.060285252 95 27
-0.049350329 -0.51035666 0.045672391 93 26
0.015045664 -0.53597653 0.034877647 90 25
-0.050527249 -0.52194327 0.022825878 93 24
0.014576683 -0.52706575 0.011431315 89 23
-0.049161285 -0.50753999 0 91 22
0.015111023 -0.54955328 -0.011953559 90 21
-0.051213305 -0.52689469 -0.023058794 92 20
0.014353286 -0.52602798 -0.034012061 89 19
-0.050326537 -0.51552147 -0.043366667 93 18
0.014917241 -0.54386961 -0.058283258 93 17
-0.051488306 -0.52516299 -0.068464667 96 16
0.014791234 -0.53465158 -0.087166756 95 15
-0.051678281 -0.5202651 -0.1396305 97 13
0.015090775 -0.54156226 -0.11609006 98 14
-0.051328491 -0.51196307 -0.16589567 97 12
0.01609694 -0.5375762 -0.20339964 97 11
-0.052869879 -0.51130992 -0.25443748 99 9
0.016596345 -0.53697544 -0.23595686 98 10
-0.054889247 -0.52197665 -0.296143 99 8
0.018728053 -0.53558481 -0.33909914 96 7
-0.0559026 -0.51718402 -0.36956823 99 6
0.020421021 -0.53057361 -0.41998059 95 5
-0.058106925 -0.51774681 -0.46470326 99 4
0.020472683 -0.48534694 -0.47851059 12 3
-0.049946692 -0.43259671 -0.47320414 6 2
0.016549708 -0.37079585 -0.44148776 7 1
-0.039443512 -0.33814612 -0.42997989 6 0
0.013900547 -0.52505666 0.13083725 97 31
-0.051741656 -0.51457304 0.11160329 95 30
0.013634084 -0.5305782 0.095666289 96 29
-0.051002972 -0.50906932 0.074564554 93 28
0.012916275 -0.52112848 0.059376426 96 27
-0.051390346 -0.51265645 0.045910265 92 26
0.013101984 -0.53353286 0.034704126 90 25
-0.053128079 -0.52921498 0.023175254 95 24
0.012930909 -0.53710896 0.011663424 92 23
-0.050672177 -0.50487888 0 91 22
0.013050446 -0.54460615 -0.011837505 92 21
-0.052361015 -0.51925266 -0.022709418 94 20
0.01251702 -0.52607489 -0.034012061 88 19
-0.052125733 -0.51534265 -0.043366667 91 18
0.012993977 -0.54640347 -0.058567569 93 17
-0.052800041 -0.52005506 -0.067776576 90 16
0.012831539 -0.53470224 -0.087166756 96 15
-0.053584799 -0.52007222 -0.1396305 96 13
0.013200277 -0.54161161 -0.11609006 98 14
-0.053204589 -0.5117715 -0.16589567 97 12
0.014198508 -0.53994817 -0.20433699 97 11
-0.054899342 -0.51331669 -0.25561002 98 9
0.014773429 -0.54155588 -0.2380826 98 10
-0.056560561 -0.51964611 -0.29484978 99 8
0.016840413 -0.53771889 -0.34050038 95 7
-0.057567127 -0.5150001 -0.36805359 98 6
0.018399328 -0.52873838 -0.41836527 94 5
-0.059786752 -0.51573628 -0.46297571 100 4
0.018693661 -0.48541871 -0.47851059 13 3
-0.051657766 -0.43402246 -0.4751122 5 2
0.015416543 -0.3753933 -0.44745383 7 1
-0.040868133 -0.33943561 -0.43201771 6 0
0.01217583 -0.5323478 0.13277079 96 31
-0.054416452 -0.52164412 0.11329425 93 30
0.011623785 -0.52817076 0.095192693 96 29
-0.052868456 -0.50887895 0.074564554 93 28
0.010942063 -0.51869154 0.059073485 95 27
-0.053268977 -0.51246464 0.045910265 94 26
0.011337032 -0.54105675 0.035224687 96 25
-0.054529708 -0.52405113 0.022942336 94 24
0.010930354 -0.53215373 0.01154737 90 23
-0.053061437 -0.5096606 0 90 22
0.010992341 -0.54215169 -0.011779478 93 21
-0.054173224 -0.51906669 -0.022709418 93 20
0.010712385 -0.53110379 -0.034357365 92 19
-0.053743996 -0.5126729 -0.043143127 92 18
0.011148144 -0.5489285 -0.058851875 93 17
-0.054975364 -0.52231956 -0.068120621 95 16
0.010841218 -0.52981961 -0.086307973 95 15
-0.055134866 -0.51749313 -0.13894267 97 13
0.011153418 -0.53922021 -0.11553194 98 14
-0.054990675 -0.51158267 -0.16589567 96 12
0.012313652 -0.53999436 -0.20433699 97 11
-0.056274336 -0.50872511 -0.25326493 99 9
0.012688676 -0.53481853 -0.23489399 98 10
-0.058871873 -0.52369553 -0.29743618 98 8
0.015031606 -0.53984368 -0.34190163 95 7
-0.05960203 -0.51677078 -0.36956823 99 6
0.01676433 -0.53451973 -0.42321122 96 5
-0.0611393 -0.51193804 -0.45952067 100 4
0.017282721 -0.49233332 -0.48578829 13 3
-0.053248197 -0.43383017 -0.4751122 5 2
0.014036039 -0.37393147 -0.44546515 7 1
-0.043005399 -0.34646893 -0.4422068 6 0
0.010259343 -0.52997231 0.13212627 97 31
-0.055151012 -0.51176918 0.11103964 95 30
0.009780053 -0.52820814 0.095192693 96 29
-0.055193394 -0.51360071 0.075337246 95 28
0.0092422944 -0.5236885 0.059679367 95 27
-0.055887122 -0.51969528 0.046623897 94 26
0.0094483215 -0.54109305 0.035224687 88 25
-0.056636162 -0.52633941 0.023058794 95 24
0.0090727247 -0.53218865 0.01154737 90 23
-0.05456192 -0.50698781 0 90 22
0.0089933835 -0.5371893 -0.011663424 93 21
-0.057098258 -0.52880138 -0.023175254 91 20
0.0088053206 -0.5286445 -0.034184713 89 19
-0.055812083 -0.51495647 -0.043366667 92 18
0.0091261929 -0.54399765 -0.058283258 94 17
-0.055685595 -0.51228237 -0.066744447 95 16
0.0090450356 -0.53231651 -0.086737365 96 15
-0.056120913 -0.5101338 -0.13687916 97 13
0.0092179598 -0.53681958 -0.11497381 98 14
-0.056776103 -0.51138759 -0.16589567 96 12
0.010372828 -0.5377171 -0.20339964 96 11
-0.057789106 -0.50633299 -0.25209242 98 9
0.010935463 -0.53938377 -0.23701973 98 10
-0.059930667 -0.51711446 -0.2935566 98 8
0.013208169 -0.54196239 -0.34330288 95 7
-0.061161071 -0.51458567 -0.36805359 100 6
0.01483481 -0.53266799 -0.4215959 97 5
-0.063385785 -0.51530635 -0.46297571 99 4
0.015369291 -0.48725075 -0.48033002 12 3
-0.054975007 -0.43524289 -0.47702029 5 2
0.012924972 -0.37851894 -0.45143119 7 1
-0.04362791 -0.34201187 -0.43609333 7 0
0.0083098449 -0.52517492 0.13083725 97 31
-0.057217024 -0.51399302 0.11160329 95 30
0.0079846131 -0.53069329 0.095666289 96 29
-0.056419786 -0.50849748 0.074564554 93 28
0.0074142236 -0.52371752 0.059679367 95 27
-0.057325445 -0.51703483 0.046386018 92 26
0.0074672229 -0.53613567 0.034877647 88 25
-0.058186918 -0.52365768 0.022942336 93 24
0.0071696197 -0.5297181 0.011489342 90 23
-0.056905128 -0.51176125 0 90 22
0.0073018046 -0.54221398 -0.011779478 88 21
-0.057795644 -0.51867586 -0.022709418 92 20
0.0070043509 -0.53116566 -0.034357365 92 19
-0.057806492 -0.51724195 -0.043590207 93 18
0.0071830163 -0.54154277 -0.057998952 89 17
-0.05881571 -0.5243929 -0.068464667 94 16
0.0072762514 -0.53726965 -0.087596148 96 15
-0.058464605 -0.51470864 -0.13825484 96 13
0.0075279144 -0.54172021 -0.11609006 98 14
-0.059119508 -0.51587844 -0.1675301 97 12
0.0085415039 -0.53543144 -0.20246232 97 11
-0.059735794 -0.50833023 -0.25326493 99 9
0.008905692 -0.53263181 -0.23383114 97 10
-0.061908491 -0.51903617 -0.29484978 99 8
0.011154779 -0.53579611 -0.33909914 95 7
-0.063118167 -0.51635313 -0.36956823 99 6
0.013068338 -0.53271425 -0.4215959 96 5
-0.065094247 -0.51509333 -0.46297571 99 4
0.013931141 -0.49243957 -0.48578829 12 3
-0.055981815 -0.43185717 -0.47320414 5 2
0.01143072 -0.37250453 -0.44347647 7 1
-0.045362726 -0.34616819 -0.4422068 7 0
0.0066517256 -0.53002989 0.13212627 97 31
-0.059209142 -0.51621908 0.11216695 95 30
0.0062649972 -0.5331713 0.096139885 96 29
-0.057814546 -0.50585485 0.074178211 94 28
0.0056774728 -0.52373922 0.059679367 95 27
-0.058543138 -0.51188898 0.045910265 92 26
0.0058407639 -0.54613221 0.035571728 92 25
-0.059923112 -0.52346188 0.022942336 95 24
0.0053571556 -0.53223896 0.01154737 90 23
-0.058306731 -0.5090872 0 91 22
0.0054452848 -0.54473525 -0.011837505 90 21
-0.059310123 -0.51599127 -0.02259296 92 20
0.0051345187 -0.52370465 -0.033839412 88 19
-0.060203023 -0.52198172 -0.044037286 91 18
0.0053281812 -0.54404807 -0.058283258 93 17
-0.059466179 -0.51435006 -0.067088492 91 16
0.0053646797 -0.5348292 -0.087166756 97 15
-0.059680924 -0.50972956 -0.13687916 97 13
0.0056369118 -0.54174316 -0.11609006 98 14
-0.06005732 -0.50863367 -0.16507845 97 12
0.006658271 -0.54009372 -0.20433699 97 11
-0.060958657 -0.50373721 -0.25091991 98 9
0.0070874766 -0.53492206 -0.23489399 97 10
-0.064894907 -0.52729487 -0.3000226 98 8
0.0092844348 -0.53583181 -0.33909914 96 7
-0.065268502 -0.51809043 -0.37108287 99 6
0.011166034 -0.534666 -0.42321122 96 5
-0.067224175 -0.51664209 -0.46470326 99 4
0.012073208 -0.49077359 -0.48396885 12 3
-0.057488944 -0.43165913 -0.47320414 5 2
0.010173731 -0.37557197 -0.44745383 7 1
-0.046836749 -0.34743318 -0.44424465 6 0
0.0047090244 -0.53005069 0.13212627 97 31
-0.061397608 -0.51841605 0.1127306 95 30
0.0042795106 -0.53073609 0.095666289 97 29
-0.060568683 -0.51299453 0.075337246 92 28
0.0037578344 -0.5237565 0.059679367 95 27
-0.060418911 -0.51167095 0.045910265 92 26
0.0038103217 -0.54365617 0.035398208 91 25
-0.061537813 -0.52075994 0.022825878 94 24
0.0034992623 -0.53225446 0.01154737 90 23
-0.059563756 -0.50390726 0 89 22
0.0033946044 -0.53975314 -0.011721451 89 21
-0.060806561 -0.51330239 -0.022476502 91 20
0.0032150107 -0.52371991 -0.033839412 87 19
-0.061506286 -0.51681507 -0.043590207 93 18
0.0034021894 -0.54157972 -0.057998952 94 17
-0.062566645 -0.52395862 -0.068464667 94 16
0.0034977449 -0.5348447 -0.087166756 97 15
-0.062056493 -0.51428795 -0.13825484 97 13
0.0035683506 -0.53444993 -0.11441568 98 14
-0.062128123 -0.51076502 -0.16589567 97 12
0.0046783006 -0.5331614 -0.20152499 97 11
-0.063088149 -0.50570011 -0.25209242 99 9
0.0052865529 -0.53946865 -0.23701973 97 10
-0.066178069 -0.5228225 -0.29743618 99 8
0.0074139768 -0.5358609 -0.33909914 95 7
-0.066811465 -0.51588821 -0.36956823 99 6
0.0092123905 -0.53088653 -0.41998059 97 5
-0.068281107 -0.51103449 -0.45952067 100 4
0.010453966 -0.49424055 -0.48760772 12 3
-0.059070665 -0.43144551 -0.47320414 5 2
0.0090094022 -0.38014773 -0.45341986 7 1
-0.047838666 -0.34583473 -0.4422068 6 0
0.0029076766 -0.53489465 0.13341531 97 31
-0.062596314 -0.51336575 0.11160329 94 30
0.0024041629 -0.52829319 0.095192693 96 29
-0.061741568 -0.50787878 0.074564554 94 28
0.00192956 -0.52376646 0.059679367 95 27
-0.062515654 -0.51392609 0.046148144 92 26
0.001932607 -0.54615998 0.035571728 91 25
-0.06335523 -0.52054197 0.022825878 92 24
0.0015837462 -0.52476561 0.011373288 89 23
-0.061948158 -0.50865692 0 91 22
0.0015837767 -0.54975873 -0.011953559 92 21
-0.062910944 -0.51556462 -0.02259296 92 20
0.0013868674 -0.52372795 -0.033839412 88 19
-0.063623302 -0.51906741 -0.043813746 92 18
0.0014934957 -0.53910458 -0.057714641 95 17
-0.064395219 -0.52373701 -0.068464667 95 16
0.0015929407 -0.52992809 -0.086307973 97 15
-0.063544668 -0.51168436 -0.137567 97 13
0.0017027506 -0.53445911 -0.11441568 98 14
-0.063302875 -0.50585896 -0.16426124 97 12
0.0028641128 -0.53780949 -0.20339964 97 11
-0.06485299 -0.50547677 -0.25209242 99 9
0.003352873 -0.53495848 -0.23489399 98 10
-0.068288587 -0.52470869 -0.29872939 99 8
0.0055112685 -0.53381336 -0.33769789 95 7
-0.068883844 -0.51762211 -0.37108287 100 6
0.0073961578 -0.5328232 -0.4215959 95 5
-0.069809593 -0.509004 -0.45779315 100 4
0.0085647106 -0.48741782 -0.48033002 12 3
-0.060811467 -0.4328348 -0.4751122 5 2
0.0075951396 -0.37714818 -0.44944251 7 1
-0.04926113 -0.34709772 -0.44424465 6 0
0.0010245077 -0.53248608 0.13277079 96 31
-0.065015309 -0.51797479 0.1127306 95 30
0.00057419925 -0.53075308 0.095666289 96 29
-0.063831285 -0.51010966 0.074950904 92 28
8.9135254e-05 -0.52128851 0.059376426 96 27
-0.063261852 -0.50631166 0.045434512 92 26
3.5064295e-06 -0.54117554 0.035224687 94 25
-0.064209551 -0.51288784 0.022476502 95 24
-0.00021662982 -0.53226596 0.01154737 89 23
-0.063401774 -0.50595838 0 91 22
-0.00027942914 -0.53976375 -0.011721451 92 21
-0.065353498 -0.52029485 -0.022825878 90 20
-0.00043171621 -0.5262236 -0.034012061 92 19
-0.065344244 -0.51885355 -0.043813746 89 18
-0.00036926544 -0.54407406 -0.058283258 93 17
-0.065169722 -0.51615447 -0.067432538 90 16
-0.00025686342 -0.52993041 -0.086307973 97 15
-0.065015428 -0.50907665 -0.13687916 96 13
-5.853083e-05 -0.53689867 -0.11497381 98 14
-0.065380327 -0.50797683 -0.16507845 97 12
0.0010648812 -0.53549844 -0.20246232 97 11
-0.066827372 -0.50744665 -0.25326493 98 9
0.0014681218 -0.53270423 -0.23383114 97 10
-0.069735244 -0.52235997 -0.29743618 98 8
0.0037226765 -0.54004008 -0.34190163 95 7
-0.071157016 -0.52132952 -0.3741121 99 6
0.0055679381 -0.52902913 -0.41836527 96 5
-0.072018869 -0.51234603 -0.46124819 100 4
0.007124871 -0.49601448 -0.48942721 11 3
-0.06128474 -0.42624152 -0.46747988 5 2
0.0064216298 -0.38020024 -0.45341986 7 1
-0.050411876 -0.34693247 -0.44424465 6 0
-0.0007573053 -0.5276556 0.13148175 97 31
-0.065767497 -0.51051342 0.11103964 95 30
-0.0011918426 -0.52829731 0.095192693 96 29
-0.065197133 -0.50744677 0.074564554 93 28
-0.0016395202 -0.52128589 0.059376426 95 27
-0.065356664 -0.5085547 0.045672391 90 26
-0.0017850024 -0.54616052 0.035571728 92 25
-0.067225933 -0.52257419 0.022942336 94 24
-0.0019860482 -0.52726358 0.011431315 94 23
-0.06540902 -0.50822347 0 91 22
-0.0021609373 -0.5447582 -0.011837505 93 21
-0.066088945 -0.51264906 -0.022476502 93 20
-0.0021767344 -0.52621931 -0.034012061 91 19
-0.067154974 -0.51862234 -0.043813746 93 18
-0.0021734778 -0.54406983 -0.058283258 93 17
-0.067629457 -0.5208323 -0.068120621 94 16
-0.0020120253 -0.53238952 -0.086737365 97 15
-0.067671828 -0.51600343 -0.13894267 96 13
-0.0019326567 -0.53689522 -0.11497381 98 14
-0.066744648 -0.50541633 -0.16426124 97 12
-0.00081973511 -0.5308637 -0.20058766 96 11
-0.068598278 -0.50721031 -0.25326493 98 9
-0.00028852373 -0.53496897 -0.23489399 97 10
-0.071858563 -0.52423167 -0.29872939 98 8
0.0018956841 -0.53590882 -0.33909914 95 7
-0.072690964 -0.51910961 -0.37259749 100 6
0.0037692022 -0.53286117 -0.4215959 96 5
-0.073272631 -0.50851703 -0.45779315 101 4
0.0053054392 -0.49089342 -0.48396885 12 3
-0.063264228 -0.4292179 -0.47129604 5 2
0.0050278176 -0.37719113 -0.44944251 7 1
-0.051622592 -0.34675437 -0.44424465 6 0
-0.0025978975 -0.52040327 0.12954821 97 31
-0.068539523 -0.51752025 0.1127306 95 30
-0.0030307961 -0.52338052 0.094245501 96 29
-0.067635924 -0.51211065 0.075337246 93 28
-0.0034543732 -0.51879543 0.059073485 95 27
-0.067467913 -0.51078928 0.045910265 91 26
-0.0036688128 -0.53617507 0.034877647 90 25
-0.069049656 -0.5223363 0.022942336 94 24
-0.0039255321 -0.52975208 0.011489342 93 23
-0.066505805 -0.50303811 0 91 22
-0.0040624849 -0.54474729 -0.011837505 93 21
-0.068306372 -0.51487756 -0.02259296 90 20
-0.0039987694 -0.52122045 -0.033666763 86 19
-0.068626113 -0.5159179 -0.043590207 93 18
-0.0041441703 -0.53660685 -0.057430334 90 17
-0.069784865 -0.52304614 -0.068464667 94 16
-0.003956439 -0.52991575 -0.086307973 95 15
-0.069231026 -0.51337141 -0.13825484 97 13
-0.0038067591 -0.5368852 -0.11497381 98 14
-0.068925053 -0.50750804 -0.16507845 97 12
-0.0027662513 -0.53317475 -0.20152499 97 11
-0.069427028 -0.50041103 -0.24974738 98 9
-0.0022477012 -0.53722715 -0.23595686 98 10
-0.073163241 -0.51973033 -0.296143 98 8
-5.805376e-05 -0.53798252 -0.34050038 95 7
-0.074007876 -0.5149051 -0.36956823 99 6
0.0018161426 -0.53287143 -0.4215959 95 5
-0.075956926 -0.51360387 -0.46297571 100 4
0.003552272 -0.49433833 -0.48760772 11 3
-0.064007372 -0.42420769 -0.46557182 5 2
0.0036175479 -0.37569234 -0.44745383 7 1
-0.053354241 -0.34942231 -0.4483203 6 0
-0.0045238025 -0.52522117 0.13083725 97 31
-0.069079973 -0.50761783 0.11047598 95 30
-0.0049259253 -0.51845646 0.093298309 97 29
-0.069169551 -0.50941324 0.074950904 92 28
-0.0053835497 -0.52374232 0.059679367 95 27
-0.069685094 -0.51300311 0.046148144 91 26
-0.0056487676 -0.538652 0.035051167 94 25
-0.06992358 -0.51466042 0.02259296 90 24
-0.005727577 -0.5222373 0.011315262 89 23
-0.069044083 -0.50774246 0 89 22
-0.0060093282 -0.53723097 -0.011663424 89 21
-0.070103221 -0.51463598 -0.02259296 91 20
-0.0059091109 -0.52120227 -0.033666763 88 19
-0.070168756 -0.5131973 -0.043366667 92 18
-0.0060501983 -0.5415566 -0.057998952 94 17
-0.071354695 -0.52033502 -0.068120621 94 16
-0.0057752179 -0.52497315 -0.085449189 95 15
-0.07136251 -0.51550597 -0.13894267 97 13
-0.0057745166 -0.53686768 -0.11497381 98 14
-0.070696168 -0.50726438 -0.16507845 97 12
-0.0046362607 -0.53547949 -0.20246232 97 11
-0.07222601 -0.50670642 -0.25326493 99 9
-0.0040976843 -0.5281648 -0.2317054 97 10
-0.074976996 -0.51947176 -0.296143 98 8
-0.0019359631 -0.53797901 -0.34050038 95 7
-0.075804785 -0.51464361 -0.36956823 99 6
-5.4260716e-05 -0.53096646 -0.41998059 96 5
-0.077749275 -0.51333559 -0.46297571 100 4
0.0018096305 -0.49263325 -0.48578829 12 3
-0.065819159 -0.42556491 -0.46747988 5 2
0.0022836404 -0.37418786 -0.44546515 7 1
-0.05433809 -0.34780502 -0.44628248 6 0
-0.0063040205 -0.5179559 0.12890369 97 31
-0.07189364 -0.51460582 0.11216695 95 30
-0.0068161907 -0.52825469 0.095192693 96 29
-0.070947304 -0.50916874 0.074950904 92 28
-0.0072117187 -0.52372032 0.059679367 95 27
-0.072093219 -0.51769596 0.046623897 91 26
-0.0074584652 -0.53114742 0.034530606 90 25
-0.072785608 -0.52182883 0.022942336 93 24
-0.0075993454 -0.52721256 0.011431315 90 23
-0.069391452 -0.49760032 0 89 22
-0.0078156814 -0.53970724 -0.011721451 92 21
-0.071899205 -0.51438814 -0.02259296 91 20
-0.0077536572 -0.5236724 -0.033839412 91 19
-0.071870193 -0.51296186 -0.043366667 94 18
-0.0079405466 -0.54153216 -0.057998952 95 17
-0.072724901 -0.51764488 -0.067776576 95 16
-0.0076798936 -0.53233796 -0.086737365 96 15
-0.072465107 -0.51049739 -0.137567 96 13
-0.0075318348 -0.53440875 -0.11441568 99 14
-0.073155895 -0.51168925 -0.1667129 97 12
-0.0063953651 -0.53314358 -0.20152499 96 11
-0.074563988 -0.51083088 -0.25561002 99 9
-0.0059555154 -0.53041005 -0.23276827 97 10
-0.077344254 -0.52345049 -0.29872939 99 8
-0.0038098735 -0.53589863 -0.33909914 95 7
-0.076898992 -0.51045889 -0.36653897 99 6
-0.0018230013 -0.52714723 -0.41674998 95 5
-0.079451129 -0.51307493 -0.46297571 101 4
0.00021010381 -0.49778008 -0.49124664 12 3
-0.066967309 -0.42375046 -0.46557182 5 2
0.0010253256 -0.37267849 -0.44347647 7 1
-0.0566925 -0.35476354 -0.45647156 6 0
-0.0080987373 -0.52517819 0.13083725 97 31
-0.073599741 -0.5143646 0.11216695 96 30
-0.008511357 -0.52332008 0.094245501 96 29
-0.071556762 -0.50159973 0.073791869 92 28
-0.0089176483 -0.52121222 0.059376426 95 27
-0.072813094 -0.51005477 0.045910265 90 26
-0.0092833219 -0.53610724 0.034877647 94 25
-0.074879184 -0.5240553 0.023058794 93 24
-0.0093148882 -0.52468532 0.011373288 90 23
-0.072498545 -0.50726068 0 90 22
-0.0096995626 -0.53967667 -0.011721451 93 21
-0.073968962 -0.51661742 -0.022709418 90 20
-0.0094566587 -0.52114999 -0.033666763 91 19
-0.073660329 -0.51270783 -0.043366667 92 18
-0.0096027739 -0.53156871 -0.056861717 91 17
-0.074531376 -0.51738787 -0.067776576 94 16
-0.0093806721 -0.52738428 -0.085878581 97 15
-0.074869767 -0.51500827 -0.13894267 97 13
-0.0093972236 -0.53437924 -0.11441568 99 14
-0.073794857 -0.50443518 -0.16426124 96 12
-0.0082563441 -0.53311801 -0.20152499 97 11
-0.076346658 -0.51056749 -0.25561002 98 9
-0.0077361073 -0.53265005 -0.23383114 98 10
-0.078181259 -0.51683545 -0.29484978 99 8
-0.005576116 -0.5338127 -0.33769789 95 7
-0.079306073 -0.51411575 -0.36956823 99 6
-0.0036684053 -0.53095382 -0.41998059 96 5
-0.080949567 -0.51101112 -0.46124819 100 4
-0.0015382468 -0.4943487 -0.48760772 12 3
-0.069519155 -0.42988563 -0.47320414 5 2
-0.00027557136 -0.37267977 -0.44347647 7 1
-0.056459002 -0.34599981 -0.44424465 6 0
-0.0099319033 -0.52514672 0.13083725 97 31
-0.074303381 -0.50687963 0.11047598 92 30
-0.010411721 -0.52819604 0.095192693 96 29
-0.074411437 -0.50867403 0.074950904 91 28
-0.010697552 -0.51869667 0.059073485 94 27
-0.074222222 -0.50733662 0.045672391 92 26
-0.01111415 -0.53357798 0.034704126 95 25
-0.076335877 -0.5213213 0.022942336 93 24
-0.011187765 -0.5271486 0.011431315 90 23
-0.072776876 -0.49711648 0 88 22
-0.011541017 -0.53714061 -0.011663424 93 21
-0.076144844 -0.51882535 -0.022825878 92 20
-0.011317974 -0.52360749 -0.033839412 91 19
-0.075822756 -0.51490945 -0.043590207 91 18
-0.011542331 -0.53649879 -0.057430334 90 17
-0.076336943 -0.51712453 -0.067776576 95 16
-0.011262363 -0.52981079 -0.086307973 97 15
-0.075573869 -0.50761664 -0.13687916 97 13
-0.011302476 -0.5367797 -0.11497381 98 14
-0.075915843 -0.50650948 -0.16507845 97 12
-0.010051696 -0.52845109 -0.19965033 97 11
-0.077784128 -0.50811678 -0.25443748 99 9
-0.0095657371 -0.53035718 -0.23276827 98 10
-0.080322154 -0.51867217 -0.296143 99 8
-0.0074394355 -0.53378993 -0.33769789 95 7
-0.080780469 -0.51187265 -0.36805359 100 6
-0.0055310819 -0.53284585 -0.4215959 96 5
-0.083031103 -0.5125078 -0.46297571 100 4
-0.0032644351 -0.49605489 -0.48942721 12 3
-0.071566969 -0.43282419 -0.47702029 5 2
-0.0015627159 -0.37570646 -0.44745383 7 1
-0.057916652 -0.34722701 -0.44628248 6 0
-0.011856595 -0.52510685 0.13083725 97 31
-0.076905921 -0.51141775 0.11160329 94 30
-0.012301747 -0.52570009 0.094719097 95 29
-0.07552129 -0.50351584 0.074178211 92 28
-0.012598599 -0.51865393 0.059073485 95 27
-0.075701326 -0.50460166 0.045434512 93 26
-0.013168973 -0.53852063 0.035051167 93 25
-0.077864915 -0.51857001 0.022825878 93 24
-0.013069188 -0.52460527 0.011373288 92 23
-0.075362481 -0.50178766 0 89 22
-0.013715537 -0.54708987 -0.011895532 93 21
-0.077663876 -0.5160749 -0.022709418 90 20
-0.013237015 -0.52356249 -0.033839412 91 19
-0.077709489 -0.51462811 -0.043590207 89 18
-0.013457472 -0.53396958 -0.057146024 91 17
-0.077850826 -0.51439458 -0.067432538 90 16
-0.013054564 -0.52237892 -0.08501979 95 15
-0.077433869 -0.5073362 -0.13687916 97 13
-0.013318704 -0.5391711 -0.11553194 98 14
-0.07851018 -0.51089507 -0.1667129 97 12
-0.01211227 -0.53536254 -0.20246232 97 11
-0.079293698 -0.50564861 -0.25326493 98 9
-0.011509529 -0.53031856 -0.23276827 97 10
-0.082222648 -0.51837426 -0.296143 98 8
-0.0093958247 -0.53375912 -0.33769789 95 7
-0.083309837 -0.51549697 -0.37108287 99 6
-0.007435069 -0.52709788 -0.41674998 95 5
-0.083994605 -0.50685632 -0.45779315 100 4
-0.005061897 -0.49089599 -0.48396885 13 3
-0.07175456 -0.42460445 -0.46747988 5 2
-0.0029357721 -0.38024315 -0.45341986 7 1
-0.058422528 -0.34273589 -0.44016898 6 0
-0.013586629 -0.52023232 0.12954821 97 31
-0.078309618 -0.50874054 0.11103964 95 30
-0.014027894 -0.52074564 0.093771905 96 29
-0.078049503 -0.50812846 0.074950904 92 28
-0.014351795 -0.51612586 0.058770545 96 27
-0.078239165 -0.50925064 0.045910265 92 26
-0.014990359 -0.53597808 0.034877647 95 25
-0.079284787 -0.51582837 0.022709418 93 24
-0.015018961 -0.52955371 0.011489342 89 23
-0.077113591 -0.50152153 0 90 22
-0.015444578 -0.53954279 -0.011721451 89 21
-0.079074182 -0.51333416 -0.02259296 92 20
-0.015004446 -0.52101976 -0.033666763 90 19
-0.079896204 -0.5168128 -0.043813746 90 18
-0.015321291 -0.53391939 -0.057146024 90 17
-0.079645924 -0.51411968 -0.067432538 91 16
-0.014936382 -0.52479237 -0.085449189 96 15
-0.079967089 -0.51180893 -0.13825484 96 13
-0.01514327 -0.53668511 -0.11497381 98 14
-0.079161055 -0.50362098 -0.16426124 96 12
-0.013931614 -0.53299993 -0.20152499 97 11
-0.081418112 -0.5075472 -0.25443748 98 9
-0.013406426 -0.53253752 -0.23383114 97 10
-0.083326839 -0.5138635 -0.2935566 98 8
-0.01116029 -0.52751267 -0.33349419 96 7
-0.084107503 -0.50932074 -0.36653897 99 6
-0.0092519615 -0.52516079 -0.41513467 95 5
-0.085763358 -0.50656009 -0.45779315 100 4
-0.0068011479 -0.4943043 -0.48760772 12 3
-0.073806688 -0.42753124 -0.47129604 5 2
-0.0042551183 -0.37720066 -0.44944251 7 1
-0.059878983 -0.34395447 -0.4422068 6 0
-0.015402496 -0.52018178 0.12954821 96 31
-0.08008498 -0.5084641 0.11103964 95 30
-0.016034469 -0.52805531 0.095192693 96 29
-0.078640573 -0.50053799 0.073791869 94 28
-0.016284976 -0.52103406 0.059376426 95 27
-0.079530865 -0.5065316 0.045672391 91 26
-0.016794156 -0.53342944 0.034704126 90 25
-0.081881694 -0.52047908 0.022942336 93 24
-0.016799316 -0.52699965 0.011431315 90 23
-0.078464478 -0.49878138 0 90 22
-0.017165205 -0.53699028 -0.011663424 89 21
-0.0804663 -0.51058984 -0.022476502 90 20
-0.016823051 -0.52096421 -0.033666763 91 19
-0.080412701 -0.50917161 -0.043143127 88 18
-0.01711644 -0.53137982 -0.056861717 91 17
-0.082145579 -0.51874095 -0.068120621 90 16
-0.016634062 -0.51981312 -0.084590398 96 15
-0.082142808 -0.51389843 -0.13894267 96 13
-0.016791916 -0.53175992 -0.11385756 97 14
-0.082074955 -0.51033455 -0.1667129 97 12
-0.015641998 -0.53063381 -0.20058766 96 11
-0.083834931 -0.51162893 -0.25678253 98 9
-0.015157834 -0.5279631 -0.2317054 97 10
-0.085749179 -0.5178026 -0.296143 98 8
-0.013202121 -0.53782052 -0.34050038 95 7
-0.086136267 -0.51099867 -0.36805359 99 6
-0.01113993 -0.53466654 -0.42321122 96 5
-0.087759607 -0.50805199 -0.45952067 100 4
-0.0083846236 -0.48913571 -0.48214942 12 3
-0.075514525 -0.42887306 -0.47320414 5 2
-0.005487957 -0.37415457 -0.44546515 7 1
-0.059958622 -0.33805916 -0.43405554 6 0
-0.017330995 -0.52737141 0.13148175 97 31
-0.081770666 -0.5081957 0.11103964 92 30
-0.017785475 -0.52799922 0.095192693 96 29
-0.081104249 -0.50514847 0.074564554 90 28
-0.017864594 -0.51601624 0.058770545 95 27
-0.081703685 -0.50870633 0.045910265 91 26
-0.018412394 -0.52838516 0.034357082 91 25
-0.083200641 -0.51774073 0.022825878 93 24
-0.018638786 -0.52693778 0.011431315 88 23
-0.080525517 -0.50098503 0 89 22
-0.019039545 -0.5369271 -0.011663424 94 21
-0.082248107 -0.51030582 -0.022476502 92 20
-0.018396471 -0.51591992 -0.033321463 91 19
-0.082189552 -0.50888783 -0.043143127 90 18
-0.018971197 -0.53131682 -0.056861717 91 17
-0.084361963 -0.52089369 -0.068464667 94 16
-0.018751012 -0.52959865 -0.086307973 95 15
-0.08234439 -0.50412714 -0.13619132 96 13
-0.018795989 -0.53656965 -0.11497381 98 14
-0.084249467 -0.51237464 -0.1675301 95 12
-0.017717807 -0.53520638 -0.20246232 96 11
-0.08337225 -0.4982774 -0.24974738 98 9
-0.017062278 -0.53016895 -0.23276827 98 10
-0.088013552 -0.51959264 -0.29743618 98 8
-0.014984719 -0.53363144 -0.33769789 95 7
-0.088008583 -0.51067954 -0.36805359 99 6
-0.012990614 -0.52889889 -0.41836527 96 5
-0.08897426 -0.50417101 -0.45606562 100 4
-0.010251849 -0.49424481 -0.48760772 13 3
-0.076715074 -0.42701894 -0.47129604 5 2
-0.0068883505 -0.37716174 -0.44944251 7 1
-0.062008381 -0.34210533 -0.44016898 6 0
-0.019187074 -0.52489007 0.13083725 97 31
-0.083632745 -0.50789261 0.11103964 94 30
-0.019560363 -0.52302361 0.094245501 96 29
-0.082544111 -0.50241232 0.074178211 90 28
-0.019755768 -0.51594728 0.058770545 95 27
-0.084395982 -0.51331133 0.046386018 93 26
-0.020433327 -0.53080666 0.034530606 89 25
-0.085513301 -0.51989478 0.022942336 93 24
-0.020392546 -0.52437162 0.011373288 90 23
-0.081944689 -0.49822149 0 90 22
-0.020834647 -0.53185803 -0.01154737 89 21
-0.084861837 -0.5149402 -0.022709418 91 20
-0.020545799 -0.52332664 -0.033839412 91 19
-0.084887244 -0.51349294 -0.043590207 91 18
-0.021083172 -0.5386942 -0.057714641 94 17
-0.085855469 -0.51813984 -0.068120621 90 16
-0.020431075 -0.52460718 -0.085449189 95 15
-0.084509842 -0.50620562 -0.13687916 96 13
-0.020762488 -0.53649712 -0.11497381 98 14
-0.085233994 -0.5074209 -0.16589567 96 12
-0.019585919 -0.53514123 -0.20246232 97 11
-0.086345933 -0.50449216 -0.25326493 98 9
-0.018912811 -0.53010619 -0.23276827 97 10
-0.089077801 -0.51506925 -0.29484978 99 8
-0.016738232 -0.52943653 -0.33489543 96 7
-0.08979065 -0.51036924 -0.36805359 99 6
-0.014922651 -0.53266555 -0.4215959 96 5
-0.091392867 -0.507411 -0.45952067 100 4
-0.012007844 -0.49592027 -0.48942721 14 3
-0.078279667 -0.42673486 -0.47129604 5 2
-0.0081850179 -0.37562054 -0.44745383 7 1
-0.06320218 -0.34188679 -0.44016898 6 0
-0.021019166 -0.52481991 0.13083725 97 31
-0.085819677 -0.50999767 0.11160329 95 30
-0.021563269 -0.52785838 0.095192693 96 29
-0.085556038 -0.50942332 0.075337246 91 28
-0.021648441 -0.51835513 0.059073485 95 27
-0.08491905 -0.50565612 0.045672391 89 26
-0.022099808 -0.5257476 0.034183562 91 25
-0.087751754 -0.52205408 0.023058794 93 24
-0.022222821 -0.52429724 0.011373288 91 23
-0.083683312 -0.49793237 0 91 22
-0.022786124 -0.53427958 -0.011605397 89 21
-0.085808665 -0.50971919 -0.022476502 90 20
-0.022277554 -0.52075952 -0.033666763 91 19
-0.084978737 -0.50337976 -0.042696048 89 18
-0.022868957 -0.53613538 -0.057430334 91 17
-0.086816393 -0.51295757 -0.067432538 94 16
-0.022354996 -0.52699375 -0.085878581 95 15
-0.085447364 -0.50117248 -0.13550349 96 13
-0.022543667 -0.53398615 -0.11441568 97 14
-0.085775107 -0.50013983 -0.16344401 96 12
-0.021453789 -0.53506964 -0.20246232 96 11
-0.088106409 -0.5041877 -0.25326493 98 9
-0.020840503 -0.53229845 -0.23383114 97 10
-0.091256998 -0.51686037 -0.296143 99 8
-0.018709775 -0.53351384 -0.33769789 95 7
-0.091932729 -0.51200861 -0.36956823 99 6
-0.016533835 -0.52307302 -0.41351935 96 5
-0.092156015 -0.50176197 -0.4543381 101 4
-0.013849268 -0.50101775 -0.4948855 12 3
-0.079154 -0.42328745 -0.46747988 5 2
-0.0094961291 -0.3755897 -0.44745383 7 1
-0.064395197 -0.34166411 -0.44016898 6 0
-0.022851003 -0.52474338 0.13083725 97 31
-0.086753495 -0.50489777 0.11047598 95 30
-0.02321125 -0.5228743 0.094245501 96 29
-0.086477622 -0.50425637 0.074564554 91 28
-0.023156337 -0.51083767 0.058164664 95 27
-0.086595401 -0.50537181 0.045672391 91 26
-0.024342183 -0.53563482 0.034877647 95 25
-0.087842375 -0.51190656 0.02259296 89 24
-0.024052825 -0.52421647 0.011373288 90 23
-0.085420907 -0.49763727 0 91 22
-0.024144316 -0.5242123 -0.011373288 90 21
-0.088021047 -0.51187587 -0.02259296 90 20
-0.024095209 -0.52067858 -0.033666763 91 19
-0.087947249 -0.5104512 -0.043366667 89 18
-0.024533991 -0.53108907 -0.056861717 91 17
-0.087221868 -0.50535196 -0.066400409 91 16
-0.023890164 -0.51953024 -0.084590398 96 15
-0.0888872 -0.51033539 -0.13825484 96 13
-0.024314303 -0.53390849 -0.11441568 98 14
-0.088774361 -0.50681353 -0.16589567 97 12
-0.02304928 -0.53036368 -0.20058766 96 11
-0.089777865 -0.50389278 -0.25326493 99 9
-0.022613157 -0.52996123 -0.23276827 97 10
-0.092192873 -0.5123471 -0.2935566 98 8
-0.020433959 -0.52930677 -0.33489543 95 7
-0.093630105 -0.51170093 -0.36956823 99 6
-0.018268317 -0.52301532 -0.41351935 96 5
-0.095186278 -0.50855166 -0.46124819 100 4
-0.015340673 -0.494113 -0.48760772 12 3
-0.080557242 -0.42302269 -0.46747988 5 2
-0.010711435 -0.37404147 -0.44546515 7 1
-0.065527841 -0.34144869 -0.44016898 6 0
-0.024489418 -0.52225137 0.13019273 97 31
-0.08842732 -0.50460732 0.11047598 94 30
-0.024839675 -0.52034199 0.093771905 96 29
-0.087713197 -0.50153571 0.074178211 90 28
-0.025393594 -0.52315408 0.059679367 95 27
-0.087919518 -0.50261682 0.045434512 88 26
-0.025788009 -0.52807653 0.034357082 89 25
-0.089980364 -0.51407057 0.022709418 92 24
-0.025770903 -0.52163249 0.011315262 89 23
-0.087070666 -0.49735123 0 87 22
-0.026422292 -0.5341121 -0.011605397 89 21
-0.090249531 -0.51402336 -0.022709418 89 20
-0.025709877 -0.51810426 -0.033494111 91 19
-0.089728519 -0.51014113 -0.043366667 89 18
-0.026499493 -0.53348142 -0.057146024 90 17
-0.090746142 -0.51479149 -0.067776576 89 16
-0.025813522 -0.52190405 -0.08501979 96 15
-0.090237081 -0.50765741 -0.137567 97 13
-0.026177844 -0.53382033 -0.11441568 98 14
-0.090116821 -0.50417656 -0.16507845 97 12
-0.025090866 -0.53259122 -0.20152499 97 11
-0.091536231 -0.50357634 -0.25326493 98 9
-0.024369754 -0.52761817 -0.2317054 97 10
-0.094466612 -0.51410818 -0.29484978 98 8
-0.022357691 -0.53130126 -0.33629668 94 7
-0.095130213 -0.50940096 -0.36805359 99 6
-0.020373929 -0.52866602 -0.41836527 96 5
-0.096701361 -0.5064261 -0.45952067 100 4
-0.017297897 -0.49919504 -0.49306607 11 3
-0.082033373 -0.42273888 -0.46747988 5 2
-0.012082294 -0.37399969 -0.44546515 7 1
-0.066198453 -0.33836856 -0.43609333 6 0
-0.026182568 -0.51733214 0.12890369 97 31
-0.091155559 -0.50907105 0.11160329 95 30
-0.026746655 -0.52024746 0.093771905 96 29
-0.090440884 -0.5060699 0.074950904 91 28
-0.02695759 -0.51562119 0.058770545 95 27
-0.090657905 -0.50718707 0.045910265 91 26
-0.027723333 -0.52797848 0.034357082 89 25
-0.093213774 -0.52110654 0.023058794 94 24
-0.027471233 -0.51904297 0.011257235 89 23
-0.089343831 -0.49948776 0 88 22
-0.028258514 -0.5315153 -0.01154737 89 21
-0.090690836 -0.50633645 -0.022360044 86 20
-0.027971542 -0.52547985 -0.034012061 90 19
-0.090696134 -0.50491118 -0.042919587 91 18
-0.028241066 -0.53090483 -0.056861717 91 17
-0.092183217 -0.51202029 -0.067432538 90 16
-0.027753742 -0.52427077 -0.085449189 96 15
-0.091569334 -0.50497633 -0.13687916 96 13
-0.028134217 -0.53372085 -0.11441568 98 14
-0.091441981 -0.50153655 -0.16426124 96 12
-0.026843861 -0.53018516 -0.20058766 96 11
-0.092142388 -0.49673042 -0.24974738 98 9
-0.026211336 -0.5275299 -0.2317054 97 10
-0.096664451 -0.51587641 -0.296143 98 8
-0.02404524 -0.5270825 -0.33349419 96 7
-0.096144661 -0.50516182 -0.36502433 98 6
-0.022149608 -0.52668482 -0.41674998 96 5
-0.098468527 -0.50608552 -0.45952067 100 4
-0.018876048 -0.49399057 -0.48760772 13 3
-0.083582237 -0.42243537 -0.46747988 5 2
-0.013264786 -0.36941198 -0.43949908 7 1
-0.068264671 -0.34238887 -0.4422068 6 0
-0.027988235 -0.5172376 0.12890369 96 31
-0.092483953 -0.5063557 0.11103964 95 30
-0.028439589 -0.5176993 0.093298309 96 29
-0.091299839 -0.5008952 0.074178211 90 28
-0.029010111 -0.52048063 0.059376426 95 27
-0.092427768 -0.50686753 0.045910265 90 26
-0.029566154 -0.52787852 0.034357082 90 25
-0.093198128 -0.51095867 0.02259296 92 24
-0.029282864 -0.51894391 0.011257235 88 23
-0.090627372 -0.49671546 0 89 22
-0.030243609 -0.53390938 -0.011605397 88 21
-0.093376473 -0.51092613 -0.02259296 90 20
-0.029416664 -0.51790708 -0.033494111 91 19
-0.093376681 -0.50948596 -0.043366667 91 18
-0.030352345 -0.5357638 -0.057430334 89 17
-0.093054682 -0.50682831 -0.066744447 91 16
-0.029583622 -0.5241707 -0.085449189 95 15
-0.094673939 -0.51173806 -0.13894267 96 13
-0.029997081 -0.53361934 -0.11441568 97 14
-0.093634419 -0.50353515 -0.16507845 97 12
-0.028580364 -0.52777344 -0.19965033 96 11
-0.095137373 -0.50290841 -0.25326493 98 9
-0.028052596 -0.52743518 -0.2317054 97 10
-0.097231075 -0.50923687 -0.29226339 97 8
-0.025884954 -0.52699536 -0.33349419 95 7
-0.098684147 -0.50872445 -0.36805359 98 6
-0.023987945 -0.52660429 -0.41674998 96 5
-0.0998739 -0.50396788 -0.45779315 101 4
-0.020661019 -0.49563521 -0.48942721 13 3
-0.084726803 -0.4205597 -0.46557182 5 2
-0.014461664 -0.36633492 -0.43552172 7 1
-0.069459409 -0.34214848 -0.4422068 6 0
-0.029920818 -0.51954889 0.12954821 97 31
-0.09379451 -0.50363725 0.11047598 95 30
-0.030377988 -0.52004802 0.093771905 96 29
-0.09258575 -0.49814707 0.073791869 92 28
-0.030286487 -0.51046461 0.058164664 95 27
-0.093178004 -0.50166857 0.045434512 89 26
-0.031545222 -0.53026229 0.034530606 90 25
-0.09451405 -0.50817704 0.022476502 90 24
-0.031369686 -0.52382958 0.011373288 92 23
-0.09189266 -0.49394026 0 87 22
-0.032152161 -0.53630161 -0.011663424 89 21
-0.096095264 -0.51550317 -0.022825878 89 20
-0.031501021 -0.52278155 -0.033839412 91 19
-0.094598264 -0.50672781 -0.043143127 91 18
-0.03194676 -0.53069472 -0.056861717 91 17
-0.096131951 -0.51381302 -0.067776576 90 16
-0.031277373 -0.52160507 -0.08501979 96 15
-0.095092475 -0.50432473 -0.13687916 97 13
-0.031766459 -0.53351694 -0.11441568 98 14
-0.096742742 -0.51016325 -0.1675301 98 12
-0.030573769 -0.53230464 -0.20152499 96 11
-0.096804559 -0.50259018 -0.25326493 98 9
-0.030010369 -0.52959383 -0.23276827 97 10
-0.098919235 -0.50891167 -0.29226339 98 8
-0.027822245 -0.52896988 -0.33489543 95 7
-0.099975772 -0.50644505 -0.36653897 98 6
-0.02556897 -0.52270925 -0.41351935 96 5
-0.10227749 -0.50717306 -0.46124819 100 4
-0.022437321 -0.49899045 -0.49306607 13 3
-0.086790435 -0.42343691 -0.46938798 5 2
-0.015830256 -0.37082726 -0.44148776 7 1
-0.070898451 -0.34333205 -0.44424465 6 0
-0.03164354 -0.51944685 0.12954821 97 31
-0.095928438 -0.50571448 0.11103964 91 30
-0.032102361 -0.51994443 0.093771905 96 29
-0.095647231 -0.50511181 0.074950904 92 28
-0.031979084 -0.51036137 0.058164664 95 27
-0.094928585 -0.50134027 0.045434512 88 26
-0.033303462 -0.53015476 0.034530606 90 25
-0.098099589 -0.51766741 0.022942336 94 24
-0.032668449 -0.5162375 0.011199208 90 23
-0.094006278 -0.49608707 0 88 22
-0.033730168 -0.53119612 -0.01154737 89 21
-0.095899902 -0.50537574 -0.022360044 93 20
-0.033087842 -0.52018452 -0.033666763 92 19
-0.096366487 -0.50639457 -0.043143127 91 18
-0.033998445 -0.53554481 -0.057430334 89 17
-0.097450741 -0.51104391 -0.067432538 90 16
-0.032575157 -0.51412261 -0.083731614 95 15
-0.097691454 -0.50872338 -0.13825484 96 13
-0.033486612 -0.53097004 -0.11385756 98 14
-0.097059682 -0.50288618 -0.16507845 97 12
-0.031912562 -0.52293867 -0.19777569 97 11
-0.098558336 -0.50224918 -0.25326493 98 9
-0.0317664 -0.52949136 -0.23276827 97 10
-0.099844143 -0.50436962 -0.28967699 96 8
-0.02957622 -0.5288747 -0.33489543 95 7
-0.10214461 -0.5080409 -0.36805359 99 6
-0.027661063 -0.52833486 -0.41836527 96 5
-0.1036746 -0.5050447 -0.45952067 100 4
-0.023961797 -0.49377 -0.48760772 13 3
-0.087587476 -0.41997325 -0.46557182 5 2
-0.017124586 -0.37076974 -0.44148776 7 1
-0.071476966 -0.34025306 -0.44016898 6 0
-0.033259004 -0.51450497 0.12825917 97 31
-0.097308248 -0.50297022 0.11047598 90 30
-0.033710688 -0.51492286 0.092824712 96 29
-0.095582291 -0.49506545 0.073405527 91 28
-0.034154158 -0.51519454 0.058770545 96 27
-0.098695576 -0.5107547 0.046386018 90 26
-0.035092361 -0.52753997 0.034357082 95 25
-0.099027872 -0.51240462 0.022709418 92 24
-0.034715526 -0.51860881 0.011257235 87 23
-0.096309058 -0.49819165 0 88 22
-0.035520807 -0.52857447 -0.011489342 90 21
-0.098721668 -0.5099203 -0.02259296 89 20
-0.034994192 -0.52005976 -0.033666763 92 19
-0.098706797 -0.50848025 -0.043366667 88 18
-0.036116179 -0.53789556 -0.057714641 90 17
-0.099806234 -0.51311195 -0.067776576 94 16
-0.034765143 -0.51891595 -0.084590398 96 15
-0.099555358 -0.50836188 -0.13825484 95 13
-0.035432488 -0.53084373 -0.11385756 98 14
-0.099368788 -0.50484318 -0.16589567 96 12
-0.034243785 -0.52975875 -0.20058766 96 11
-0.10084172 -0.50404763 -0.25443748 98 9
-0.033574246 -0.52711254 -0.2317054 97 10
-0.10212522 -0.50609553 -0.29097021 98 8
-0.031514443 -0.52876276 -0.33489543 95 7
-0.10400598 -0.50766313 -0.36805359 97 6
-0.029501118 -0.52632421 -0.41674998 96 5
-0.10590409 -0.50642824 -0.46124819 100 4
-0.026007418 -0.49881715 -0.49306607 12 3
-0.08912617 -0.41964939 -0.46557182 5 2
-0.01860765 -0.37373185 -0.44546515 7 1
-0.073668368 -0.34422946 -0.44628248 6 0
-0.035664804 -0.52402842 0.13083725 97 31
-0.099544778 -0.50501508 0.11103964 93 30
-0.035507903 -0.51480204 0.092824712 97 29
-0.098284535 -0.49957162 0.074178211 90 28
-0.035630301 -0.51011944 0.058164664 95 27
-0.099004693 -0.50308794 0.045672391 90 26
-0.036933605 -0.52741426 0.034357082 91 25
-0.099337637 -0.50471127 0.022360044 89 24
-0.036689501 -0.52097839 0.011315262 90 23
-0.097060055 -0.49295092 0 87 22
-0.03720089 -0.52595335 -0.011431315 90 21
-0.10148823 -0.51446861 -0.022825878 90 20
-0.036316067 -0.51246864 -0.033148814 92 19
-0.099987678 -0.50569201 -0.043143127 87 18
-0.037338585 -0.52785271 -0.056577411 91 17
-0.10159672 -0.5127604 -0.067776576 90 16
-0.03657629 -0.51879144 -0.084590398 96 15
-0.10036844 -0.50330132 -0.13687916 95 13
-0.037285261 -0.53071684 -0.11385756 98 14
-0.099706389 -0.4975498 -0.16344401 96 12
-0.036092781 -0.52963597 -0.20058766 96 11
-0.10214981 -0.50153112 -0.25326493 98 9
-0.035554513 -0.5292505 -0.23276827 98 10
-0.10168895 -0.49526739 -0.2845042 98 8
-0.033479519 -0.53071648 -0.33629668 95 7
-0.106193 -0.50924206 -0.36956823 100 6
-0.031029591 -0.52050215 -0.41190404 96 5
-0.10767122 -0.50605547 -0.46124819 100 4
-0.027748454 -0.49872333 -0.49306607 12 3
-0.090590477 -0.41933572 -0.46557182 4 2
-0.020046908 -0.37669158 -0.44944251 7 1
-0.074229777 -0.34114531 -0.4422068 6 0
-0.037332863 -0.52149063 0.13019273 97 31
-0.101307 -0.50466454 0.11103964 92 30
-0.037470356 -0.51712406 0.093298309 97 29
-0.10052357 -0.50164515 0.074564554 92 28
-0.037750036 -0.51494354 0.058770545 96 27
-0.10117158 -0.5051949 0.045910265 88 26
-0.038945764 -0.52977014 0.034530606 95 25
-0.10260268 -0.51170075 0.022709418 89 24
-0.03850783 -0.5208472 0.011315262 92 23
-0.098780185 -0.49260908 0 87 22
-0.038944811 -0.52582711 -0.011431315 90 21
-0.10227914 -0.50921863 -0.02259296 88 20
-0.038450908 -0.51731479 -0.033494111 90 19
-0.10266713 -0.51023555 -0.043590207 88 18
-0.039525695 -0.53267473 -0.057146024 90 17
-0.10279693 -0.5099954 -0.067432538 89 16
-0.038046815 -0.51374668 -0.083731614 96 15
-0.10212468 -0.50294787 -0.13687916 95 13
-0.038877532 -0.52815914 -0.11329944 98 14
-0.1028908 -0.50413716 -0.16589567 96 12
-0.03784892 -0.52951336 -0.20058766 96 11
-0.10564413 -0.50982952 -0.25795507 97 9
-0.037401728 -0.52912319 -0.23276827 97 10
-0.10422554 -0.49911195 -0.2870906 97 8
-0.035585374 -0.53472936 -0.33909914 95 7
-0.10745911 -0.5069434 -0.36805359 98 6
-0.032973811 -0.52420628 -0.41513467 96 5
-0.10856651 -0.50216711 -0.45779315 100 4
-0.029311799 -0.49691638 -0.49124664 12 3
-0.091623768 -0.41745758 -0.4636637 5 2
-0.021078689 -0.37208331 -0.44347647 7 1
-0.075685203 -0.3423087 -0.44424465 6 0
-0.038893066 -0.51895434 0.12954821 96 31
-0.10397529 -0.5090943 0.11216695 95 30
-0.039532591 -0.52189416 0.094245501 97 29
-0.10218653 -0.5013091 0.074564554 91 28
-0.03945744 -0.51481551 0.058770545 96 27
-0.10242677 -0.50240237 0.045672391 90 26
-0.040163487 -0.52217561 0.034010042 91 25
-0.10480838 -0.51380247 0.022825878 92 24
-0.040415678 -0.52320933 0.011373288 88 23
-0.10143396 -0.49717349 0 86 22
-0.041325279 -0.53316611 -0.011605397 88 21
-0.10294671 -0.50398749 -0.022360044 85 20
-0.040347528 -0.51967186 -0.033666763 91 19
-0.10342747 -0.50499964 -0.043143127 89 18
-0.041111283 -0.53006351 -0.056861717 90 17
-0.10457652 -0.50963348 -0.067432538 90 16
-0.040284947 -0.5209868 -0.08501979 96 15
-0.10478482 -0.50730979 -0.13825484 95 13
-0.040720917 -0.5280202 -0.11329944 98 14
-0.10505244 -0.50610441 -0.1667129 96 12
-0.039372887 -0.52475411 -0.19871302 97 11
-0.10602669 -0.5029825 -0.25443748 98 9
-0.03900028 -0.52673882 -0.2317054 97 10
-0.10505775 -0.49456376 -0.2845042 97 8
-0.037091188 -0.53047633 -0.33629668 95 7
-0.10794164 -0.50073874 -0.36350971 98 6
-0.034803431 -0.52408803 -0.41513467 96 5
-0.11071602 -0.50354797 -0.45952067 100 4
-0.031046182 -0.49681103 -0.49124664 12 3
-0.093080409 -0.41713521 -0.4636637 5 2
-0.02229967 -0.37049451 -0.44148776 7 1
-0.076220669 -0.33922189 -0.44016898 6 0
-0.040704317 -0.51881546 0.12954821 97 31
-0.10524574 -0.50634569 0.11160329 94 30
-0.040624723 -0.51196116 0.092351116 96 29
-0.10393581 -0.50094932 0.074564554 91 28
-0.041254245 -0.51467466 0.058770545 94 27
-0.10366372 -0.49960724 0.045434512 90 26
-0.041797675 -0.51954538 0.033836521 90 25
-0.10452951 -0.50366163 0.022360044 90 24
-0.041953057 -0.51807356 0.011257235 89 23
-0.10213095 -0.4919253 0 89 22
-0.043376561 -0.53551066 -0.011663424 88 21
-0.10635085 -0.51093495 -0.022709418 90 20
-0.042161278 -0.51952785 -0.033666763 90 19
-0.10570816 -0.50707096 -0.043366667 87 18
-0.043243475 -0.53238583 -0.057146024 90 17
-0.10635484 -0.5092653 -0.067432538 89 16
-0.041632488 -0.5134685 -0.083731614 95 15
-0.1056334 -0.50222266 -0.13687916 95 13
-0.04274822 -0.53030473 -0.11385756 97 14
-0.10491116 -0.49647844 -0.16344401 97 12
-0.041466489 -0.52691758 -0.19965033 96 11
-0.10683578 -0.4982959 -0.25209242 98 9
-0.041094765 -0.52884918 -0.23276827 98 10
-0.10918147 -0.50462031 -0.29097021 98 8
-0.038611695 -0.52414006 -0.33209297 95 7
-0.11151985 -0.50810212 -0.36956823 99 6
-0.036724076 -0.52395689 -0.41513467 96 5
-0.11256087 -0.50313878 -0.45952067 100 4
-0.033174615 -0.50182831 -0.49670491 13 3
-0.094535917 -0.41680777 -0.4636637 5 2
-0.023740701 -0.37192294 -0.44347647 7 1
-0.07913664 -0.34598535 -0.45035812 6 0
-0.042605598 -0.51866275 0.12954821 97 31
-0.10555676 -0.4988147 0.10991233 93 30
-0.043457456 -0.52404517 0.094719097 96 29
-0.10629229 -0.5029794 0.074950904 90 28
-0.042944774 -0.5120461 0.058467604 95 27
-0.10654431 -0.50408918 0.045910265 88 26
-0.04370163 -0.51938874 0.033836521 90 25
-0.1074286 -0.50815719 0.02259296 89 24
-0.043562505 -0.51543254 0.011199208 88 23
-0.10498903 -0.49643493 0 87 22
-0.044341143 -0.52289134 -0.011373288 91 21
-0.1081337 -0.51056057 -0.022709418 88 20
-0.043666858 -0.51439768 -0.033321463 91 19
-0.10756596 -0.50668013 -0.043366667 88 18
-0.044903252 -0.52975577 -0.056861717 91 17
-0.10716988 -0.50403243 -0.066744447 89 16
-0.043620374 -0.51577514 -0.084161006 95 15
-0.10789909 -0.50419891 -0.137567 96 13
-0.044498276 -0.52771527 -0.11329944 97 14
-0.10765744 -0.50072443 -0.16507845 97 12
-0.04330552 -0.52676964 -0.19965033 97 11
-0.11010414 -0.50436598 -0.25561002 98 9
-0.042940542 -0.52870256 -0.23276827 98 10
-0.11094226 -0.5042361 -0.29097021 97 8
-0.04073783 -0.52813226 -0.33489543 95 7
-0.11240742 -0.50383157 -0.36653897 99 6
-0.038682248 -0.52572918 -0.41674998 96 5
-0.11513624 -0.50626278 -0.46297571 101 4
-0.03492612 -0.50170946 -0.49670491 13 3
-0.095689438 -0.41488692 -0.4617556 5 2
-0.024861753 -0.36881307 -0.43949908 7 1
-0.078985676 -0.34007567 -0.4422068 6 0
-0.044221252 -0.51610327 0.12890369 97 31
-0.10886636 -0.50557965 0.11160329 94 30
-0.045086592 -0.52144367 0.094245501 96 29
-0.10857693 -0.50501782 0.075337246 91 28
-0.044936087 -0.51436627 0.058770545 95 27
