# .PCD v0.7 - Point Cloud Data file format
VERSION 0.7
FIELDS x y z intensity ring
SIZE 4 4 4 4 2
TYPE F F F F U
COUNT 1 1 1 1 1
WIDTH 1283
HEIGHT 1
VIEWPOINT 0 0 0 1 0 0 0
POINTS 1283
DATA ascii
-0.08287441 0.69313043 -0.075910389 5 17
0.01728775 1.7458891 -0.23773409 48 16
-0.081809349 0.68266696 -0.11378911 8 15
0.0082622571 0.82562518 -0.22629771 60 13
-0.082981385 0.69032657 -0.15125196 22 14
0.0085526938 0.78618699 -0.25987595 95 12
-0.096080713 0.78224093 -0.30463082 66 11
0.0097871684 0.7193104 -0.36348212 137 9
-0.099037953 0.80040008 -0.36243823 53 10
0.010351775 0.68524075 -0.39313304 125 8
-0.093817994 0.73491526 -0.47782153 106 7
0.009970298 0.57381099 -0.41046309 108 6
-0.067911595 0.52275765 -0.41674998 106 5
0.01169993 0.54978627 -0.49234357 47 4
-0.062710494 0.46960837 -0.46577457 6 3
0.0095911678 0.40466666 -0.43695059 6 2
-0.18220061 1.2778177 -1.6486187 1 1
nan nan nan 0 0
-0.18136455 1.4998312 0.39380074 55 31
0.021783194 1.7421503 0.39512074 44 30
-0.1794178 1.494547 0.28368369 48 29
0.021218091 1.743999 0.26735064 46 28
-0.17887619 1.5008118 0.18024987 54 27
0.021337206 1.7519552 0.16413514 44 26
-0.17834549 1.5007669 0.10272422 56 25
0.021389756 1.7554117 0.080239952 45 24
-0.17760967 1.4990137 0.034235921 55 23
0.021653524 1.7522782 0 46 22
-0.15836094 1.3427353 -0.030580221 8 21
0.021968076 1.752907 -0.080123484 47 20
-0.084466219 0.72583461 -0.048169367 4 19
0.02305736 1.7653011 -0.15535997 48 18
-0.081166215 0.6983338 -0.07647901 5 17
0.023418238 1.7482942 -0.23807815 50 16
-0.080720082 0.69271564 -0.11550669 9 15
0.01096149 0.82318997 -0.22560987 49 13
-0.079697974 0.68335354 -0.14957757 18 14
0.011159737 0.78615427 -0.25987595 88 12
-0.093067557 0.78027117 -0.3036935 72 11
0.012343054 0.7214793 -0.36465463 138 9
-0.096105464 0.79847836 -0.36137536 63 10
0.012601388 0.67878336 -0.38925347 128 8
-0.091643482 0.7372759 -0.47922277 106 7
0.011973212 0.57377267 -0.41046309 108 6
-0.06633614 0.52488315 -0.41836527 107 5
0.013779803 0.55516106 -0.49752614 40 4
-0.060838778 0.46812564 -0.46395513 6 3
0.01100366 0.40463072 -0.43695059 6 2
-0.17582737 1.2649459 -1.6307205 1 1
nan nan nan 0 0
-0.17612806 1.5004551 0.39380074 56 31
0.027948465 1.7469343 0.39624804 43 30
-0.17506406 1.5024776 0.28510448 50 29
0.027389282 1.7488537 0.26812333 46 28
-0.1739254 1.5038918 0.18055281 53 27
0.027621062 1.7618233 0.16508666 45 26
-0.17397478 1.5088115 0.10324477 56 25
0.027559431 1.7578232 0.080356404 46 24
-0.17324434 1.507072 0.03441 55 23
0.027941016 1.7621903 0 46 22
-0.16406131 1.432654 -0.03266919 7 21
0.028216176 1.7603106 -0.080472864 46 20
-0.082795933 0.73355705 -0.048687316 4 19
0.029307924 1.770189 -0.15580705 48 18
-0.07872808 0.69861293 -0.07647901 4 17
0.029610673 1.7531534 -0.23876624 49 16
-0.076875515 0.68076169 -0.11335972 8 15
0.013553014 0.80872846 -0.22148287 39 13
-0.078442656 0.69330955 -0.15181008 13 14
0.013660584 0.7742998 -0.25578988 85 12
-0.090891369 0.78519398 -0.30556813 83 11
0.014597462 0.7103951 -0.35879204 134 9
-0.091698349 0.78532904 -0.35499814 61 10
0.014970707 0.6787352 -0.38925347 131 8
-0.088557541 0.73348224 -0.47642028 108 7
0.014205056 0.58167982 -0.41652158 109 6
-0.064503551 0.5251115 -0.41836527 108 5
0.015537845 0.54969114 -0.49234357 40 4
-0.058525842 0.46323648 -0.45849684 6 3
0.012294255 0.40136155 -0.43313444 6 2
-0.17493281 1.2910644 -1.6645281 1 1
nan nan nan 0 0
-0.17199828 1.5106591 0.39637884 54 31
0.034197982 1.7541314 0.39793903 42 30
-0.17009796 1.5055184 0.28557807 50 29
0.033645052 1.7561556 0.26928237 46 28
-0.16895525 1.5069554 0.18085575 53 27
0.03382162 1.7642041 0.16532454 44 26
-0.16926904 1.5143658 0.10359181 55 25
0.033848185 1.7652066 0.080705784 46 24
-0.16828015 1.512664 0.034526054 55 23
0.034297973 1.7720801 0 45 22
-0.15905941 1.433218 -0.03266919 7 21
0.034772445 1.7651887 -0.080705784 46 20
-0.078279704 0.71649325 -0.047478769 4 19
0.035645906 1.7775444 -0.15647767 48 18
-0.076444738 0.70136499 -0.076763317 5 17
0.035944484 1.762942 -0.24014241 50 16
-0.074103639 0.67859161 -0.11293033 8 15
0.01668442 0.81588191 -0.22354637 32 13
-0.075473711 0.6887362 -0.15069383 12 14
0.016211879 0.76243466 -0.25170377 84 12
-0.088809617 0.79242897 -0.30838013 95 11
0.017319094 0.71916842 -0.36348212 129 9
-0.089604311 0.79240274 -0.35818675 65 10
0.017458295 0.67867577 -0.38925347 130 8
-0.085620224 0.73174649 -0.47501907 111 7
0.016530592 0.58758754 -0.42106545 110 6
-0.062814653 0.52723783 -0.41998059 109 5
0.017885132 0.55865997 -0.50098121 39 4
-0.05748741 0.46854898 -0.46395513 6 3
0.01376171 0.40293011 -0.4350425 6 2
nan nan nan 0 1
nan nan nan 0 0
-0.16726552 1.5184808 0.39831239 53 31
0.040864997 1.7637339 0.40019363 41 30
-0.16566141 1.5158907 0.28747246 49 29
0.040319402 1.7658974 0.27082774 44 28
-0.16424522 1.5149647 0.18176457 52 27
0.040407393 1.7690442 0.16580029 44 26
-0.16426137 1.5199342 0.10393886 55 25
0.040498201 1.7725605 0.081055157 45 24
-0.16299893 1.513242 0.034526054 54 23
0.040974673 1.7794402 0 45 22
-0.15678407 1.461122 -0.033307489 8 21
0.041055918 1.7700496 -0.080938697 46 20
-0.076463759 0.72421336 -0.047996718 5 19
0.042409245 1.7873585 -0.15737183 47 18
-0.074803382 0.70903504 -0.077616245 4 17
0.042531066 1.7677492 -0.2408305 49 16
-0.072002158 0.68129438 -0.11335972 7 15
0.019339757 0.80861074 -0.22148287 27 13
-0.07427536 0.70112032 -0.15348446 13 14
0.019069845 0.76945871 -0.25415543 83 12
-0.08527036 0.78582436 -0.30556813 98 11
0.019749111 0.71247935 -0.35996455 121 9
-0.085568748 0.78146803 -0.35287243 71 10
0.019897399 0.68074906 -0.39054665 131 8
-0.083306625 0.73409712 -0.47642028 114 7
0.018796042 0.59348923 -0.42560932 111 6
-0.061203431 0.52934808 -0.4215959 108 5
0.020053627 0.5640111 -0.50616378 39 4
-0.055637516 0.46704569 -0.4621357 6 3
0.015455721 0.40771803 -0.44076675 6 2
nan nan nan 0 1
nan nan nan 0 0
-0.16248408 1.5238583 0.39960143 53 31
0.047225352 1.7708845 0.40188456 42 30
-0.16063108 1.5189005 0.28794605 49 29
0.046755701 1.7756221 0.27237311 45 28
-0.15948169 1.5204641 0.18237045 52 27
0.046478089 1.7763637 0.16651392 46 26
-0.15974467 1.5279385 0.10445942 54 25
0.046960771 1.7823936 0.081520997 45 24
-0.15824172 1.5187727 0.034642108 52 23
0.047255199 1.7817854 0 46 22
-0.1553511 1.4939454 -0.034061838 9 21
0.047513206 1.7798808 -0.08140453 47 20
-0.07288906 0.71455467 -0.04730612 5 19
0.048547287 1.794675 -0.15804245 47 18
-0.071806952 0.70435166 -0.077047631 5 17
0.048605498 1.7750241 -0.24186261 49 16
-0.070919305 0.69378757 -0.11550669 6 15
0.022234779 0.81094068 -0.22217071 23 13
-0.072207212 0.70378602 -0.15404259 14 14
0.022198446 0.78355652 -0.25905874 80 12
-0.082414098 0.78379864 -0.30463082 100 11
0.022263473 0.71682334 -0.36230958 114 9
-0.082594447 0.77951258 -0.35180956 72 10
0.022309296 0.68495566 -0.39313304 134 8
-0.080275603 0.73026925 -0.47361782 115 7
0.020842105 0.59541106 -0.42712393 111 6
-0.059001159 0.52575821 -0.41836527 108 5
0.022396795 0.57477391 -0.5165289 37 4
-0.054921858 0.47403497 -0.46941343 7 3
0.017196583 0.41573173 -0.45030713 5 2
nan nan nan 0 1
nan nan nan 0 0
-0.15793404 1.5291934 0.40089044 53 31
0.053401876 1.7804561 0.40413919 41 30
-0.15660946 1.529191 0.28984043 47 29
0.053025074 1.7878013 0.27430484 43 28
-0.15469342 1.523453 0.18267339 52 27
0.052909076 1.7836531 0.16722755 44 26
-0.15518709 1.5334216 0.10480646 53 25
0.053179678 1.7922125 0.08198683 44 24
-0.15371391 1.5242618 0.034758162 53 23
0.053318858 1.7866164 0 45 22
-0.15140471 1.5069106 -0.034351975 9 21
0.053649262 1.7872016 -0.08175391 45 20
-0.072292469 0.73216045 -0.048514668 6 19
0.054811575 1.7944946 -0.15804245 48 18
-0.069975436 0.70952779 -0.077616245 4 17
0.055119224 1.7847431 -0.24323879 48 16
-0.068869248 0.69646895 -0.11593609 9 15
0.025004357 0.81326467 -0.22285853 24 13
-0.070496507 0.71130633 -0.15571696 15 14
0.024715059 0.78111732 -0.25824153 81 12
-0.079435773 0.78177655 -0.3036935 102 11
0.024514705 0.71012199 -0.35879204 112 9
-0.079293557 0.77303159 -0.34862095 71 10
0.024445871 0.67846 -0.38925347 130 8
-0.077853508 0.73053139 -0.47361782 112 7
0.023005372 0.59732187 -0.42863855 111 6
-0.057598885 0.52975243 -0.4215959 108 5
0.024913758 0.58552289 -0.52689403 34 4
-0.053671658 0.47762886 -0.47305229 7 3
0.018647652 0.41566914 -0.45030713 5 2
nan nan nan 0 1
nan nan nan 0 0
-0.15356991 1.5393479 0.40346852 52 31
0.059785657 1.7851272 0.40526652 42 30
-0.15176164 1.5346131 0.29078761 47 29
0.059435155 1.7925423 0.27507755 43 28
-0.15060481 1.5363303 0.1841881 50 27
0.059391513 1.7909191 0.16794118 43 26
-0.15007991 1.5364356 0.10497998 53 25
0.059692882 1.7995032 0.082336202 44 24
-0.14910868 1.5347638 0.03499027 52 23
0.059727743 1.7914165 0 46 22
-0.14540809 1.4999681 -0.034177892 9 21
0.060547937 1.7969762 -0.082219742 46 20
-0.068512939 0.71999836 -0.047651418 4 19
0.061250728 1.7992692 -0.15848951 47 18
-0.066644698 0.70236397 -0.076763317 4 17
0.061701395 1.7944386 -0.24461496 48 16
-0.066316098 0.69671667 -0.11593609 9 15
0.027984953 0.81316757 -0.22285853 30 13
-0.067772821 0.70912302 -0.15515883 19 14
0.027668118 0.78338242 -0.25905874 80 12
-0.076803297 0.78436828 -0.30463082 101 11
0.027175954 0.71444428 -0.36113706 112 9
-0.076229483 0.77106595 -0.34755808 71 10
0.026932387 0.67836589 -0.38925347 130 8
-0.075395107 0.73287058 -0.47501907 107 7
0.025194511 0.59723353 -0.42863855 112 6
-0.05502772 0.52427042 -0.41674998 107 5
nan nan nan 0 4
-0.051528357 0.47441584 -0.46941343 7 3
0.019742323 0.40915012 -0.44267482 5 2
-0.15305161 1.3014681 -1.6744716 1 1
nan nan nan 0 0
-0.14816175 1.5423046 0.40411305 52 31
0.066889063 1.799499 0.40864843 41 30
-0.14684565 1.5424891 0.2922084 47 29
0.066286616 1.7997168 0.27623656 43 28
-0.14497289 1.536872 0.1841881 50 27
0.06642849 1.8031236 0.16913056 45 26
-0.14539678 1.546906 0.10567406 52 25
0.066572979 1.806759 0.082685582 44 24
-0.1439874 1.5377631 0.035048299 52 23
0.06667535 1.8011782 0 45 22
-0.14132591 1.5154198 -0.034526054 10 21
0.067011915 1.8017447 -0.082452662 45 20
-0.066344708 0.72521043 -0.047996718 5 19
0.068329416 1.8114731 -0.15960722 47 18
-0.06442719 0.70506495 -0.077047631 4 17
0.068569571 1.8016231 -0.2456471 47 16
-0.064584166 0.70429915 -0.11722426 8 15
nan nan nan 0 13
-0.064710394 0.70451492 -0.15404259 21 14
0.030895093 0.79508412 -0.26314485 77 12
-0.074064873 0.78463161 -0.30463082 99 11
0.029595556 0.70992839 -0.35879204 110 9
-0.073315106 0.76907539 -0.34649521 71 10
0.029200122 0.67613059 -0.38796026 129 8
-0.071986601 0.72489148 -0.46941411 103 7
0.02717985 0.59515542 -0.42712393 113 6
-0.053400435 0.52635658 -0.41836527 106 5
nan nan nan 0 4
-0.050252475 0.47800073 -0.47305229 7 3
0.021241801 0.40907502 -0.44267482 5 2
-0.14833225 1.3004897 -1.672483 1 1
nan nan nan 0 0
-0.14345664 1.5500268 0.4060466 51 31
0.073578052 1.8089885 0.41090304 41 30
-0.14191651 1.5478806 0.29315561 46 29
0.072876111 1.8068782 0.27739561 42 28
-0.14074913 1.549724 0.1857028 51 27
0.073135547 1.8128268 0.17008208 43 26
-0.14022481 1.5498875 0.10584758 52 25
0.073294155 1.8164961 0.083151415 43 24
-0.13930349 1.5457228 0.035222378 52 23
0.073587738 1.8159214 0 45 22
-0.13717221 1.5283488 -0.034816191 12 21
0.073614493 1.808985 -0.082802035 45 20
-0.062224496 0.70805174 -0.046788171 4 19
0.075074509 1.8211746 -0.16050138 46 18
-0.061513714 0.7003386 -0.07647901 4 17
0.075175546 1.8087947 -0.24667923 46 16
-0.062125307 0.70452029 -0.11722426 7 15
nan nan nan 0 13
-0.06269674 0.70958984 -0.15515883 15 14
0.033670265 0.79497147 -0.26314485 73 12
-0.071325541 0.78488535 -0.30463082 94 11
0.031966403 0.70761544 -0.35761949 106 9
-0.070415571 0.76707411 -0.34543234 73 10
0.031560082 0.67602456 -0.38796026 129 8
-0.069661088 0.72719848 -0.47081536 102 7
0.02904482 0.59108472 -0.42409468 116 6
-0.051562779 0.52653974 -0.41836527 107 5
nan nan nan 0 4
-0.048767913 0.47987786 -0.47487172 7 3
nan nan nan 0 2
-0.14430235 1.3055156 -1.6784489 1 1
nan nan nan 0 0
-0.13848132 1.5553294 0.40733564 52 31
0.080223612 1.8160199 0.41259399 40 30
-0.13673204 1.5508113 0.2936292 46 29
0.079627581 1.8164825 0.27894098 42 28
-0.13599792 1.5576214 0.18661162 49 27
0.079481475 1.8200326 0.17079571 44 26
-0.1359137 1.562789 0.10671519 53 25
0.080084115 1.8262082 0.083617248 43 24
-0.1343462 1.5511791 0.035338432 52 23
0.080151983 1.8206484 0 43 22
-0.13276066 1.5362643 -0.03499027 18 21
0.080608293 1.8236855 -0.083500788 44 20
-0.060189024 0.71323353 -0.047133468 4 19
0.081454799 1.8283778 -0.161172 46 18
-0.058851358 0.69807476 -0.076194696 4 17
0.081857644 1.8233771 -0.24874349 46 16
-0.059665695 0.70473284 -0.11722426 7 15
nan nan nan 0 13
-0.060343318 0.70979387 -0.15515883 10 14
0.036905043 0.80428851 -0.26641375 72 12
-0.068722375 0.78511763 -0.30463082 72 11
0.034198362 0.70530051 -0.35644698 105 9
-0.067530893 0.76506186 -0.34436947 65 10
0.0336871 0.67377967 -0.38666704 128 8
-0.067320347 0.72949815 -0.47221658 102 7
0.031230284 0.5949567 -0.42712393 118 6
-0.050006602 0.52860641 -0.41998059 107 5
nan nan nan 0 4
-0.046461817 0.47321609 -0.467594 8 3
0.026779894 0.45082861 -0.49228492 6 2
-0.14145906 1.3195405 -1.6963471 1 1
nan nan nan 0 0
-0.13353302 1.5581867 0.40798017 51 31
0.086482421 1.8206093 0.41372129 39 30
-0.13201137 1.5561476 0.29457638 47 29
0.086247653 1.828544 0.2808727 40 28
-0.13104346 1.5605364 0.18691458 49 27
0.086435437 1.832173 0.17198509 43 26
-0.13073054 1.5632311 0.10671519 51 25
0.086380973 1.8309212 0.08385016 43 24
-0.13025813 1.564068 0.035628568 51 23
0.086674049 1.8303609 0 43 22
-0.1284495 1.5491707 -0.035280406 25 21
0.086776964 1.8259023 -0.083617248 44 20
-0.056353547 0.69603294 -0.045924917 4 19
0.088449039 1.8405172 -0.16228969 46 18
-0.05716354 0.70569104 -0.077047631 5 17
0.088712685 1.8329729 -0.25011966 45 16
-0.056703705 0.69756472 -0.11593609 7 15
0.089883626 1.8064674 -0.50762218 49 13
-0.058691137 0.71971273 -0.15739132 9 14
0.039203472 0.79708332 -0.26396209 76 12
-0.0655782 0.78073502 -0.30275616 58 11
0.036660112 0.70517683 -0.35644698 105 9
-0.063400015 0.74724936 -0.33586651 57 10
0.036038823 0.67365795 -0.38666704 127 8
-0.065092117 0.73177886 -0.47361782 102 7
0.033426572 0.59682935 -0.42863855 122 6
-0.048528202 0.5325762 -0.42321122 106 5
0.044108283 0.72385687 -0.65991318 28 4
-0.045327712 0.47849283 -0.47305229 8 3
nan nan nan 0 2
-0.13589254 1.3109874 -1.6844151 1 1
nan nan nan 0 0
-0.12849653 1.5634573 0.40926921 51 31
0.093599282 1.8348902 0.4171032 39 30
-0.12718713 1.5639377 0.29599717 45 29
0.09301386 1.8356316 0.28203174 40 28
-0.12620409 1.568404 0.18782339 48 27
0.093217216 1.839316 0.17269872 43 26
-0.12567915 1.5686493 0.10706223 52 25
0.093418516 1.8430783 0.08443246 42 24
-0.12472685 1.5670261 0.035686597 51 23
0.093582548 1.8400338 0 42 22
-0.12344461 1.554592 -0.03539646 31 21
0.094122134 1.8380414 -0.08419954 45 20
-0.054527562 0.7036832 -0.04644287 4 19
0.095266663 1.8476568 -0.16296032 45 18
-0.05417655 0.70094442 -0.07647901 4 17
0.095373049 1.8375975 -0.25080776 46 16
-0.053748157 0.69285834 -0.11507729 8 15
0.097685188 1.8277253 -0.51381272 50 13
-0.055782549 0.71505553 -0.15627508 10 14
0.042387616 0.80165231 -0.26559651 76 12
-0.06290935 0.78327966 -0.3036935 51 11
0.038732037 0.69843215 -0.35292941 102 9
-0.060088016 0.74071252 -0.3326779 57 10
0.038507663 0.6735214 -0.38666704 123 8
-0.062225893 0.72995037 -0.47221658 99 7
0.035740796 0.59868777 -0.43015319 122 6
-0.046399307 0.53085065 -0.4215959 107 5
0.047130734 0.72909904 -0.66509575 29 4
-0.043407228 0.47694933 -0.47123286 8 3
0.033559099 0.50057334 -0.55143541 6 2
-0.13108663 1.3114766 -1.6844151 1 1
nan nan nan 0 0
-0.12295818 1.5663254 0.40991369 50 31
0.10073175 1.8418304 0.41879416 39 30
-0.12164804 1.5668405 0.29647076 48 29
0.10028923 1.8451431 0.28357711 40 28
-0.1206486 1.5713301 0.18812634 48 27
0.10051024 1.8489013 0.17365023 41 26
-0.12051073 1.5765586 0.10758279 50 25
0.10086577 1.8551906 0.085014746 41 24
-0.11964312 1.5724356 0.035802651 50 23
0.10088245 1.8496629 0 43 22
-0.11832376 1.5625097 -0.03557054 33 21
0.10123453 1.8501685 -0.084781833 45 20
-0.053485729 0.72377121 -0.04782407 4 19
0.1025992 1.8572395 -0.16385446 45 18
-0.052686553 0.71351117 -0.077900551 4 17
0.10280944 1.8495967 -0.25252795 45 16
-0.052854601 0.71268541 -0.11851244 8 15
0.10490222 1.8417698 -0.51793975 50 13
-0.05391768 0.72497338 -0.15850759 10 14
0.045185648 0.80149943 -0.26559651 75 12
-0.059249483 0.77194327 -0.29900685 61 11
0.041429527 0.7004891 -0.35410193 103 9
-0.057135981 0.73640692 -0.33055216 57 10
0.040858459 0.67338282 -0.38666704 119 8
-0.059677508 0.7301631 -0.47221658 98 7
0.038365968 0.60649705 -0.43621168 121 6
-0.044546008 0.53100932 -0.4215959 107 5
0.049675476 0.72893006 -0.66509575 32 4
-0.041902557 0.47880495 -0.47305229 8 3
0.035024319 0.49561512 -0.54571122 6 2
nan nan nan 0 1
nan nan nan 0 0
-0.11804335 1.5739704 0.41184726 51 31
0.10802702 1.8560556 0.42217609 40 30
-0.11654866 1.5721508 0.29741794 45 29
0.10731187 1.8546444 0.28512248 41 28
-0.1160889 1.5841149 0.18964103 47 27
0.10722603 1.8584952 0.17460173 41 26
-0.11593308 1.5894052 0.1084504 51 25
0.10792992 1.8647991 0.085480578 41 24
-0.11433835 1.5753361 0.035860676 50 23
0.1074862 1.851795 0 43 22
-0.1136947 1.570371 -0.035744622 36 21
0.10813653 1.8572826 -0.085131206 44 20
-0.05004134 0.7115171 -0.04696082 4 19
0.10920309 1.8643456 -0.16452509 44 18
-0.050195616 0.71369076 -0.077900551 4 17
0.10983386 1.864076 -0.25459221 43 16
-0.050184451 0.71040946 -0.11808304 7 15
0.1119225 1.8509883 -0.5206911 49 13
-0.051151242 0.72028786 -0.15739132 23 14
0.048426952 0.80841088 -0.26804817 67 12
-0.057398919 0.78137898 -0.30275616 71 11
0.043461848 0.69594151 -0.3517569 103 9
-0.054565094 0.73660189 -0.33055216 71 10
0.042802442 0.66897428 -0.38408065 116 8
-0.057128407 0.73036695 -0.47221658 97 7
0.040517449 0.60835052 -0.43772629 120 6
-0.042621225 0.52925307 -0.41998059 106 5
0.051956929 0.72695929 -0.66336823 31 4
-0.040004957 0.47552618 -0.46941343 8 3
0.037181336 0.50193703 -0.55334353 6 2
nan nan nan 0 1
nan nan nan 0 0
-0.11282323 1.5743532 0.41184726 45 31
0.11448635 1.860549 0.4233034 40 30
-0.11168902 1.5774255 0.29836515 48 29
0.11407669 1.864139 0.28666788 42 28
-0.11101215 1.5869664 0.18994398 46 27
0.11448755 1.8705287 0.17579113 41 26
-0.11101581 1.5947561 0.10879744 51 25
0.11473522 1.8744006 0.085946418 41 24
-0.10964328 1.5831858 0.036034759 49 23
0.11425079 1.8614088 0 43 22
-0.10891498 1.5807308 -0.03597673 39 21
0.11523314 1.8718681 -0.085829958 42 20
-0.049259078 0.73406988 -0.048514668 5 19
0.11618185 1.871408 -0.1651957 44 18
-0.048177764 0.71880853 -0.078469172 4 17
0.11665445 1.8686237 -0.25528032 44 16
-0.048524149 0.72039878 -0.11980062 7 15
0.11868374 1.8602008 -0.52344239 49 13
-0.048464119 0.71803129 -0.1568332 34 14
0.050640196 0.80117333 -0.26559651 59 12
-0.053993702 0.77232873 -0.29900685 81 11
0.045585137 0.69138014 -0.34941185 103 9
-0.052289829 0.73903543 -0.33161503 72 10
0.045592904 0.67522329 -0.38796026 113 8
-0.054056343 0.72229636 -0.46661165 96 7
0.042051148 0.60027146 -0.4316678 117 6
-0.041401561 0.53700507 -0.42644182 106 5
0.054494176 0.72677344 -0.66336823 34 4
-0.038642488 0.47907907 -0.47305229 8 3
0.040005527 0.51468211 -0.56860816 6 2
nan nan nan 0 1
nan nan nan 0 0
-0.10783125 1.5819664 0.41378084 47 31
0.12178515 1.8722897 0.42612165 40 30
-0.10635077 1.5802548 0.29883873 47 29
0.12123267 1.8735881 0.28821328 40 28
-0.10614533 1.5972478 0.19115575 46 27
0.12150711 1.8775675 0.17650475 41 26
-0.1054484 1.595134 0.10879744 51 25
0.12193419 1.8839562 0.086412251 43 24
-0.10450941 1.5935519 0.036266863 49 23
0.12173651 1.8759661 0 41 22
-0.10406432 1.5910763 -0.036208838 42 21
0.1225896 1.8789085 -0.086179331 43 20
-0.046363216 0.7292605 -0.048169367 5 19
0.1237089 1.885898 -0.16653694 44 18
-0.045873828 0.72393686 -0.079037786 4 17
0.12383979 1.878088 -0.2566565 44 16
-0.045388617 0.71319985 -0.11851244 6 15
0.1264893 1.8741404 -0.52756941 50 13
-0.046449579 0.72549015 -0.15850759 38 14
0.054398295 0.81276697 -0.26968262 58 12
-0.05100175 0.77020937 -0.29806951 84 11
0.048319343 0.69562107 -0.3517569 103 9
-0.049261935 0.73470771 -0.32948929 66 10
0.048067413 0.67505169 -0.38796026 107 8
-0.050014753 0.70390832 -0.45400053 92 7
0.045024302 0.61002791 -0.4392409 119 6
-0.03913299 0.53334886 -0.42321122 105 5
0.056415632 0.71756387 -0.65473062 38 4
-0.036316022 0.47238308 -0.46577457 9 3
0.041522544 0.51132083 -0.56479204 6 2
nan nan nan 0 1
nan nan nan 0 0
-0.10266931 1.591992 0.41635892 46 31
0.12915631 1.8791198 0.42781261 40 30
-0.1011969 1.590432 0.30073312 45 29
0.12861322 1.8805231 0.2893723 40 28
-0.10060897 1.602579 0.19176163 46 27
0.12907885 1.8870403 0.17745627 41 26
-0.099919632 1.6004876 0.10914448 51 25
0.12953176 1.8934617 0.086878091 41 24
-0.099739611 1.6063783 0.036557 48 23
0.12948124 1.887977 0 41 22
-0.098705448 1.5989301 -0.036382917 46 21
0.12967008 1.8859429 -0.086528711 43 20
nan nan nan 0 19
0.13149521 1.897851 -0.16765465 43 18
-0.043032892 0.71913487 -0.078469172 4 17
0.13142206 1.8875016 -0.25803268 43 16
nan nan nan 0 15
0.13320361 1.8760848 -0.52825725 52 13
-0.043479942 0.72079164 -0.15739132 39 14
0.057062425 0.81021577 -0.26886541 48 12
-0.048007324 0.76575756 -0.29619488 84 11
0.050531339 0.69103622 -0.34941185 104 9
-0.04700011 0.73939061 -0.33161503 77 10
0.049755007 0.66634774 -0.38278747 103 8
-0.047409683 0.70201349 -0.45259929 84 7
0.047153421 0.60986698 -0.4392409 122 6
-0.037414417 0.53538489 -0.4248265 102 5
0.058920052 0.71736252 -0.65473062 38 4
-0.034803484 0.47421607 -0.467594 8 3
0.044560809 0.5240351 -0.58005667 5 2
nan nan nan 0 1
nan nan nan 0 0
-0.097413242 1.5971622 0.41764796 47 31
0.13642839 1.8883736 0.43006721 40 30
-0.095946923 1.5956757 0.30168033 45 29
0.1357168 1.887453 0.29053134 42 28
-0.095767468 1.6153053 0.19327632 46 27
0.13639067 1.8965063 0.17840777 41 26
-0.094633311 1.6058054 0.10949152 50 25
0.13650444 1.8979794 0.087111004 42 24
-0.094281659 1.6092117 0.036615025 49 23
0.1366187 1.8949935 0 40 22
-0.093272634 1.6017598 -0.036440946 50 21
0.13716693 1.8979316 -0.087111004 42 20
nan nan nan 0 19
0.13885379 1.9073132 -0.16854881 44 18
-0.040818717 0.72423947 -0.079037786 4 17
0.13837688 1.8919702 -0.25872076 45 16
nan nan nan 0 15
0.14011449 1.8804017 -0.52963293 51 13
-0.040963639 0.72093898 -0.15739132 39 14
0.060251955 0.81472301 -0.27049983 35 12
-0.045189325 0.76360738 -0.29525754 86 11
0.053824749 0.70186031 -0.35527447 105 9
-0.044275209 0.73729187 -0.33055216 86 10
0.052604385 0.67256719 -0.38666704 99 8
-0.044116154 0.68978089 -0.44419184 81 7
0.049450476 0.61168051 -0.44075555 122 6
-0.035682097 0.53741539 -0.42644182 101 5
0.061584711 0.71895242 -0.65645814 39 4
-0.03314795 0.47433466 -0.467594 8 3
0.045785073 0.51744348 -0.57242435 5 2
nan nan nan 0 1
nan nan nan 0 0
-0.092116326 1.5974765 0.41764796 41 31
0.14324903 1.8951963 0.4317582 40 30
-0.091227002 1.6057873 0.30357471 44 29
0.14253967 1.8943809 0.29169035 41 28
-0.090695232 1.620569 0.1938822 46 27
0.14324784 1.9034878 0.1791214 41 26
-0.089450002 1.6086001 0.10966504 51 25
0.14317818 1.9024963 0.087343924 41 24
-0.08922819 1.6145061 0.036731079 49 23
0.14423846 1.911979 0 41 22
-0.088242143 1.607051 -0.036557 52 21
0.14403342 1.9049362 -0.087460376 42 20
nan nan nan 0 19
0.14594549 1.9167726 -0.16944297 44 18
-0.038276881 0.72189099 -0.078753479 4 17
0.14522518 1.8989071 -0.25975287 43 16
-0.038461078 0.72100604 -0.11980062 4 15
0.14729643 1.8919069 -0.53307211 49 13
-0.038849857 0.72593677 -0.15850759 38 14
0.064085312 0.8286494 -0.27540314 30 12
-0.042382766 0.75912589 -0.29338288 95 11
0.055601083 0.69507694 -0.3517569 102 9
-0.041421503 0.73065853 -0.32736358 99 10
0.054834407 0.67238903 -0.38666704 97 8
-0.041561306 0.68579119 -0.44138938 81 7
0.051303536 0.60953188 -0.4392409 122 6
-0.033769328 0.53562719 -0.4248265 101 5
0.063300803 0.71154672 -0.64954805 39 4
-0.031949736 0.47957188 -0.47305229 7 3
0.048283245 0.52532738 -0.58196473 5 2
nan nan nan 0 1
nan nan nan 0 0
-0.086942777 1.6050235 0.41958147 42 31
0.15025346 1.8995404 0.4328855 40 30
-0.085755669 1.6085472 0.3040483 43 29
0.14993861 1.9037203 0.29323575 41 28
-0.08517161 1.6233537 0.19418515 46 27
0.15048626 1.9104185 0.17983504 41 26
-0.084235102 1.6163738 0.1101856 49 25
0.15081313 1.9144316 0.087926209 42 24
-0.083575219 1.6198138 0.036847133 49 23
0.15171014 1.9214318 0 41 22
-0.083028287 1.6148368 -0.036731079 54 21
0.15161523 1.9118633 -0.087809756 43 20
nan nan nan 0 19
0.15343763 1.9261791 -0.17033711 44 18
-0.035499908 0.71954608 -0.078469172 3 17
0.15285431 1.9107291 -0.26147309 44 16
-0.036079425 0.72606087 -0.1206594 5 15
0.15522061 1.903331 -0.5365113 51 13
-0.036055449 0.72120112 -0.15739132 33 14
0.066530153 0.82134581 -0.27295148 30 12
-0.039600145 0.75927609 -0.29338288 101 11
0.058409587 0.69927794 -0.35410193 102 9
-0.038871121 0.73306471 -0.32842645 107 10
0.056919567 0.6679213 -0.38408065 97 8
-0.039425578 0.69213867 -0.44559309 77 7
0.053354893 0.60735923 -0.43772629 120 6
-0.032176323 0.54145962 -0.42967245 100 5
0.066428885 0.71670622 -0.65473062 37 4
-0.029954392 0.47626495 -0.46941343 7 3
0.050440919 0.5283699 -0.58578092 5 2
nan nan nan 0 1
nan nan nan 0 0
-0.081561789 1.6149802 0.42215955 43 31
0.15864126 1.9159665 0.43683109 41 30
-0.080361374 1.6186568 0.30594268 42 29
0.15815005 1.9179261 0.2955538 40 28
-0.07934583 1.6261334 0.19448809 46 27
0.15810941 1.917294 0.18054867 40 26
-0.07868354 1.6241442 0.11070616 49 25
0.15845318 1.9213318 0.088275589 42 24
-0.078415841 1.6300807 0.037079241 48 23
0.15896028 1.9233541 0 40 22
-0.077109054 1.6151303 -0.036731079 54 21
0.15891486 1.9187878 -0.088159129 42 20
-0.075588316 1.5843811 -0.10738834 10 19
0.16112535 1.9330472 -0.17100772 44 18
-0.033232402 0.72462714 -0.079037786 4 17
0.16048451 1.917558 -0.26250523 44 16
-0.03427694 0.74094135 -0.12323576 4 15
0.16268975 1.9123561 -0.53926259 51 13
nan nan nan 0 14
nan nan nan 0 12
-0.037310999 0.76635319 -0.29619488 104 11
0.061171524 0.70125812 -0.35527447 101 9
-0.036672022 0.73997474 -0.33161503 113 10
0.059250705 0.66771853 -0.38408065 96 8
-0.036652859 0.6860711 -0.44138938 73 7
0.055663902 0.60914922 -0.4392409 119 6
-0.030402899 0.54347306 -0.43128774 100 5
0.069110051 0.71826804 -0.65645814 33 4
-0.028629936 0.48149911 -0.47487172 6 3
0.053049173 0.53460771 -0.59341323 5 2
nan nan nan 0 1
nan nan nan 0 0
-0.07615827 1.6200804 0.42344859 44 31
0.16617739 1.9251065 0.43908569 41 30
-0.07506147 1.6262832 0.30736345 42 29
0.16548713 1.9247444 0.29671285 41 28
-0.073901147 1.6313583 0.19509397 46 27
0.16588123 1.9291267 0.18173805 40 26
-0.073360972 1.631883 0.11122672 48 25
0.16580926 1.9282306 0.088624962 42 24
-0.072955556 1.6353379 0.037195295 47 23
0.1665429 1.9327496 0 42 22
-0.071927726 1.6253763 -0.036963187 53 21
0.16648233 1.9281726 -0.088624962 42 20
-0.070627369 1.5970925 -0.10825159 14 19
0.16852692 1.9399142 -0.17167835 44 18
-0.030702779 0.72473872 -0.079037786 4 17
0.16848488 1.9317858 -0.26456949 43 16
-0.031463485 0.73613608 -0.12237697 4 15
0.17022377 1.9213521 -0.54201394 48 13
nan nan nan 0 14
nan nan nan 0 12
-0.0346357 0.76647872 -0.29619488 106 11
0.063204959 0.69664389 -0.35292941 98 9
-0.033864573 0.73557818 -0.32948929 114 10
0.062398404 0.6760267 -0.38925347 90 8
-0.034369409 0.68826222 -0.44279063 60 7
0.057593733 0.60697192 -0.43772629 116 6
-0.028615804 0.54548079 -0.43290305 100 5
0.072547212 0.72701007 -0.66509575 28 4
-0.027482823 0.49015221 -0.48396885 5 3
0.054567751 0.53120738 -0.58959705 4 2
nan nan nan 0 1
nan nan nan 0 0
-0.070937589 1.6299886 0.42602667 43 31
0.17355849 1.9317915 0.44077662 40 30
-0.069817655 1.6363447 0.30925784 41 29
0.17331974 1.9364543 0.29864457 40 28
-0.068420954 1.6365647 0.19569986 46 27
0.17295028 1.9360017 0.18245168 40 26
-0.067771234 1.6346208 0.11140025 47 25
0.1741173 1.9450496 0.089440174 40 24
-0.067353129 1.6380796 0.037253324 47 23
0.17374073 1.9371361 0 41 22
-0.066855289 1.6330972 -0.037137266 52 21
0.17411724 1.9375279 -0.089090794 41 20
-0.065999828 1.6197555 -0.10980543 23 19
0.17518552 1.9418243 -0.1719019 44 18
-0.028277656 0.72732306 -0.079322092 4 17
0.17579457 1.94108 -0.26594567 43 16
-0.029522805 0.75100499 -0.12495333 4 15
0.17804584 1.932712 -0.54545313 47 13
nan nan nan 0 14
nan nan nan 0 12
-0.031674854 0.75732833 -0.29244557 109 11
0.065729074 0.69862801 -0.35410193 96 9
-0.031296719 0.73569202 -0.32948929 116 10
0.064005703 0.66942888 -0.38537386 92 8
-0.031549171 0.68010694 -0.43718567 39 7
0.059606206 0.60677761 -0.43772629 114 6
-0.026910622 0.54747802 -0.4345184 100 5
0.074765638 0.72496861 -0.66336823 22 4
-0.026463786 0.50051004 -0.4948855 5 3
0.057223678 0.53905034 -0.59913749 4 2
nan nan nan 0 1
nan nan nan 0 0
-0.065733425 1.6350415 0.42731571 40 31
0.18133633 1.9457545 0.44415855 40 30
-0.064591408 1.6414725 0.31020504 41 29
0.18089609 1.9481647 0.3005763 40 28
-0.063191853 1.6417419 0.19630574 45 27
0.18087168 1.947775 0.18364106 40 26
-0.0627454 1.6448046 0.11209433 48 25
0.18150121 1.9544069 0.089906007 41 24
-0.062215056 1.6457862 0.037427403 48 23
0.18156995 1.9514832 0 41 22
-0.061446059 1.6408129 -0.037311349 51 21
0.18171425 1.9493709 -0.089673094 42 20
-0.060919292 1.6274419 -0.11032339 28 19
0.18313865 1.9535953 -0.17301959 43 18
-0.02663878 0.74726802 -0.081596561 6 17
0.1837429 1.9527798 -0.26766589 43 16
-0.026935531 0.7486378 -0.12452394 5 15
0.18560998 1.9440727 -0.54889232 46 13
-0.031748239 0.86773467 -0.19087884 80 14
0.18674226 1.9349434 -0.66031379 44 12
-0.028934442 0.75511867 -0.29150826 112 11
0.068833284 0.70498472 -0.35761949 93 9
-0.028760176 0.73353094 -0.32842645 115 10
0.066779688 0.67345804 -0.38796026 90 8
-0.029391211 0.68227589 -0.43858692 31 7
0.060675751 0.59667647 -0.43015319 109 6
-0.025193807 0.5513798 -0.43774903 99 5
0.078287303 0.73368418 -0.67200583 19 4
nan nan nan 0 3
0.059104972 0.53884727 -0.59913749 4 2
nan nan nan 0 1
nan nan nan 0 0
-0.060210273 1.6400884 0.42860472 41 31
0.18907619 1.9548061 0.44641316 40 30
-0.059044532 1.646594 0.31115222 41 29
0.18889403 1.9598129 0.30250803 39 28
-0.057732217 1.6493921 0.19721456 45 27
0.18887734 1.9595163 0.18483046 40 26
-0.057363909 1.6549829 0.11278841 48 25
0.18953422 1.966189 0.0904883 40 24
-0.056360465 1.6509986 0.037543457 47 23
0.18911007 1.958302 0 41 22
-0.056072313 1.6510084 -0.037543457 51 21
0.18983261 1.9586333 -0.090138927 41 20
-0.055591475 1.6376147 -0.11101399 35 19
0.19117609 1.9653342 -0.17413729 43 18
nan nan nan 0 17
0.19128832 1.9595191 -0.26869801 43 16
-0.0252435 0.77826703 -0.12967665 8 15
0.19417392 1.9577281 -0.55301934 45 13
-0.028894279 0.87271082 -0.1919951 98 14
0.19597811 1.9554014 -0.66766882 45 12
-0.02607844 0.7529037 -0.29057091 113 11
0.071293719 0.70474011 -0.35761949 95 9
-0.026071457 0.73363143 -0.32842645 113 10
0.069020964 0.67108119 -0.38666704 84 8
-0.026530555 0.67410535 -0.43298197 39 7
0.063079149 0.59842718 -0.4316678 102 6
-0.022902079 0.54575056 -0.43290305 98 5
0.08097586 0.7333923 -0.67200583 19 4
nan nan nan 0 3
0.061555952 0.54344994 -0.60486168 4 2
nan nan nan 0 1
nan nan nan 0 0
-0.054615926 1.6523684 0.43182734 39 31
0.1972242 1.9637927 0.44866779 39 30
-0.053174403 1.651706 0.3120994 41 29
0.19657335 1.9640222 0.30328071 38 28
-0.051849332 1.6545532 0.19782044 45 27
0.19731122 1.9711907 0.18601984 38 26
-0.051459603 1.6601673 0.11313545 48 25
0.19799688 1.977904 0.091070592 40 24
-0.050757561 1.6561813 0.037659511 47 23
0.19754736 1.9700319 0 41 22
-0.050258823 1.6586971 -0.03771754 50 21
0.1979302 1.9703813 -0.09072122 40 20
-0.049984988 1.6502712 -0.11187725 42 19
0.20014858 1.9819599 -0.17570207 43 18
nan nan nan 0 17
0.19947858 1.9686582 -0.27007419 42 16
nan nan nan 0 15
0.20199974 1.9666013 -0.5557707 45 13
-0.026088795 0.88498914 -0.19478573 99 14
0.20477498 1.9735034 -0.67420655 43 12
-0.023450157 0.75299019 -0.29057091 111 11
0.073400848 0.70008373 -0.35527447 95 9
-0.023349347 0.72919524 -0.32630071 110 10
0.071363054 0.67083615 -0.38666704 80 8
-0.024094597 0.67212504 -0.43158075 65 7
0.063601233 0.58436906 -0.42106545 96 6
-0.020996913 0.54582715 -0.43290305 99 5
0.083746538 0.73489994 -0.67373335 19 4
nan nan nan 0 3
0.064331457 0.54963416 -0.61249405 4 2
nan nan nan 0 1
nan nan nan 0 0
-0.049072843 1.6597919 0.43376091 39 31
0.20535088 1.9752036 0.45148605 38 30
-0.047779094 1.6641496 0.3144674 39 29
0.20522912 1.9805197 0.30598512 38 28
-0.046364557 1.6646461 0.1990322 45 27
0.20514105 1.9829016 0.18720922 39 26
-0.045808721 1.6653228 0.11348249 47 25
0.2062007 1.9896193 0.091652885 39 24
-0.045119159 1.661345 0.037775565 47 23
0.2054664 1.9792756 0 40 22
-0.044971392 1.6663495 -0.037891619 51 21
0.20637311 1.9845799 -0.091419972 40 20
-0.044435687 1.6579146 -0.11239519 47 19
0.20750332 1.9887141 -0.17637268 42 18
nan nan nan 0 17
0.20756912 1.9827607 -0.27213845 42 16
nan nan nan 0 15
0.21014655 1.9778332 -0.55920988 44 13
-0.023224516 0.88750666 -0.19534385 99 14
0.21268156 1.9821721 -0.67747545 44 12
-0.021170205 0.76001328 -0.29338288 106 11
0.075722009 0.69983655 -0.35527447 93 9
-0.020876493 0.73153389 -0.32736358 109 10
0.074792683 0.68122536 -0.39313304 72 8
-0.021370767 0.66185999 -0.42457455 83 7
0.066690363 0.59403282 -0.42863855 85 6
-0.019186771 0.54589379 -0.43290305 98 5
0.086183101 0.73461813 -0.67373335 19 4
-0.025029883 0.6241529 -0.62588453 10 3
0.065549746 0.54460961 -0.6067698 4 2
nan nan nan 0 1
nan nan nan 0 0
-0.043836594 1.6696038 0.43633899 39 31
0.21321286 1.9866188 0.45430428 38 30
-0.042392254 1.6692065 0.31541458 40 29
0.21285753 1.989651 0.30753052 38 28
-0.041037716 1.6722329 0.19994102 44 27
0.21286385 1.989596 0.18792285 38 26
-0.040541977 1.6754382 0.11417657 46 25
0.213871 1.9988559 0.092118725 39 24
-0.03986267 1.6714797 0.038007673 47 23
0.2139127 1.9959818 0 40 22
-0.039403956 1.6764905 -0.038123727 50 21
0.21376091 1.9913328 -0.091769345 39 20
-0.039124317 1.6655328 -0.11291315 48 19
0.21606265 2.0028296 -0.17771392 41 18
-0.039012913 1.6613139 -0.18622212 11 17
0.21583471 1.9943317 -0.27385867 41 16
-0.039539177 1.659903 -0.28339931 27 15
0.218027 1.9890697 -0.56264895 44 13
-0.020126399 0.8875823 -0.19534385 96 14
0.22030367 1.9908481 -0.68074429 42 12
-0.018388519 0.75544906 -0.29150826 102 11
0.078922324 0.70614833 -0.35879204 91 9
-0.018450523 0.73159909 -0.32736358 110 10
0.077170148 0.68096018 -0.39313304 67 8
-0.019175841 0.66192728 -0.42457455 98 7
0.068763517 0.59379643 -0.42863855 53 6
-0.017492887 0.55167782 -0.43774903 99 5
0.089640312 0.74148583 -0.68064338 18 4
-0.023563031 0.64136714 -0.64407891 18 3
0.069933519 0.56360161 -0.62966681 4 2
nan nan nan 0 1
nan nan nan 0 0
-0.038066916 1.6721613 0.4369835 39 31
0.22204368 2.0028059 0.4582499 38 30
-0.036794994 1.6791606 0.31730896 40 29
0.22144563 2.003624 0.30984858 38 28
-0.035423756 1.6822898 0.20115279 43 27
0.22146423 2.0036807 0.18935011 38 26
-0.03485918 1.6830494 0.11469713 46 25
0.22223237 2.0105066 0.092701018 39 24
-0.034191445 1.6791048 0.038181756 46 23
0.2217121 2.0026765 0 40 22
-0.033658974 1.6816154 -0.038239781 50 21
0.2218224 2.0005016 -0.092235178 39 20
-0.033524435 1.6756331 -0.11360374 48 19
0.22416618 2.0119607 -0.17860807 40 18
-0.033533506 1.676339 -0.18792796 11 17
0.22446133 2.0083296 -0.27592292 41 16
-0.033852246 1.6649555 -0.2842581 35 15
0.22633342 2.0002365 -0.56608814 42 13
-0.016920861 0.88277447 -0.19422761 72 14
0.2280639 1.9971082 -0.68319595 42 12
-0.015638957 0.7508747 -0.2896336 99 11
0.081386767 0.7058686 -0.35879204 91 9
-0.016068432 0.73844534 -0.33055216 118 10
0.079802595 0.68281078 -0.39442626 61 8
-0.016496643 0.64957327 -0.41616717 100 7
nan nan nan 0 6
-0.015439206 0.54792148 -0.4345184 99 5
0.092457667 0.74296099 -0.6823709 14 4
-0.021193659 0.63801891 -0.64044005 24 3
0.072963014 0.57136029 -0.63920718 4 2
nan nan nan 0 1
nan nan nan 0 0
-0.032480575 1.6843591 0.44020608 39 31
0.22987199 2.0092773 0.45994085 39 30
-0.031079916 1.6866417 0.31872976 40 29
0.22985126 2.0151074 0.3117803 38 28
-0.029692877 1.6898466 0.20206162 43 27
0.22988075 2.0152571 0.19053951 38 26
-0.02912375 1.6906415 0.1152177 44 25
0.23039192 2.0196421 0.093166851 39 24
-0.028513268 1.6892097 0.038413864 46 23
0.23042026 2.0167916 0 39 22
-0.027968546 1.6917183 -0.038471889 49 21
0.23052371 2.0146 -0.09293393 39 20
-0.027809676 1.6832206 -0.11412169 48 19
0.2323361 2.0210595 -0.17950223 40 18
-0.027726432 1.6789293 -0.18821228 31 17
0.23232934 2.0149128 -0.27695507 41 16
-0.028356183 1.6823006 -0.28726384 43 15
0.23443918 2.0089819 -0.56883949 43 13
-0.014380275 0.91206604 -0.2009251 35 14
0.23614943 2.0056846 -0.68646485 42 12
-0.012873421 0.74397337 -0.28682163 96 11
0.083314329 0.70119691 -0.35644698 88 9
-0.013688131 0.74754602 -0.33480364 119 10
0.0824489 0.68465132 -0.39571944 53 8
-0.014229109 0.64962685 -0.41616717 101 7
nan nan nan 0 6
-0.013641052 0.55178648 -0.43774903 99 5
0.095758133 0.74800867 -0.68755352 20 4
-0.019025667 0.63980246 -0.64225948 31 3
nan nan nan 0 2
nan nan nan 0 1
nan nan nan 0 0
-0.026472125 1.6941273 0.44278416 39 31
0.23896518 2.0229325 0.46332279 38 30
-0.025057228 1.6965619 0.32062414 39 29
0.23869346 2.026515 0.31371203 39 28
-0.023613416 1.6973879 0.20297045 43 27
0.23844069 2.0242858 0.19149102 38 26
-0.023076775 1.7007116 0.11591178 44 25
0.23926686 2.0311832 0.093749143 39 24
-0.022321811 1.6893027 0.038413864 46 23
0.23869735 2.023381 0 39 22
-0.021803668 1.6943085 -0.038529918 50 21
0.23938446 2.02614 -0.093516223 39 20
-0.021711562 1.6882988 -0.11446699 48 19
0.2415188 2.0350282 -0.18084349 39 18
-0.021857033 1.6988881 -0.19048674 38 17
0.24118948 2.0263402 -0.27867526 41 16
-0.022334475 1.6922436 -0.28898144 48 15
0.24267092 2.0152674 -0.57090306 43 13
nan nan nan 0 14
0.24522421 2.0188761 -0.69136816 40 12
-0.010146537 0.74401557 -0.28682163 96 11
0.086159758 0.7030775 -0.35761949 77 9
-0.010866006 0.74306625 -0.3326779 116 10
0.087397784 0.7034452 -0.40735826 50 8
-0.011848012 0.64967465 -0.41616717 102 7
nan nan nan 0 6
-0.011467719 0.54611051 -0.43290305 97 5
0.098741531 0.74944353 -0.68928105 22 4
-0.016680544 0.6398679 -0.64225948 29 3
nan nan nan 0 2
nan nan nan 0 1
nan nan nan 0 0
-0.020624122 1.6990398 0.4440732 39 31
0.24721237 2.0317559 0.46557739 39 30
-0.019260067 1.7064571 0.32251853 39 29
0.24606603 2.0281212 0.31409839 39 28
-0.017747182 1.7024227 0.20357633 42 27
0.24666212 2.035835 0.19268039 38 26
-0.017254952 1.710757 0.11660586 45 25
0.24726596 2.0377717 0.094098516 39 24
-0.016536577 1.699367 0.038645972 46 23
0.24758424 2.0374238 0 39 22
-0.016294943 1.7043684 -0.038762026 48 21
0.24858594 2.0426428 -0.094331428 39 20
-0.015926119 1.6983399 -0.1151576 47 19
0.24978743 2.0465727 -0.18196116 39 18
-0.015980426 1.7039212 -0.19105536 45 17
0.24881825 2.0329022 -0.27970743 40 16
-0.016482327 1.6972365 -0.28984022 48 15
0.25119564 2.0263324 -0.57434219 43 13
nan nan nan 0 14
0.25374848 2.0297282 -0.6954543 40 12
-0.0076153269 0.73941028 -0.28494698 97 11
0.089906938 0.71373659 -0.36348212 77 9
-0.0083053261 0.74536222 -0.33374077 115 10
0.088895552 0.6967873 -0.40347865 52 8
-0.0095407674 0.64764202 -0.41476592 103 7
0.089226998 0.68345582 -0.49831125 34 6
-0.0097006448 0.54805315 -0.4345184 97 5
0.10221973 0.75627172 -0.69619107 21 4
-0.014605851 0.64163363 -0.64407891 35 3
nan nan nan 0 2
nan nan nan 0 1
nan nan nan 0 0
-0.015039535 1.7039298 0.44536224 39 31
0.25425339 2.0333412 0.46614102 39 30
-0.013647416 1.7114208 0.3234657 39 29
0.25433156 2.039547 0.31603009 38 28
-0.012186539 1.7123983 0.20478809 42 27
0.25500947 2.0448384 0.19363189 38 26
-0.011622699 1.7157927 0.1169529 45 25
0.2555806 2.0493298 0.094680816 39 24
-0.010999329 1.7119088 0.038936108 46 23
0.25590155 2.0489936 0 39 22
-0.01040176 1.7119126 -0.038936108 48 21
0.25598332 2.0467625 -0.094564348 39 20
-0.010350285 1.7058654 -0.11567555 48 19
0.25880742 2.0605097 -0.1833024 39 18
-0.010423134 1.7163835 -0.19247691 47 17
0.25684908 2.0393908 -0.28073955 40 16
-0.010950712 1.7095957 -0.29198715 49 15
0.25883254 2.0326405 -0.5764057 40 13
nan nan nan 0 14
0.26229876 2.0429339 -0.70035756 39 12
-0.0051535824 0.7510199 -0.2896336 99 11
0.092979528 0.71779591 -0.36582714 58 9
-0.0057565598 0.73859769 -0.33055216 116 10
0.092183925 0.70283401 -0.40735826 58 8
-0.0073280148 0.64352977 -0.41196343 104 7
0.090253904 0.67328858 -0.49073815 34 6
-0.0077502262 0.5461759 -0.43290305 96 5
0.10434975 0.75233215 -0.69273603 23 4
-0.012283458 0.63825256 -0.64044005 34 3
nan nan nan 0 2
nan nan nan 0 1
nan nan nan 0 0
-0.0091409441 1.7112181 0.44729578 39 31
0.26322919 2.0469339 0.46952295 38 30
-0.0077170599 1.7188221 0.3248865 39 29
0.26335043 2.0533442 0.31834817 39 28
-0.0062341997 1.7173935 0.20539397 40 27
0.26310349 2.0513403 0.19434553 39 26
-0.0056451475 1.7183167 0.11712643 45 25
0.26369354 2.0558548 0.095030189 39 24
-0.0047457349 1.7169363 0.039052162 45 23
0.26433682 2.0580051 0 39 22
-0.0044761719 1.724435 -0.039226241 47 21
0.26412666 2.0507634 -0.094797261 39 20
-0.0044256756 1.7133732 -0.1161935 47 19
0.26696306 2.0670011 -0.18397301 39 18
-0.0041703517 1.7263451 -0.19361414 47 17
0.26589015 2.0532138 -0.2828038 39 16
-0.0047156047 1.7170129 -0.29327536 49 15
0.26880056 2.0507402 -0.5819084 41 13
nan nan nan 0 14
0.27103302 2.0513265 -0.70362645 39 12
-0.0024009226 0.75103378 -0.2896336 100 11
0.096081577 0.72184241 -0.3681722 50 9
-0.0030320485 0.73635113 -0.32948929 116 10
nan nan nan 0 8
-0.0049194456 0.63941181 -0.40916094 105 7
nan nan nan 0 6
-0.0057180356 0.54429281 -0.43128774 96 5
0.10841239 0.76088536 -0.7013737 20 4
-0.0098740458 0.63486499 -0.63680118 29 3
nan nan nan 0 2
nan nan nan 0 1
nan nan nan 0 0
-0.0028841321 1.7160711 0.44858482 39 31
0.27201831 2.0556121 0.47177756 39 30
-0.0014339192 1.7262031 0.3263073 39 29
0.27217776 2.0621588 0.31989354 38 28
5.000853e-05 1.7248495 0.20630279 40 27
0.27193338 2.06023 0.19529705 38 26
0.00063716574 1.7332897 0.11816755 44 25
0.27287394 2.0672519 0.095612481 39 24
0.0012422855 1.7244403 0.039226241 46 23
0.27286863 2.0644565 0 39 22
0.0018424839 1.7294383 -0.039342295 48 21
0.27293494 2.0622056 -0.095379561 39 20
0.0018515683 1.7208599 -0.11671145 47 19
0.27519843 2.0709448 -0.18442011 38 18
0.0018531417 1.7338004 -0.19446707 47 17
0.27473232 2.0620422 -0.28417999 39 16
0.0012710395 1.7268704 -0.29499292 48 15
0.27789703 2.0640793 -0.58603537 40 13
nan nan nan 0 14
0.27979302 2.0620725 -0.70771259 38 12
0.00022068899 0.7510376 -0.2896336 100 11
0.09903314 0.72367191 -0.36934471 46 9
-0.00044272817 0.73183161 -0.32736358 113 10
nan nan nan 0 8
-0.0026697463 0.63735479 -0.40775973 105 7
nan nan nan 0 6
-0.0038417077 0.54621732 -0.43290305 96 5
0.1108003 0.75871503 -0.69964612 19 4
-0.0076288669 0.63318127 -0.63498175 30 3
nan nan nan 0 2
nan nan nan 0 1
nan nan nan 0 0
0.0031086216 1.7233171 0.45051837 40 31
0.28117537 2.0691288 0.47515944 38 30
0.0045976606 1.731107 0.32725447 39 29
0.28138059 2.0758798 0.32221162 38 28
0.0061072381 1.7422097 0.20842338 41 27
0.28114459 2.0740623 0.1967243 38 26
0.0067057535 1.7407587 0.11868811 44 25
0.28211668 2.0811324 0.096311226 38 24
0.0072896164 1.7344228 0.039458349 44 23
0.28108984 2.0709224 0 39 22
0.0079107471 1.7394186 -0.039574403 47 21
0.28182635 2.0736115 -0.095961854 38 20
0.0078819841 1.7283249 -0.11722939 45 19
0.28412181 2.0823054 -0.18553782 37 18
0.0079208296 1.7387509 -0.19503568 47 17
0.28429595 2.0782418 -0.28658828 39 16
0.0073195663 1.7342439 -0.2962811 49 15
0.28576353 2.067858 -0.58741111 39 13
0.0069755213 1.7114676 -0.3839902 45 14
0.28863138 2.072782 -0.71179867 37 12
0.0028431069 0.75334984 -0.29057091 100 11
0.10281526 0.73206401 -0.37403482 40 9
0.0021102638 0.73409152 -0.32842645 108 10
nan nan nan 0 8
-0.00042398809 0.63321948 -0.40495723 106 7
nan nan nan 0 6
-0.0019689978 0.55004346 -0.43613371 96 5
0.11372168 0.76010996 -0.7013737 19 4
-0.0054416475 0.63491845 -0.63680118 24 3
0.16809742 1.0831608 -1.2536093 9 2
nan nan nan 0 1
nan nan nan 0 0
0.0091333762 1.7257112 0.4511629 40 31
0.29009116 2.080194 0.47797772 38 30
0.010663459 1.7359898 0.32820165 39 29
0.29068241 2.0895612 0.32452968 38 28
0.012188648 1.7421777 0.20842338 41 27
0.29009125 2.0879066 0.19815157 37 26
0.012841294 1.7507005 0.11938219 44 25
0.29111293 2.0925004 0.096893519 38 24
0.013422355 1.7468832 0.039748482 44 23
0.29074949 2.0872588 0 39 22
0.013727243 1.7468808 -0.039748482 47 21
0.29114825 2.0874529 -0.096660607 39 20
0.014014162 1.7432508 -0.11826529 45 19
0.29310983 2.0961454 -0.18687904 38 18
0.014023101 1.7436802 -0.19560429 46 17
0.29291773 2.0895469 -0.2883085 39 16
0.013419585 1.7415962 -0.29756927 49 15
0.2960391 2.0882621 -0.59360158 38 13
0.012766602 1.7309302 -0.38845521 50 14
0.29889417 2.0928087 -0.71915364 37 12
0.005332795 0.75101864 -0.2896336 100 11
0.10845637 0.75356364 -0.38576007 38 9
0.0046600709 0.72955412 -0.32630071 101 10
0.16753636 1.141649 -0.67634404 29 8
0.0017766068 0.63942826 -0.40916094 106 7
nan nan nan 0 6
-0.00014497736 0.55004698 -0.43613371 97 5
nan nan nan 0 4
-0.0033708632 0.63836187 -0.64044005 24 3
0.17194553 1.084192 -1.2555174 10 2
nan nan nan 0 1
nan nan nan 0 0
0.014942415 1.7377486 0.45438549 40 31
0.29906958 2.0936854 0.48135966 37 30
0.016479272 1.7433089 0.32962245 40 29
0.29971611 2.103255 0.32684776 37 28
0.018098384 1.7570168 0.21024103 41 27
0.299146 2.0991983 0.19934095 38 26
0.018669823 1.7531421 0.11955571 43 25
0.29982477 2.1038833 0.097475819 37 24
0.019287126 1.7543266 0.039922561 44 23
0.29873663 2.0937066 0 38 22
0.019899502 1.7543197 -0.039922561 47 21
0.30020341 2.1013069 -0.097359352 38 20
0.019819723 1.7456886 -0.11843794 45 19
0.30184895 2.1049671 -0.1877732 36 18
0.019829985 1.7461078 -0.19588861 48 17
0.30269402 2.1056662 -0.2907168 38 16
0.019242134 1.7464674 -0.29842806 49 15
0.30435356 2.0967817 -0.59635293 38 13
0.018923432 1.7430589 -0.39124581 50 14
0.30755413 2.1034932 -0.72323972 37 12
0.007987476 0.75563061 -0.29150826 102 11
0.11371835 0.77064705 -0.39514023 35 9
0.0070655108 0.7272718 -0.32523784 97 10
0.17442313 1.1600928 -0.6879828 34 8
0.0038861767 0.63320768 -0.40495723 107 7
nan nan nan 0 6
0.0017590609 0.55767643 -0.44259495 100 5
nan nan nan 0 4
-0.0010970586 0.63151175 -0.63316232 26 3
0.17940694 1.1058985 -1.2822305 10 2
nan nan nan 0 1
nan nan nan 0 0
0.021085346 1.7449319 0.45631903 39 31
0.30779758 2.102267 0.48361427 37 30
0.022649283 1.7506044 0.33104324 40 29
0.30777508 2.1070833 0.32762042 37 28
0.024262156 1.7594243 0.21054396 41 27
0.30864531 2.1129143 0.2007682 37 26
0.024821091 1.7555599 0.11972923 43 25
0.30971152 2.1201191 0.098291025 38 24
0.025882686 1.7667397 0.040212698 43 23
0.30859357 2.1099644 0 38 22
0.026090275 1.7592379 -0.040038615 47 21
0.30936226 2.1100743 -0.097825192 37 20
0.026013743 1.7530903 -0.1189559 44 19
0.3117471 2.1211429 -0.18933798 36 18
0.026364906 1.7559576 -0.19702585 47 17
0.31149611 2.1143942 -0.29209298 38 16
0.025675798 1.748848 -0.29885745 49 15
0.31381911 2.1075368 -0.59979212 37 13
0.025070673 1.7478557 -0.39236206 49 14
0.31702623 2.1140327 -0.7273258 37 12
0.010731868 0.75327879 -0.29057091 103 11
0.11910091 0.78770286 -0.40452039 27 9
0.0097973961 0.73402917 -0.32842645 93 10
0.17900418 1.1615597 -0.68927604 28 8
0.0062181749 0.63525957 -0.40635848 108 7
nan nan nan 0 6
0.003800038 0.55575818 -0.44097963 101 5
nan nan nan 0 4
0.0012226417 0.62979698 -0.63134289 27 3
0.18219307 1.0988939 -1.2745982 10 2
nan nan nan 0 1
nan nan nan 0 0
0.027584406 1.7520887 0.45825258 39 31
0.31768599 2.1155741 0.48699614 36 30
0.029177234 1.7578731 0.33246404 40 29
0.31918079 2.1303644 0.3314839 37 28
0.030909831 1.7717298 0.21205868 41 27
0.31824383 2.1240728 0.2019576 36 26
0.03137812 1.7629383 0.12024979 44 25
0.31934288 2.1313162 0.098873317 37 24
0.032091476 1.7691376 0.040270727 43 23
0.31893882 2.126123 0 37 22
0.032580778 1.7616293 -0.040096644 47 21
0.31896657 2.1237969 -0.098523945 38 20
0.032609589 1.7629577 -0.1196465 42 19
0.32176113 2.1347566 -0.19067921 37 18
0.032664105 1.7657886 -0.19816308 46 17
0.32185057 2.1303747 -0.29450127 38 16
0.031862788 1.7536726 -0.29971623 49 15
