# .PCD v0.7 - Point Cloud Data file format
VERSION 0.7
FIELDS x y z intensity ring
SIZE 4 4 4 4 2
TYPE F F F F U
COUNT 1 1 1 1 1
WIDTH 1347
HEIGHT 1
VIEWPOINT 0 0 0 1 0 0 0
POINTS 1347
DATA ascii
-0.93338877 0.36893854 -0.39180207 3 11
nan nan nan 0 9
-0.99249476 0.39097157 -0.48466814 4 10
nan nan nan 0 8
-1.0899637 0.42378163 -0.76787746 5 7
-0.94572425 0.5399974 -0.80275065 4 6
-1.1189429 0.43019199 -0.98533911 4 5
nan nan nan 0 4
-1.1290667 0.42836621 -1.2444913 4 3
-0.96526563 0.56234503 -1.2784144 1 2
nan nan nan 0 1
nan nan nan 0 0
-1.0532396 0.42012924 0.29325587 83 31
-0.95668411 0.53649378 0.24575272 97 30
-1.0466634 0.41855484 0.21074998 87 29
-0.95053798 0.53261495 0.16496925 97 28
-1.0551015 0.42294875 0.13450579 87 27
-0.95965552 0.53776222 0.10181136 98 26
-1.0484847 0.42073092 0.076175556 84 25
-0.96722317 0.54202992 0.050077178 96 24
-1.0458815 0.42010987 0.025357792 77 23
-0.95507586 0.53541011 0 97 22
-1.0480556 0.42140228 -0.025415819 84 21
-0.95615554 0.5362379 -0.049494889 97 20
-1.0412674 0.41869646 -0.075275436 78 19
-0.96184981 0.54010242 -0.095898457 97 18
-1.0555664 0.42441645 -0.12623301 90 17
-0.9608314 0.53996259 -0.14828277 98 16
-1.0470747 0.42061892 -0.19065045 95 15
-0.96420181 0.54359138 -0.30677441 96 13
-1.0522842 0.42250496 -0.2517145 95 14
-0.95190853 0.53790867 -0.36611459 96 12
-0.92563152 0.36963269 -0.38899013 3 11
nan nan nan 0 9
-0.99112403 0.39443365 -0.48466814 4 10
nan nan nan 0 8
-1.0865488 0.42683128 -0.76647615 5 7
-0.93866932 0.54030651 -0.79820681 4 6
-1.1067529 0.42997569 -0.97564727 4 5
nan nan nan 0 4
-1.1227571 0.43047571 -1.2390331 4 3
-0.96886003 0.56899709 -1.2860466 1 2
nan nan nan 0 1
nan nan nan 0 0
-1.0518408 0.4236196 0.29325587 87 31
-0.95489973 0.53966326 0.24575272 98 30
-1.0407133 0.4201954 0.20980279 89 29
-0.95091474 0.53698301 0.16535559 97 28
-1.0513906 0.42551926 0.13420284 86 27
-0.95353788 0.53848535 0.10133561 98 26
-1.0447702 0.42327407 0.076002039 83 25
-0.96107632 0.54276955 0.049844261 97 24
-1.0468007 0.42451009 0.025415819 77 23
-0.95546931 0.53980845 0 98 22
-1.0443347 0.42394039 -0.025357792 84 21
-0.9500289 0.53693938 -0.049261972 97 20
-1.044499 0.42401326 -0.075620733 76 19
-0.9600535 0.54328907 -0.095898457 97 18
-1.0541532 0.4279145 -0.12623301 93 17
-0.95903558 0.5431459 -0.14828277 98 16
-1.0411054 0.42224759 -0.18979166 96 15
-0.95613176 0.5432111 -0.30471089 97 13
-1.0440962 0.42326063 -0.25004014 95 14
-0.95011955 0.54106236 -0.36611459 96 12
-0.91149026 0.36753368 -0.38336614 4 11
nan nan nan 0 9
-0.98350531 0.39520264 -0.48147953 4 10
nan nan nan 0 8
-1.0812749 0.42891449 -0.76367372 5 7
-0.945463 0.54842615 -0.80577987 4 6
-1.1035428 0.43295091 -0.97403187 4 5
nan nan nan 0 4
-1.1229239 0.43481153 -1.2408525 4 3
-0.97390819 0.57633752 -1.2955871 1 2
nan nan nan 0 1
nan nan nan 0 0
-1.0481162 0.42638338 0.29261136 87 31
-0.95089638 0.54178315 0.24518906 98 30
-1.0415154 0.42474756 0.2102764 89 29
-0.94903457 0.54029912 0.16535559 97 28
-1.0521981 0.43012074 0.13450579 85 27
-0.95597285 0.54428196 0.10181136 98 26
-1.0432864 0.42691842 0.076002039 85 25
-0.96351135 0.54860103 0.050077178 96 24
-1.0406085 0.42645851 0.025299765 80 23
-0.94489986 0.53817368 0 97 22
-1.0428486 0.42758325 -0.025357792 80 21
-0.95022154 0.54165888 -0.049378429 96 20
-1.0360836 0.42483324 -0.075102776 80 19
-0.95815116 0.54663694 -0.095898457 97 18
-1.0479778 0.42989993 -0.1256644 92 17
-0.95928174 0.54772234 -0.1486268 98 16
-1.0395508 0.42606062 -0.18979166 95 15
-0.95621735 0.54791105 -0.30539873 97 13
-1.0448697 0.42782104 -0.25059825 95 14
-0.94813007 0.54454112 -0.36611459 96 12
nan nan nan 0 11
nan nan nan 0 9
-0.97785312 0.39711234 -0.47935379 4 10
nan nan nan 0 8
-1.0796955 0.43287471 -0.76367372 5 7
-0.93658882 0.54785466 -0.79972136 4 6
-1.1054994 0.43839067 -0.9772625 4 5
nan nan nan 0 4
-1.1181263 0.4376826 -1.2372136 4 3
-0.97466081 0.58139557 -1.2994033 1 2
nan nan nan 0 1
nan nan nan 0 0
-1.0465463 0.43022209 0.29261136 85 31
-0.95101362 0.5464825 0.24575272 97 30
-1.0399516 0.42856205 0.2102764 89 29
-0.94276899 0.54130536 0.16458291 98 28
-1.0483189 0.43303189 0.13420284 86 27
-0.94966018 0.54529488 0.10133561 98 26
-1.0394077 0.42979136 0.075828515 83 25
-0.95933098 0.55088085 0.049960721 97 24
-1.0391135 0.43008831 0.025299765 80 23
-0.94508624 0.54288292 0 97 22
-1.0389634 0.43045101 -0.025299765 85 21
-0.94832498 0.54497248 -0.049378429 96 20
-1.0368258 0.42957741 -0.075275436 79 19
-0.94967395 0.54640663 -0.09522783 98 18
-1.0464708 0.43355545 -0.1256644 92 17
-0.95512444 0.54999459 -0.14828277 97 16
-1.0380572 0.42968673 -0.18979166 96 15
-0.95637769 0.55245203 -0.30608657 96 13
-1.0432947 0.43164778 -0.25059825 95 14
-0.94213909 0.54547113 -0.36448014 97 12
nan nan nan 0 11
nan nan nan 0 9
-0.98274797 0.40308383 -0.48254243 4 10
nan nan nan 0 8
-1.0743362 0.43509573 -0.76087123 5 7
-0.93467075 0.55112064 -0.79972136 4 6
-1.1004165 0.44083655 -0.97403187 4 5
nan nan nan 0 4
-1.1181878 0.44220939 -1.2390331 4 3
-0.97666967 0.58747208 -1.3051275 1 2
nan nan nan 0 1
nan nan nan 0 0
-1.0450382 0.43387255 0.29261136 85 31
-0.9491002 0.54979885 0.24575272 97 30
-1.0339124 0.43031317 0.2093292 89 29
-0.94087362 0.54459292 0.16458291 98 28
-1.0468007 0.43668857 0.13420284 85 27
-0.94569522 0.54719037 0.10109774 98 26
-1.0402046 0.43437302 0.076002039 84 25
-0.95092589 0.55045992 0.049611345 97 24
-1.0352978 0.43275395 0.025241738 77 23
-0.94318545 0.54617852 0 97 22
-1.0398381 0.43485323 -0.025357792 83 21
-0.94210029 0.54576707 -0.049145512 97 20
-1.0330172 0.43223634 -0.075102776 79 19
-0.94785678 0.54955292 -0.09522783 97 18
-1.0472444 0.43815935 -0.1259487 95 17
-0.95329535 0.55315894 -0.14828277 98 16
-1.0388255 0.4342525 -0.19022106 95 15
-0.9461453 0.55093211 -0.30333522 97 13
-1.0396067 0.43417096 -0.25004014 95 14
-0.94226736 0.54995167 -0.36529735 96 12
nan nan nan 0 11
nan nan nan 0 9
-0.98342752 0.40737262 -0.48360527 4 10
nan nan nan 0 8
-1.0728109 0.43884319 -0.76087123 5 7
-0.93283796 0.55421704 -0.79972136 4 6
-1.0954074 0.44306111 -0.97080129 4 5
nan nan nan 0 4
-1.1119334 0.44401982 -1.2335747 4 3
-0.97885418 0.59322953 -1.3108517 1 2
nan nan nan 0 1
nan nan nan 0 0
-1.039134 0.43547836 0.29132232 87 31
-0.94517082 0.55171096 0.24518906 98 30
-1.0347451 0.43468508 0.20980279 89 29
-0.93906254 0.54771 0.16458291 98 28
-1.0430579 0.43919948 0.13389991 86 27
-0.94377935 0.55048817 0.10109774 97 26
-1.0410588 0.43878368 0.076175556 84 25
-0.9512499 0.55487287 0.049727805 97 24
-1.036162 0.43715134 0.025299765 77 23
-0.94136912 0.54930329 0 97 22
-1.0383137 0.43848026 -0.025357792 85 21
-0.94459355 0.55141485 -0.049378429 97 20
-1.0292783 0.43469426 -0.074930124 80 19
-0.94593275 0.55285817 -0.09522783 98 18
-1.038915 0.43874583 -0.12509578 93 17
-0.95135862 0.55648321 -0.14828277 98 16
-1.0351086 0.43674257 -0.18979166 96 15
-0.95259511 0.55894899 -0.30608657 96 13
-1.0358373 0.43685529 -0.24948199 92 14
-0.94043845 0.55307329 -0.36529735 97 12
-0.25158083 0.10756946 -0.096544534 4 11
nan nan nan 0 9
-0.97371209 0.40716046 -0.47935379 4 10
nan nan nan 0 8
-1.0675186 0.44082713 -0.75806874 5 7
-0.92919385 0.55644405 -0.79820681 4 6
-1.092086 0.44616488 -0.96918601 4 5
nan nan nan 0 4
-1.1087849 0.44726121 -1.2317554 4 3
-0.97677755 0.59664279 -1.3108517 1 2
nan nan nan 0 1
nan nan nan 0 0
-1.0398341 0.44003937 0.29196683 86 31
-0.94323921 0.55500686 0.24518906 98 30
-1.0309595 0.43734074 0.2093292 89 29
-0.93927169 0.55224079 0.16496925 97 28
-1.0415186 0.44283774 0.13389991 85 27
-0.94185209 0.55377918 0.10109774 97 26
-1.0349269 0.44047165 0.075828515 82 25
-0.94930726 0.55818999 0.049727805 97 24
-1.0322514 0.43997109 0.025241738 82 23
-0.93514132 0.55004215 0 97 22
-1.0321746 0.44015124 -0.025241738 83 21
-0.94041675 0.5536021 -0.049261972 97 20
-1.0277547 0.43828449 -0.074930124 79 19
-0.94185436 0.55488855 -0.095004298 96 18
-1.0418733 0.4444901 -0.1256644 94 17
-0.94941032 0.55980062 -0.14828277 98 16
-1.0312331 0.43957275 -0.18936226 95 15
-0.942276 0.55752403 -0.30333522 97 13
-1.0320619 0.43951854 -0.24892388 95 14
-0.93637538 0.55530709 -0.36448014 97 12
-0.25118485 0.10849082 -0.096544534 4 11
nan nan nan 0 9
-0.93465412 0.39496905 -0.46022215 4 10
nan nan nan 0 8
-1.069721 0.44632208 -0.76087123 4 7
-0.92544788 0.55881387 -0.79669213 4 6
-1.0922089 0.45088825 -0.97080129 4 5
nan nan nan 0 4
-1.1071383 0.45132214 -1.2317554 4 3
-0.97056854 0.597498 -1.3051275 1 2
nan nan nan 0 1
nan nan nan 0 0
-1.0359913 0.44290304 0.29132232 87 31
-0.9391064 0.55721307 0.24462539 98 30
-1.0293496 0.44111645 0.2093292 90 29
-0.93511927 0.5544157 0.16458291 98 28
-1.037606 0.44567764 0.13359696 86 27
-0.94195408 0.55850106 0.10133561 98 26
-1.0355991 0.44524202 0.076002039 82 25
-0.94725502 0.56166559 0.049727805 97 24
-1.0330073 0.44455469 0.025299765 80 23
-0.93526673 0.55474567 0 97 22
-1.0305543 0.4439314 -0.025241738 83 21
-0.93418843 0.55432397 -0.049029056 97 20
-1.0261414 0.44204846 -0.074930124 81 19
-0.94409055 0.56088907 -0.095451377 98 18
-1.0380321 0.44714653 -0.12538008 95 17
-0.94310039 0.56073707 -0.14759469 98 16
-1.0296923 0.44316977 -0.18936226 95 15
-0.94032419 0.56080979 -0.30333522 97 13
-1.0304441 0.44329828 -0.24892388 95 14
-0.93240595 0.55735582 -0.3636629 97 12
-0.22307464 0.097584859 -0.084359303 4 11
nan nan nan 0 9
-0.94577104 0.40352538 -0.46659938 4 10
nan nan nan 0 8
-1.062427 0.4476555 -0.75666755 5 7
-0.91670531 0.55788869 -0.79063368 4 6
-1.0853395 0.45250839 -0.96595538 3 5
nan nan nan 0 4
-1.1071432 0.45583266 -1.2335747 4 3
-0.95877993 0.5950644 -1.2917709 1 2
nan nan nan 0 1
nan nan nan 0 0
-1.0299993 0.44461197 0.29003328 88 31
-0.93924356 0.56174225 0.24518906 98 30
-1.0255486 0.44373712 0.2088556 89 29
-0.93106067 0.55640519 0.16419657 98 28
-1.0337653 0.44831455 0.13329403 84 27
-0.93999881 0.5617857 0.10133561 98 26
-1.0294588 0.44687808 0.075654998 84 25
-0.9452886 0.56496876 0.049727805 97 24
-1.0291547 0.44716677 0.025241738 79 23
-0.93332464 0.55800706 0 96 22
-1.0289984 0.44752601 -0.025241738 82 21
-0.9343884 0.55886763 -0.049145512 97 20
-1.0223029 0.44463798 -0.074757479 82 19
-0.9399932 0.56289756 -0.09522783 97 18
-1.0319052 0.44879594 -0.12481146 94 17
-0.94325876 0.56530285 -0.14793873 97 16
-1.0281391 0.44676134 -0.18936226 96 15
-0.93836081 0.5640887 -0.30333522 97 13
-1.0266531 0.44592661 -0.24836574 94 14
-0.934497 0.5630542 -0.36529735 96 12
-0.23125225 0.10201796 -0.088108607 3 11
nan nan nan 0 9
-0.93811536 0.40415442 -0.46341079 4 10
nan nan nan 0 8
-1.0684863 0.45458525 -0.76227248 4 7
-0.9079805 0.55690938 -0.78457516 4 6
-1.0819927 0.45555809 -0.96434003 4 5
nan nan nan 0 4
-1.1007909 0.45773196 -1.2281165 3 3
-0.95532966 0.59754753 -1.2898629 1 2
nan nan nan 0 1
nan nan nan 0 0
-1.032874 0.45012474 0.29132232 86 31
-0.93519348 0.56375563 0.24462539 98 30
-1.0217417 0.44633663 0.20838203 90 29
-0.92911279 0.55965173 0.16419657 98 28
-1.0276432 0.44993967 0.13268815 86 27
-0.93600142 0.56361169 0.10109774 97 26
-1.0301789 0.45146486 0.075828515 86 25
-0.94117421 0.56697202 0.049611345 97 24
-1.0207144 0.44775945 0.025067655 79 23
-0.92709386 0.55867219 0 97 22
-1.0297997 0.45193526 -0.025299765 83 21
-0.93243188 0.56212586 -0.049145512 97 20
-1.0230303 0.44920141 -0.074930124 84 19
-0.93812144 0.56601161 -0.09522783 97 18
-1.034885 0.45438236 -0.12538008 95 17
-0.93926179 0.56714356 -0.14759469 98 16
-1.0198008 0.44739425 -0.1880741 95 15
-0.93638611 0.5673607 -0.30333522 97 13
-1.0251687 0.44932866 -0.24836574 95 14
-0.92849219 0.56385159 -0.3636629 97 12
-0.22453208 0.10002181 -0.085296623 4 11
nan nan nan 0 9
-0.92631227 0.40294045 -0.45809641 4 10
nan nan nan 0 8
-1.059276 0.4550617 -0.75666755 5 7
-0.89599192 0.55361992 -0.77548742 4 6
-1.0752023 0.45691806 -0.95949417 4 5
nan nan nan 0 4
-1.1008495 0.46203923 -1.2299359 3 3
-0.94379169 0.59466016 -1.2765063 1 2
nan nan nan 0 1
nan nan nan 0 0
-1.026949 0.45161259 0.29003328 88 31
-0.93331885 0.56685376 0.24462539 98 30
-1.0157592 0.44775215 0.20743483 89 29
-0.92514282 0.56144392 0.16381021 97 28
-1.0284175 0.45434281 0.13299108 85 27
-0.93190336 0.56558001 0.10085986 98 26
-1.0263932 0.45387498 0.075654998 86 25
-0.93715662 0.56878996 0.049494889 97 24
-1.019224 0.45114177 0.025067655 80 23
-0.93163902 0.56564879 0 97 22
-1.0236411 0.45351231 -0.025183709 83 21
-0.93056267 0.56521487 -0.049145512 97 20
-1.0192527 0.45158622 -0.074757479 80 19
-0.9340151 0.56798476 -0.095004298 98 18
-1.0310997 0.45681056 -0.12509578 95 17
-0.93727642 0.57041872 -0.14759469 98 16
-1.0183115 0.45077357 -0.1880741 95 15
-0.93654835 0.57171929 -0.30402309 96 13
-1.0213633 0.45192337 -0.24780764 96 14
-0.92460459 0.56569022 -0.36284572 96 12
-0.21781071 0.098020278 -0.082484648 4 11
nan nan nan 0 9
-0.90837616 0.39877722 -0.44959348 4 10
nan nan nan 0 8
-1.0539579 0.45693398 -0.75386512 5 7
-0.90079719 0.56096601 -0.78154594 4 6
-1.0736009 0.46066844 -0.95949417 4 5
nan nan nan 0 4
-1.0929085 0.46321923 -1.2226583 3 3
-0.94034868 0.59708166 -1.2745982 1 2
nan nan nan 0 1
nan nan nan 0 0
-1.0253663 0.45519453 0.29003328 87 31
-0.9313345 0.57010823 0.24462539 97 30
-1.01868 0.45328099 0.20838203 88 29
-0.92528188 0.56596303 0.16419657 98 28
-1.0245569 0.45692414 0.13268815 86 27
-0.92780322 0.5675267 0.10062198 98 26
-1.0202433 0.45543173 0.07530795 81 25
-0.93729317 0.57336527 0.049611345 97 24
-1.0221317 0.45690438 0.025183709 83 23
-0.92326963 0.56496972 0 97 22
-1.0243356 0.45809814 -0.025241738 82 21
-0.92635781 0.56731319 -0.049029056 97 20
-1.019949 0.45615453 -0.074930124 85 19
-0.93626744 0.57385254 -0.095451377 98 18
-1.027149 0.4595772 -0.12481146 95 17
-0.93106335 0.57108909 -0.1469066 97 16
-1.0189031 0.45550296 -0.18850347 95 15
-0.93035811 0.57262003 -0.30264741 96 13
-1.0175524 0.45449698 -0.2472495 95 14
-0.92453313 0.57031989 -0.3636629 97 12
-0.21532977 0.097881921 -0.081547327 4 11
nan nan nan 0 9
-0.90483749 0.40119219 -0.44853058 4 10
nan nan nan 0 8
-1.0522761 0.46079382 -0.75386512 4 7
-0.89200741 0.56001729 -0.77548742 4 6
-1.0701526 0.46384585 -0.95787883 4 5
nan nan nan 0 4
-1.0896257 0.46655113 -1.2208388 3 3
-0.93282521 0.5968641 -1.2669659 1 2
nan nan nan 0 1
nan nan nan 0 0
-1.0236912 0.45894966 0.29003328 87 31
-0.92716867 0.57223439 0.24406174 98 30
-1.0147705 0.4560104 0.20790841 88 29
-0.92110157 0.56804967 0.16381021 97 28
-1.027405 0.46270445 0.13329403 87 27
-0.92571688 0.57092339 0.10062198 98 26
-1.020843 0.460188 0.075481474 83 25
-0.93943107 0.57942712 0.049844261 97 24
-1.0136894 0.45740068 0.02500963 82 23
-0.92119271 0.56834984 0 98 22
-1.0180898 0.45980197 -0.025125684 83 21
-0.92012703 0.56791139 -0.04879614 98 20
-1.0114447 0.45682508 -0.074412182 81 19
-0.92992687 0.57465386 -0.095004298 97 18
-1.018741 0.46010777 -0.12395855 95 17
-0.935274 0.57841772 -0.14793873 97 16
-1.0173069 0.45905682 -0.18850347 95 15
-0.93039346 0.57713526 -0.30333522 96 13
-1.0158798 0.45822349 -0.2472495 95 14
-0.92454058 0.57479531 -0.36448014 97 12
-0.20863599 0.095802754 -0.078735344 4 11
nan nan nan 0 9
-0.89929587 0.40251034 -0.44640484 4 10
nan nan nan 0 8
-1.0449743 0.4619666 -0.74966139 4 7
-0.90179455 0.57060003 -0.78608984 4 6
-1.0632771 0.46529695 -0.95303291 3 5
-0.88382351 0.56441861 -0.96913946 3 4
-1.0832638 0.46832293 -1.2153805 3 3
-0.93198651 0.60115814 -1.2688739 1 2
nan nan nan 0 1
nan nan nan 0 0
-1.0220829 0.46252018 0.29003328 87 31
-0.92516553 0.57546735 0.24406174 97 30
-1.0131725 0.45954984 0.20790841 88 29
-0.92330337 0.57387775 0.16458291 98 28
-1.0235221 0.4652659 0.13299108 88 27
-0.92592961 0.57530767 0.10085986 99 26
-1.0169582 0.46272069 0.07530795 88 25
-0.93740284 0.58270282 0.049844261 97 24
-1.0143632 0.4619672 0.025067655 80 23
-0.92132348 0.57288641 0 98 22
-1.0188359 0.46420684 -0.025183709 85 21
-0.92237461 0.57376647 -0.049029056 97 20
-1.0075722 0.45932335 -0.074239522 83 19
-0.93223846 0.5803749 -0.095451377 98 18
-1.0216532 0.46571153 -0.12452716 96 17
-0.92495459 0.5762614 -0.14656255 97 16
-1.011211 0.46057341 -0.18764469 95 15
-0.92633784 0.57910115 -0.30264741 96 13
-1.0121343 0.46058539 -0.24669139 95 14
-0.92652756 0.58053631 -0.36611459 96 12
-0.21043092 0.097444504 -0.079672672 4 11
nan nan nan 0 9
-0.88343322 0.39916408 -0.43896481 4 10
nan nan nan 0 8
-1.0452482 0.46645054 -0.75106257 4 7
-0.88482547 0.56392992 -0.7724582 4 6
-1.0547384 0.46575493 -0.94657159 3 5
-0.87739515 0.56440169 -0.96395695 3 4
-1.0801315 0.47123113 -1.2135611 4 3
-0.92998785 0.60424542 -1.2688739 1 2
nan nan nan 0 1
nan nan nan 0 0
-1.0139447 0.46291232 0.28809974 89 31
-0.92531341 0.57982963 0.24462539 97 30
-1.0116431 0.46290714 0.20790841 88 29
-0.91930449 0.57562137 0.16419657 97 28
-1.0197158 0.467628 0.13268815 85 27
-0.9239158 0.57853627 0.10085986 99 26
-1.0154182 0.46609047 0.07530795 85 25
-0.9291237 0.5818193 0.049494889 97 24
-1.0105525 0.46428999 0.02500963 82 23
-0.9215346 0.57726991 0 97 22
-1.0126632 0.46568191 -0.025067655 85 21
-0.9204669 0.57682204 -0.049029056 97 20
-1.0060436 0.46266207 -0.074239522 82 19
-0.92599374 0.58097023 -0.095004298 97 18
-1.0178444 0.46806416 -0.12424285 95 17
-0.92712635 0.58212847 -0.14725064 98 16
-1.0119185 0.46494749 -0.1880741 95 15
-0.92441237 0.58216977 -0.30264741 96 13
-1.0083035 0.46310341 -0.24613325 95 14
-0.91661614 0.57854456 -0.36284572 96 12
nan nan nan 0 11
nan nan nan 0 9
-0.88210469 0.40209147 -0.43896481 4 10
nan nan nan 0 8
-1.0361358 0.46653253 -0.74545759 5 7
-0.90290248 0.57996172 -0.79063368 4 6
-1.0548511 0.47020629 -0.94818693 4 5
-0.8769334 0.56844771 -0.96568441 3 4
-1.0706255 0.47156385 -1.204464 4 3
-0.93596798 0.61281759 -1.2803224 1 2
nan nan nan 0 1
nan nan nan 0 0
-1.0145187 0.46745473 0.28874427 89 31
-0.92122716 0.58175135 0.24406174 97 30
-1.0100211 0.46643561 0.20790841 88 29
-0.91311729 0.57618207 0.16342388 98 28
-1.0158229 0.47014728 0.13238519 85 27
-0.9197889 0.5804255 0.10062198 98 26
-1.013785 0.46963215 0.07530795 86 25
-0.92708713 0.58505899 0.049494889 97 24
-1.0065744 0.46694398 0.024951601 81 23
-0.91740263 0.5791443 0 98 22
-1.013301 0.47026119 -0.025125684 85 21
-0.9204551 0.58153003 -0.049145512 97 20
-1.0066869 0.46721596 -0.074412182 81 19
-0.92185819 0.58286411 -0.094780758 97 18
-1.0183771 0.47283262 -0.12452716 95 17
-0.92090905 0.58270472 -0.14656255 97 16
-1.0057347 0.46659026 -0.18721531 96 15
-0.92227238 0.58555406 -0.30264741 96 13
-1.0133206 0.46967977 -0.24780764 96 14
-0.91847074 0.58444536 -0.36448014 96 12
nan nan nan 0 11
nan nan nan 0 9
-0.89091539 0.41002443 -0.44427913 4 10
nan nan nan 0 8
-1.043853 0.47458866 -0.75246382 5 7
-0.87576663 0.56699198 -0.7679143 4 6
-1.0461529 0.47095406 -0.94172573 3 5
-0.85974187 0.5617339 -0.9484092 3 4
-1.0657531 0.47409922 -1.2008251 3 3
-0.92978495 0.61340213 -1.2745982 1 2
nan nan nan 0 1
nan nan nan 0 0
-1.0149909 0.47218391 0.28938878 88 31
-0.91908872 0.58512396 0.24406174 97 30
-1.0060775 0.469102 0.20743483 89 29
-0.91308057 0.58085495 0.16381021 97 28
-1.0163435 0.47491294 0.13268815 85 27
-0.91555822 0.58245265 0.1003841 98 26
-1.0120568 0.47334471 0.07530795 86 25
-0.92493653 0.58845299 0.049494889 97 24
-1.0026724 0.46940008 0.024893576 83 23
-0.91316748 0.58115637 0 98 22
-1.0070397 0.47186098 -0.02500963 88 21
-0.91631573 0.58339393 -0.049029056 97 20
-1.0004466 0.46879613 -0.074066877 84 19
-0.91971576 0.58623898 -0.094780758 97 18
-1.0122176 0.47428679 -0.12395855 95 17
-0.92085212 0.58741212 -0.1469066 98 16
-1.0040998 0.47009808 -0.18721531 96 15
-0.92224467 0.59006935 -0.30333522 96 13
-1.0049639 0.47030675 -0.24613325 95 14
-0.91046649 0.58380926 -0.36202848 96 12
nan nan nan 0 11
nan nan nan 0 9
-0.88947868 0.4131318 -0.44427913 4 10
nan nan nan 0 8
-1.0308871 0.47307605 -0.7440564 4 7
-0.86546648 0.56459153 -0.76034123 4 6
-1.0445026 0.47460291 -0.94172573 4 5
-0.84722859 0.5577479 -0.93631661 3 4
-1.0578279 0.47502378 -1.1935474 3 3
-0.92618775 0.61590797 -1.2726902 1 2
nan nan nan 0 1
nan nan nan 0 0
-1.0089589 0.47368082 0.28809974 89 31
-0.92113531 0.59096748 0.24518906 97 30
-1.004434 0.47261101 0.20743483 89 29
-0.90897089 0.58270133 0.16342388 98 28
-1.0101857 0.47635078 0.13208227 88 27
-0.91362172 0.58548558 0.1003841 98 26
-1.005883 0.47475553 0.07496091 88 25
-0.9207772 0.59032589 0.049378429 97 24
-1.0032899 0.47395977 0.024951601 83 23
-0.90903157 0.58298641 0 97 22
-1.0054693 0.47519785 -0.02500963 85 21
-0.91427368 0.58658892 -0.049029056 97 20
-1.0055749 0.4754687 -0.074584827 85 19
-0.91776663 0.58928567 -0.094780758 97 18
-1.0128036 0.47887391 -0.12424285 95 17
-0.91473818 0.58777684 -0.14621851 98 16
-1.0024529 0.47360018 -0.18721531 96 15
-0.91614455 0.59067172 -0.30195954 95 13
-1.0033988 0.47363678 -0.24613325 95 14
-0.90842307 0.58698386 -0.36202848 96 12
-0.21955147 0.10527228 -0.084359303 4 11
nan nan nan 0 9
-0.89828855 0.42100856 -0.44959348 4 10
nan nan nan 0 8
-1.0348718 0.4792681 -0.74826008 4 7
-0.87188697 0.57293999 -0.7679143 4 6
-1.0411865 0.47727334 -0.94011039 3 5
-0.8528915 0.56556761 -0.94495416 3 4
-1.0625013 0.48134252 -1.2008251 3 3
-0.91610146 0.61356181 -1.2612416 1 2
nan nan nan 0 1
nan nan nan 0 0
-1.0073826 0.47702405 0.28809974 89 31
-0.91712749 0.59269255 0.24462539 98 30
-1.0028611 0.47593921 0.20743483 89 29
-0.91325009 0.58974481 0.16458291 98 28
-1.0086006 0.47969806 0.13208227 87 27
-0.91157246 0.58867115 0.1003841 98 26
-1.0065573 0.47915551 0.075134434 86 25
-0.91671956 0.59201711 0.049261972 97 24
-1.0039715 0.47835428 0.02500963 82 23
-0.90919054 0.58735853 0 98 22
-1.0015461 0.4776338 -0.024951601 83 21
-0.90813422 0.58689809 -0.04879614 97 20
-0.99723232 0.475595 -0.074066877 85 19
-0.91779196 0.59384257 -0.095004298 97 18
-1.0089658 0.48116568 -0.12395855 95 17
-0.91683245 0.59366649 -0.1469066 98 16
-1.0008768 0.47692183 -0.18721531 96 15
-0.91820693 0.59633315 -0.30333522 95 13
-1.0061443 0.47922236 -0.2472495 95 14
-0.91042644 0.59257913 -0.3636629 91 12
-0.20031071 0.09715353 -0.075923376 4 11
nan nan nan 0 9
-0.90508068 0.42783177 -0.45384496 4 10
nan nan nan 0 8
-1.0313989 0.4818255 -0.74685889 4 7
-0.84007961 0.55614203 -0.74065107 5 6
-1.0395142 0.48090488 -0.94011039 4 5
-0.8464123 0.56551754 -0.93977165 3 4
-1.0545701 0.48221314 -1.1935474 3 3
-0.91395414 0.6167559 -1.2612416 1 2
nan nan nan 0 1
nan nan nan 0 0
-1.0035295 0.4795011 0.28745523 90 31
-0.91097647 0.59322363 0.24349807 98 30
-0.99676114 0.47732651 0.20648764 90 29
-0.90291607 0.58752364 0.16303752 98 28
-1.00692 0.48321581 0.13208227 87 27
-0.90951204 0.59184957 0.1003841 98 26
-1.0048786 0.48266616 0.075134434 80 25
-0.92091846 0.59931248 0.049611345 97 24
-1.0000407 0.48077792 0.024951601 81 23
-0.90713477 0.59052867 0 98 22
-0.9976182 0.48004824 -0.024893576 87 21
-0.90608007 0.59006447 -0.04879614 97 20
-0.98881674 0.4758437 -0.073548928 84 19
-0.9115473 0.59431434 -0.094557218 98 18
-1.0072801 0.48468471 -0.12395855 95 17
-0.91268343 0.59550577 -0.14656255 98 16
-0.99920583 0.4804126 -0.18721531 96 15
-0.91009456 0.59557384 -0.30127174 91 13
-0.99786901 0.47957963 -0.24557514 95 14
-0.90440661 0.59315366 -0.36202848 90 12
nan nan nan 0 11
nan nan nan 0 9
-0.85450363 0.4077369 -0.42833608 4 10
nan nan nan 0 8
-1.0278358 0.48454455 -0.74545759 5 7
-0.83152592 0.5546394 -0.73459256 4 6
-1.0360981 0.48372778 -0.9384951 4 5
-0.85490793 0.57556063 -0.95186424 3 4
-1.0544391 0.48660558 -1.1953667 3 3
-0.91712946 0.6235891 -1.2688739 1 2
nan nan nan 0 1
nan nan nan 0 0
-1.006206 0.4850893 0.28874427 88 31
-0.91093385 0.59774041 0.24406174 97 30
-0.99508882 0.48080295 0.20648764 91 29
-0.90498519 0.59338892 0.16381021 97 28
-1.0029912 0.48565114 0.13177931 87 27
-0.90744054 0.59502071 0.1003841 98 26
-1.0031877 0.48617086 0.075134434 88 25
-0.91882086 0.60252339 0.049611345 97 24
-0.99610513 0.48317996 0.024893576 83 23
-0.90298027 0.59231609 0 98 22
-0.99818724 0.48461425 -0.024951601 88 21
-0.90401489 0.59322375 -0.04879614 98 20
-0.99613363 0.48362958 -0.074239522 84 19
-0.91362375 0.60023546 -0.095004298 97 18
-1.0033453 0.48711795 -0.12367423 95 17
-0.91059917 0.59868801 -0.14656255 97 16
-0.99752289 0.4838976 -0.18721531 96 15
-0.90801001 0.59874701 -0.30127174 89 13
-0.99838388 0.48411816 -0.24613325 95 14
-0.90823567 0.60022736 -0.36448014 81 12
nan nan nan 0 11
nan nan nan 0 9
-0.86940736 0.4185248 -0.43683907 4 10
nan nan nan 0 8
-1.0223947 0.48635978 -0.74265516 4 7
-0.82134503 0.55197042 -0.72701943 4 6
-1.039588 0.48976785 -0.94334102 3 5
-0.85438657 0.57955962 -0.95359182 3 4
-1.0496217 0.48884389 -1.1917279 4 3
-0.91760772 0.62861937 -1.2726902 1 2
nan nan nan 0 1
nan nan nan 0 0
-0.99798298 0.48544359 0.2868107 91 31
-0.90681285 0.59956896 0.24349807 98 30
-0.99119556 0.48320284 0.20601404 92 29
-0.90496641 0.59791011 0.16419657 98 28
-1.0012898 0.48914927 0.13177931 88 27
-0.90328449 0.59680855 0.10014623 98 26
-1.0037274 0.49076024 0.07530795 88 25
-0.91255045 0.60296518 0.049378429 98 24
-0.99882185 0.48901579 0.02500963 83 23
-0.90090722 0.59546441 0 98 22
-0.99648952 0.48809561 -0.024951601 85 21
-0.89975446 0.59515113 -0.048679676 97 20
-0.98771292 0.48382747 -0.07372158 83 19
-0.91152304 0.60342097 -0.095004298 98 18
-1.0015532 0.49079213 -0.12367423 95 17
-0.91262686 0.60460645 -0.14725064 98 16
-0.99131376 0.48539418 -0.1863565 95 15
-0.9058094 0.60207105 -0.30127174 85 13
-0.99668789 0.48760024 -0.24613325 95 14
-0.90799314 0.60486609 -0.36529735 79 12
nan nan nan 0 11
nan nan nan 0 9
-0.86379164 0.41974163 -0.43471327 4 10
nan nan nan 0 8
-1.0187366 0.48921213 -0.74125397 4 7
-0.83411121 0.56505418 -0.74065107 4 6
-1.0360606 0.49275973 -0.94172573 3 5
-0.8567239 0.58575869 -0.95877433 3 4
-1.047823 0.49268767 -1.1917279 3 3
-0.91408086 0.63089764 -1.270782 1 2
nan nan nan 0 1
nan nan nan 0 0
-1.0005385 0.49121743 0.28809974 86 31
-0.90865713 0.60559851 0.24462539 98 30
-0.98941785 0.4868325 0.20601404 92 29
-0.90071583 0.5998497 0.16381021 98 28
-0.997262 0.4917233 0.13147637 89 27
-0.90315944 0.60149896 0.1003841 98 26
-0.99296635 0.49004075 0.074613869 84 25
-0.91241008 0.60769433 0.049494889 97 24
-0.9903788 0.48919359 0.024835547 85 23
-0.90287405 0.60154313 0 98 22
-0.9991796 0.49395001 -0.025067655 88 21
-0.89974672 0.59967744 -0.04879614 97 20
-0.98817104 0.4885447 -0.073894225 84 19
-0.90516841 0.60398525 -0.094557218 98 18
-0.99760485 0.49318936 -0.12338991 95 17
-0.90834838 0.6065681 -0.1469066 98 16
-0.98961335 0.48885155 -0.1863565 96 15
-0.89971375 0.60254592 -0.29989606 80 13
-0.99051923 0.48910204 -0.24501701 96 14
-0.89999944 0.60406947 -0.36284572 78 12
nan nan nan 0 11
nan nan nan 0 9
-0.85214877 0.41780165 -0.42939898 4 10
nan nan nan 0 8
-1.0188882 0.49366337 -0.74265516 4 7
-0.83541358 0.5702132 -0.7436803 4 6
-1.0377791 0.49801555 -0.94495636 3 5
-0.85764503 0.59080368 -0.96222937 3 4
-1.0398928 0.49341887 -1.1844501 3 3
-0.91838068 0.63887274 -1.2803224 1 2
nan nan nan 0 1
nan nan nan 0 0
-0.99231678 0.49150535 0.28616619 89 31
-0.90047997 0.60468066 0.24293444 98 30
-0.9877125 0.49028328 0.20601404 91 29
-0.89861649 0.60299003 0.16381021 98 28
-0.99776393 0.49630177 0.13177931 87 27
-0.89909601 0.60310006 0.10014623 98 26
-0.99571985 0.49571699 0.07496091 85 25
-0.90821236 0.60947973 0.049378429 98 24
-0.98866516 0.49264768 0.024835547 78 23
-0.89662313 0.60189587 0 98 22
-0.99305767 0.49504048 -0.024951601 90 21
-0.89971823 0.60421091 -0.048912596 97 20
-0.98199111 0.48977476 -0.073548928 83 19
-0.90728819 0.60976982 -0.095004298 97 18
-0.99142694 0.49446145 -0.1228213 96 17
-0.90222806 0.60680479 -0.14621851 98 16
-0.98790091 0.49230295 -0.1863565 95 15
-0.89362574 0.60298574 -0.29852036 64 13
-0.99107575 0.4934653 -0.24557514 95 14
-0.89593095 0.60587972 -0.36202848 71 12
-0.9637804 0.47732359 -0.42085916 7 11
nan nan nan 0 9
nan nan nan 0 10
nan nan nan 0 8
-1.0152965 0.49631226 -0.74125397 5 7
-0.83351809 0.5729804 -0.7436803 4 6
-1.0378414 0.50228101 -0.94657159 3 5
-0.86457384 0.59984809 -0.9725945 3 4
-1.0367024 0.49612865 -1.1826308 3 3
-0.91625708 0.64191467 -1.2803224 1 2
nan nan nan 0 1
nan nan nan 0 0
-0.99284476 0.49586764 0.2868107 88 31
-0.89846992 0.60766339 0.24293444 98 30
-0.9838835 0.4924621 0.20554042 93 29
-0.89048129 0.60180491 0.1626512 98 28
-0.99167132 0.49739242 0.13117343 89 27
-0.89492619 0.604837 0.099908352 99 26
-0.99183929 0.49790227 0.074787393 87 25
-0.90618634 0.61248815 0.049378429 98 24
-0.98255455 0.49368921 0.024719493 83 23
-0.89669043 0.60627037 0 98 22
-0.98908824 0.49738592 -0.024893576 87 21
-0.89564401 0.60578787 -0.04879614 97 20
-0.98036152 0.49302843 -0.073548928 84 19
-0.90309513 0.61153281 -0.094780758 97 18
-0.99644625 0.50107932 -0.12367423 95 17
-0.90215147 0.61134362 -0.14656255 97 16
-0.98626298 0.49557629 -0.1863565 95 15
-0.8995617 0.61136645 -0.30127174 36 13
-0.98716706 0.49583289 -0.24501701 95 14
-0.891967 0.60751331 -0.36121127 68 12
-0.96210837 0.48068485 -0.42085916 7 11
nan nan nan 0 9
-0.21664186 0.11023327 -0.097783923 4 10
nan nan nan 0 8
-1.0080674 0.49694386 -0.73705024 4 7
-0.83477736 0.57815951 -0.74670959 4 6
-1.0274982 0.50173652 -0.9384951 3 5
-0.84621131 0.59143227 -0.95359182 3 4
-1.0334183 0.49900302 -1.1808113 4 3
-0.91137618 0.64323956 -1.2765063 3 2
nan nan nan 0 1
nan nan nan 0 0
-0.99110776 0.49933031 0.2868107 91 31
-0.89232343 0.60804456 0.24180713 98 30
-0.98215848 0.49589351 0.20554042 92 29
-0.89041382 0.60630399 0.16303752 98 28
-0.9877122 0.49973547 0.13087049 89 27
-0.89691776 0.61076713 0.1003841 98 26
-0.98786765 0.50023961 0.074613869 89 25
-0.90610409 0.61705744 0.049494889 97 24
-0.98520172 0.4995378 0.024835547 79 23
-0.89044213 0.60657334 0 97 22
-0.98734605 0.50083548 -0.024893576 89 21
-0.89135712 0.60765558 -0.048679676 98 20
-0.98308808 0.49869424 -0.073894225 86 19
-0.90095496 0.61468142 -0.094780758 98 18
-0.99238557 0.503609 -0.12338991 95 17
-0.8979699 0.61308861 -0.14621851 98 16
-0.98004186 0.49697 -0.18549772 95 15
-0.89731491 0.61465937 -0.30127174 7 13
-0.98107773 0.49708283 -0.24390075 95 14
-0.88973433 0.61077845 -0.36121127 64 12
-0.97691578 0.49251565 -0.42835775 8 11
nan nan nan 0 9
-0.20814036 0.10697944 -0.09353245 4 10
nan nan nan 0 8
-1.0043832 0.49971765 -0.73564899 4 7
-0.82451236 0.57550263 -0.73913646 4 6
-1.0239388 0.50466001 -0.93687975 4 5
-0.83224058 0.58617377 -0.93977165 3 4
-1.0284959 0.5012933 -1.1771724 4 3
-0.90781111 0.64547741 -1.2745982 3 2
nan nan nan 0 1
nan nan nan 0 0
-0.98927104 0.50295955 0.2868107 88 31
-0.89610338 0.61546016 0.24349807 98 30
-0.98033428 0.49948996 0.20554042 93 29
-0.88615203 0.60816163 0.1626512 98 28
-0.99029928 0.50559932 0.13147637 88 27
-0.89467317 0.61405039 0.1003841 98 26
-0.98158091 0.50159717 0.074266829 85 25
-0.90383637 0.62037432 0.049494889 97 24
-0.9812243 0.50184059 0.024777522 84 23
-0.89232916 0.61267138 0 98 22
-0.98550373 0.50445092 -0.024893576 89 21
-0.88923061 0.61076331 -0.048679676 98 20
-0.97680843 0.50003105 -0.073548928 85 19
-0.89664721 0.61656457 -0.094557218 98 18
-0.98840815 0.50594318 -0.12310562 96 17
-0.89775372 0.61778355 -0.14656255 97 16
-0.98269153 0.50262105 -0.1863565 95 15
nan nan nan 0 13
-0.98142147 0.50177974 -0.24445888 95 14
-0.8953582 0.61927265 -0.36448014 47 12
-0.97932732 0.49801409 -0.43023241 9 11
nan nan nan 0 9
-0.19564289 0.1015923 -0.087155238 4 10
nan nan nan 0 8
-0.99892735 0.50137228 -0.73284656 4 7
-0.8387391 0.58985919 -0.75428271 4 6
-1.0221709 0.5082311 -0.93687975 3 5
-0.84195751 0.59747249 -0.95359182 3 4
-1.0221179 0.50262308 -1.1717142 3 3
-0.8988862 0.64407939 -1.2650578 1 2
nan nan nan 0 1
nan nan nan 0 0
-0.98535758 0.50531232 0.28616619 89 31
-0.89194959 0.61719435 0.24293444 97 30
-0.97421324 0.50067472 0.20459324 94 29
-0.88808119 0.61406904 0.16342388 98 28
-0.98411089 0.50679052 0.13087049 89 27
-0.8925243 0.61716956 0.1003841 98 26
-0.97982401 0.50502038 0.074266829 85 25
-0.89961421 0.62210095 0.049378429 98 24
-0.97946662 0.50526273 0.024777522 86 23
-0.88813198 0.61435604 0 98 22
-0.97706681 0.5044629 -0.024719493 85 21
-0.88914388 0.61528885 -0.04879614 98 20
-0.97283846 0.50229853 -0.073376283 87 19
-0.89244556 0.61826849 -0.094333678 98 18
-0.9866361 0.50939029 -0.12310562 96 17
-0.8955918 0.62091357 -0.14656255 98 16
-0.98312241 0.50717252 -0.18678591 96 15
nan nan nan 0 13
-0.97532725 0.5029785 -0.24334264 95 14
-0.8989979 0.6264587 -0.3669318 10 12
-0.97964764 0.50248247 -0.43116975 10 11
nan nan nan 0 9
nan nan nan 0 10
nan nan nan 0 8
-0.99532163 0.5039255 -0.73144525 4 7
-0.84153503 0.59624487 -0.75882655 4 6
-1.0220983 0.51264715 -0.9384951 3 5
-0.82225871 0.58775043 -0.93286157 3 4
-1.0203571 0.50618792 -1.1717142 3 3
-0.89793968 0.64816195 -1.2669659 1 2
nan nan nan 0 1
nan nan nan 0 0
-0.98143971 0.50764394 0.28552166 89 31
-0.88779455 0.61890703 0.24237077 98 30
-0.97464156 0.50519705 0.20506684 94 29
-0.88188475 0.61433333 0.1626512 98 28
-0.9845407 0.51136166 0.13117343 89 27
-0.88435471 0.61584687 0.099670477 99 26
-0.97583991 0.50729227 0.074093312 84 25
-0.89743721 0.62523746 0.049378429 98 24
-0.97547716 0.50752991 0.024719493 85 23
-0.8839339 0.61601889 0 97 22
-0.97982764 0.5099982 -0.024835547 89 21
-0.88699067 0.61838883 -0.04879614 98 20
-0.97107923 0.50569129 -0.073376283 87 19
-0.89039046 0.62122446 -0.094333678 98 18
-0.98485196 0.51283121 -0.12310562 96 17
-0.89150047 0.6224584 -0.14621851 98 16
-0.97478396 0.50720555 -0.18549772 95 15
nan nan nan 0 13
-0.9779833 0.50844842 -0.24445888 95 14
nan nan nan 0 12
-0.97591478 0.50466859 -0.43023241 12 11
nan nan nan 0 9
-0.20096876 0.10605442 -0.09034384 4 10
nan nan nan 0 8
-0.98247933 0.50177455 -0.72303784 4 7
-0.8427856 0.60135067 -0.76185578 4 6
-1.0152779 0.51346344 -0.93364912 4 5
nan nan nan 0 4
-1.0156021 0.50804299 -1.1680753 3 3
-0.89708954 0.65208912 -1.2688739 1 2
nan nan nan 0 1
nan nan nan 0 0
-0.98189521 0.51200771 0.28616619 89 31
-0.88772786 0.62325138 0.24293444 97 30
-0.9707827 0.50729436 0.20459324 94 29
-0.88388079 0.62009972 0.16342388 98 28
-0.9784376 0.51233119 0.13056755 89 27
-0.88626844 0.62179708 0.10014623 98 26
-0.98521012 0.51628911 0.07496091 90 25
-0.89127612 0.62533313 0.049145512 98 24
-0.97378874 0.51076198 0.024719493 86 23
-0.88392955 0.62038702 0 98 22
-0.97361046 0.51110184 -0.024719493 85 21
-0.886976 0.6227659 -0.048912596 97 20
-0.96718603 0.50775439 -0.073203623 90 19
-0.89228487 0.62720078 -0.094780758 97 18
-0.98094416 0.51494467 -0.1228213 96 17
-0.88932234 0.62556648 -0.14621851 98 16
-0.97091305 0.50929612 -0.18506834 96 15
nan nan nan 0 13
-0.9740417 0.51073235 -0.24390075 95 14
nan nan nan 0 12
-0.97826219 0.51020598 -0.43210709 16 11
nan nan nan 0 9
-0.20061599 0.10672027 -0.09034384 4 10
nan nan nan 0 8
-0.97712374 0.50314349 -0.72023541 5 7
-0.83100849 0.5972997 -0.75276804 4 6
-1.0151813 0.51786703 -0.93526447 4 5
nan nan nan 0 4
-1.0107569 0.51004851 -1.1644363 3 3
-0.88960457 0.65138596 -1.2612416 1 2
nan nan nan 0 1
nan nan nan 0 0
-0.98224235 0.51655143 0.2868107 88 31
-0.88356125 0.62493563 0.24237077 97 30
-0.96683186 0.50954044 0.20411965 95 29
-0.87768269 0.62032181 0.1626512 98 28
-0.97444624 0.51458949 0.13026461 92 27
-0.88409257 0.62488699 0.10014623 98 26
-0.97457176 0.51508319 0.074266829 84 25
-0.88908792 0.6284405 0.049145512 97 24
-0.96748686 0.51199937 0.024603439 81 23
-0.87768203 0.62057382 0 98 22
-0.97403193 0.51566172 -0.024777522 83 21
-0.88265193 0.62456602 -0.04879614 98 20
-0.96540773 0.51112735 -0.073203623 87 19
-0.88603181 0.62742543 -0.094333678 98 18
-0.97905022 0.51853657 -0.1228213 96 17
-0.88713324 0.628667 -0.14621851 96 16
-0.9712193 0.51399839 -0.18549772 95 15
nan nan nan 0 13
-0.97009623 0.512995 -0.24334264 95 14
nan nan nan 0 12
-0.97227854 0.51163912 -0.43023241 21 11
nan nan nan 0 9
-0.20624161 0.1105957 -0.09353245 4 10
nan nan nan 0 8
-0.97527307 0.50672144 -0.72023541 5 7
-0.80630362 0.58395088 -0.73156333 4 6
-1.009879 0.51984656 -0.9320339 3 5
nan nan nan 0 4
-1.0119406 0.51529747 -1.1680753 3 3
-0.89900261 0.66314697 -1.2784144 1 2
nan nan nan 0 1
nan nan nan 0 0
-0.97820628 0.51902086 0.28616619 88 31
-0.88324529 0.62958777 0.24293444 98 30
-0.96929777 0.51537561 0.20506684 92 29
-0.87741196 0.62497157 0.16303752 98 28
-0.97255367 0.51815754 0.13026461 91 27
-0.87977213 0.62667501 0.099908352 99 26
-0.97708386 0.52098882 0.074613869 90 25
-0.89084059 0.63460088 0.049378429 98 24
-0.97231656 0.51888895 0.024777522 86 23
-0.87743461 0.62524146 0 98 22
-0.9677211 0.51688313 -0.024661468 84 21
-0.8804664 0.62764329 -0.04879614 98 20
-0.96352786 0.51466238 -0.073203623 88 19
-0.88575011 0.63211924 -0.094557218 98 18
-0.97723418 0.5219509 -0.1228213 96 17
-0.87677449 0.62614149 -0.14484234 19 16
-0.97159463 0.51854014 -0.18592712 95 15
nan nan nan 0 13
-0.97036207 0.51768929 -0.24390075 95 14
nan nan nan 0 12
-0.97458619 0.5171932 -0.43210709 24 11
nan nan nan 0 9
-0.1978448 0.10709915 -0.08928097 4 10
nan nan nan 0 8
-0.97349834 0.51012266 -0.72023541 4 7
-0.80746788 0.58911461 -0.73459256 4 6
-1.0097538 0.52424335 -0.93364912 3 5
nan nan nan 0 4
-1.005554 0.51648903 -1.162617 3 3
-0.89268422 0.66353679 -1.2726902 1 2
nan nan nan 0 1
nan nan nan 0 0
-0.96999151 0.51902801 0.28423262 91 31
-0.88104224 0.63266706 0.24293444 97 30
-0.96316099 0.51644582 0.20411965 95 29
-0.87522513 0.62803054 0.16303752 98 28
-0.97292781 0.52271891 0.13056755 89 27
-0.87970853 0.63104373 0.10014623 98 26
-0.97086096 0.52204382 0.074266829 86 25
-0.88659418 0.63624662 0.049261972 98 24
-0.96168548 0.51756173 0.024545414 81 23
-0.87321889 0.62683839 0 98 22
-0.96820486 0.52126926 -0.024719493 89 21
-0.87421918 0.62779117 -0.048563223 98 20
-0.95732868 0.51566696 -0.072858326 86 19
-0.88162994 0.63359582 -0.094333678 97 18
-0.97540629 0.52535892 -0.1228213 96 17
-0.88071525 0.63339508 -0.14587446 3 16
-0.96543598 0.51960391 -0.18506834 96 15
nan nan nan 0 13
-0.9643423 0.51860565 -0.2427845 96 14
nan nan nan 0 12
-0.96058875 0.51389164 -0.42648312 32 11
nan nan nan 0 9
nan nan nan 0 10
nan nan nan 0 8
-0.97171175 0.51351774 -0.72023541 5 7
-0.8039099 0.59060729 -0.73307794 4 6
-1.0012387 0.5240671 -0.92718792 4 5
nan nan nan 0 4
-1.0053604 0.52060497 -1.1644363 4 3
-0.89047897 0.66649336 -1.2726902 1 2
nan nan nan 0 1
nan nan nan 0 0
-0.968265 0.52224171 0.28423262 91 31
-0.87696862 0.6341539 0.24237077 98 30
-0.96144307 0.51963693 0.20411965 93 29
-0.87113869 0.62947869 0.1626512 98 28
-0.97118896 0.52594239 0.13056755 89 27
-0.87548614 0.63264894 0.099908352 99 26
-0.97131979 0.52644402 0.074440353 89 25
-0.8844794 0.63918316 0.049261972 98 24
-0.96436304 0.5231216 0.024661468 81 23
-0.87113535 0.6297307 0 99 22
-0.96857858 0.52583331 -0.024777522 90 21
-0.8741532 0.63215429 -0.048679676 98 20
-0.96000236 0.52120894 -0.073203623 91 19
-0.87941295 0.63666934 -0.094333678 98 18
-0.97365874 0.52859056 -0.1228213 96 17
-0.87449437 0.63355178 -0.14518638 3 16
-0.96154004 0.52163303 -0.18463893 96 15
-0.86826503 0.63081968 -0.29714468 90 13
-0.96467102 0.52312547 -0.24334264 95 14
nan nan nan 0 12
-0.9628737 0.51943266 -0.42835775 30 11
nan nan nan 0 9
nan nan nan 0 10
nan nan nan 0 8
-0.96634412 0.51479959 -0.71743292 4 7
-0.79865199 0.59103537 -0.73004866 4 6
-1.0027827 0.52933162 -0.93041855 4 5
nan nan nan 0 4
-1.000493 0.52253205 -1.1607975 3 3
-0.87784851 0.66179186 -1.2574254 1 2
nan nan nan 0 1
nan nan nan 0 0
-0.96643615 0.52561843 0.28423262 91 31
-0.87081826 0.63433492 0.24124347 98 30
-0.96178132 0.52415961 0.20459324 93 29
-0.86494827 0.62960029 0.1618785 98 28
-0.96716642 0.52814472 0.13026461 89 27
-0.87729055 0.63863862 0.1003841 98 26
-0.9629029 0.52625781 0.073919788 87 25
-0.88224286 0.64226675 0.049261972 98 24
-0.96243918 0.52665263 0.024661468 85 23
-0.87498564 0.63719511 0 98 22
-0.96015215 0.52562529 -0.024603439 86 21
-0.87183034 0.63535404 -0.048679676 98 20
-0.95160621 0.52097857 -0.072685681 87 19
-0.88120288 0.64267784 -0.094780758 97 18
-0.9695338 0.53096747 -0.122537 95 17
-0.86828315 0.63367265 -0.14449829 5 16
-0.96611124 0.52868605 -0.18592712 95 15
-0.8601383 0.62972605 -0.2950812 104 13
-0.96069825 0.52532536 -0.2427845 96 14
-0.79973876 0.58656079 -0.3309741 30 12
-0.95688683 0.52075219 -0.42648312 33 11
nan nan nan 0 9
nan nan nan 0 10
nan nan nan 0 8
-0.966277 0.51931351 -0.71883416 4 7
-0.78693223 0.58680004 -0.72096092 4 6
-0.99577653 0.53032577 -0.92557263 4 5
nan nan nan 0 4
-1.0000902 0.52699065 -1.162617 3 3
-0.88195258 0.66975313 -1.2669659 1 2
-1.0467234 0.54509026 -1.5034448 1 1
nan nan nan 0 0
-0.96450317 0.5291571 0.28423262 89 31
-0.87436879 0.64185846 0.24293444 98 30
-0.95554614 0.52532578 0.20364605 95 29
-0.86661202 0.63569623 0.1626512 98 28
-0.96522415 0.53168601 0.13026461 88 27
-0.86893314 0.63742137 0.099670477 99 26
-0.96315438 0.53098267 0.074093312 92 25
-0.87787229 0.64401466 0.049145512 98 24
-0.95840389 0.52880639 0.024603439 88 23
-0.86861944 0.63743138 0 97 22
-0.9560287 0.52793771 -0.024545414 86 21
-0.86960721 0.6383934 -0.048679676 98 20
-0.95624816 0.52806515 -0.073203623 88 19
-0.87283117 0.64146733 -0.094110139 98 18
-0.96985137 0.53554434 -0.1228213 96 17
-0.86993843 0.63979316 -0.14518638 7 16
-0.95994186 0.52968526 -0.18506834 96 15
-0.85407227 0.62986338 -0.29370555 116 13
-0.96303946 0.53118724 -0.24390075 95 14
-0.85459727 0.63159925 -0.35549071 76 12
-0.95506322 0.52408922 -0.42648312 35 11
nan nan nan 0 9
nan nan nan 0 10
nan nan nan 0 8
-0.96081275 0.52071953 -0.71603167 4 7
-0.78011751 0.58594745 -0.71641713 4 6
-0.98886925 0.53110307 -0.92072666 3 5
nan nan nan 0 4
-0.9967283 0.52967799 -1.1607975 3 3
nan nan nan 0 2
-1.058246 0.55574781 -1.5233316 1 1
nan nan nan 0 0
-0.96265018 0.53252059 0.28423262 90 31
-0.87212288 0.64490664 0.24293444 98 30
-0.95585644 0.52984333 0.20411965 93 29
-0.86637115 0.64018935 0.16303752 98 28
-0.9633624 0.53505206 0.13026461 90 27
-0.86870116 0.64193374 0.099908352 99 26
-0.95911241 0.5331347 0.073919788 87 25
-0.87762427 0.64856339 0.049261972 98 24
-0.95873904 0.53335887 0.024661468 85 23
-0.86839634 0.64194983 0 98 22
-0.95855284 0.53369349 -0.024661468 89 21
-0.86536866 0.63993603 -0.048563223 98 20
-0.95003551 0.52898312 -0.072858326 87 19
-0.87458318 0.6474815 -0.094557218 98 18
-0.96580333 0.53772312 -0.122537 96 17
-0.86173999 0.63839167 -0.14415425 17 16
-0.95808709 0.53303277 -0.18506834 96 15
-0.85572106 0.63571554 -0.2950812 125 13
-0.95478207 0.53100681 -0.24222636 96 14
-0.84103471 0.62608862 -0.3505874 76 12
-0.95525861 0.52853709 -0.42742047 38 11
nan nan nan 0 9
nan nan nan 0 10
nan nan nan 0 8
-0.9589892 0.52407026 -0.71603167 4 7
-0.76856947 0.581442 -0.70732939 4 6
-0.98532927 0.53364742 -0.91911143 3 5
nan nan nan 0 4
-0.99487329 0.53315395 -1.1607975 3 3
-0.85543078 0.65922785 -1.2345284 1 2
nan nan nan 0 1
nan nan nan 0 0
-0.96078551 0.53587765 0.28423262 91 31
-0.86791617 0.64648795 0.24237077 97 30
-0.95614654 0.53436929 0.20459324 91 29
-0.86215293 0.64173079 0.1626512 98 28
-0.95715302 0.53599626 0.12965873 91 27
-0.86656767 0.64481091 0.099908352 99 26
-0.96160215 0.53890818 0.074266829 89 25
-0.87135464 0.64863241 0.049029056 98 24
-0.9525063 0.53426665 0.024545414 87 23
-0.86414814 0.64347988 0 98 22
-0.96114242 0.53930551 -0.024777522 91 21
-0.86512923 0.64444876 -0.048679676 97 20
-0.95253825 0.53472811 -0.073203623 88 19
-0.87442446 0.65187037 -0.094780758 97 18
-0.96392041 0.54109108 -0.122537 96 17
-0.86556339 0.64569986 -0.14518638 35 16
-0.95837128 0.53757393 -0.18549772 95 15
-0.85349679 0.6386987 -0.2950812 132 13
-0.95727301 0.53654343 -0.24334264 95 14
-0.85394126 0.64039308 -0.35712516 110 12
-0.95147377 0.53057796 -0.42648312 39 11
nan nan nan 0 9
nan nan nan 0 10
nan nan nan 0 8
-0.94807464 0.52244163 -0.7090255 4 7
-0.77926904 0.59366286 -0.71944636 4 6
-0.98187697 0.53600204 -0.91749609 4 5
nan nan nan 0 4
-0.99461067 0.53726095 -1.162617 3 3
-0.87361717 0.67795843 -1.2650578 1 2
nan nan nan 0 1
nan nan nan 0 0
-0.95689487 0.53788203 0.28358811 88 31
-0.86576748 0.64936256 0.24237077 97 30
-0.95222771 0.53633732 0.20411965 92 29
-0.8600201 0.64458632 0.1626512 98 28
-0.95537031 0.53916734 0.12965873 92 27
-0.86232328 0.64633524 0.099670477 99 26
-0.95763564 0.54087234 0.074093312 92 25
-0.86919892 0.6515184 0.049029056 98 24
-0.95072937 0.5374223 0.024545414 84 23
-0.86001241 0.64483815 0 98 22
-0.95489794 0.54020572 -0.024661468 91 21
-0.86099267 0.6458115 -0.048563223 97 20
-0.9485864 0.53666067 -0.073030978 91 19
-0.86816758 0.65192026 -0.094333678 98 18
-0.96212089 0.54428464 -0.122537 95 17
-0.85935104 0.64573395 -0.14449829 85 16
-0.95228988 0.53833473 -0.18463893 96 15
-0.85329056 0.64297599 -0.29576904 131 13
-0.95114553 0.53749347 -0.24222636 96 14
-0.85369545 0.64464915 -0.3579424 119 12
-0.95163882 0.53502703 -0.42742047 46 11
nan nan nan 0 9
nan nan nan 0 10
nan nan nan 0 8
-0.94452435 0.52458209 -0.70762426 4 7
-0.76616865 0.58787483 -0.70884395 4 6
-0.98502201 0.54217339 -0.922342 4 5
nan nan nan 0 4
-0.98518962 0.53664941 -1.1535197 3 3
-0.85981441 0.67202151 -1.2478851 1 2
nan nan nan 0 1
nan nan nan 0 0
-0.95290726 0.54003274 0.28294358 92 31
-0.86155534 0.65090841 0.24180713 98 30
-0.95034975 0.53965795 0.20411965 92 29
-0.85776484 0.64758438 0.1626512 98 28
-0.95348245 0.54249895 0.12965873 92 27
-0.85807878 0.6478377 0.099432595 98 26
-0.95574176 0.54421192 0.074093312 91 25
-0.87089938 0.65756613 0.049261972 98 24
-0.94440514 0.53843725 0.02442936 82 23
-0.8577562 0.64783627 0 99 22
-0.95083249 0.54230225 -0.024603439 84 21
-0.86060911 0.65047276 -0.048679676 98 20
-0.94236892 0.53750706 -0.072685681 88 19
-0.86390394 0.65344065 -0.094110139 98 18
-0.96011943 0.54780734 -0.122537 95 17
-0.86103445 0.65172678 -0.14518638 100 16
-0.94602579 0.5393914 -0.18378015 95 15
-0.84901708 0.64464164 -0.2950812 115 13
-0.94926351 0.54081029 -0.24222636 96 14
-0.84381825 0.64203489 -0.35467348 123 12
-0.9557277 0.54192668 -0.43023241 51 11
nan nan nan 0 9
nan nan nan 0 10
nan nan nan 0 8
-0.94259536 0.52804041 -0.70762426 4 7
-0.77657121 0.6004445 -0.72096092 4 6
-0.97634566 0.54209262 -0.9158808 4 5
nan nan nan 0 4
-0.99074066 0.54436439 -1.162617 3 3
-0.86252981 0.67902857 -1.2555174 1 2
nan nan nan 0 1
nan nan nan 0 0
-0.94882178 0.54232788 0.28229907 91 31
-0.86303365 0.65702057 0.24293444 98 30
-0.94409961 0.54070729 0.20317246 96 29
-0.85342282 0.6492244 0.16226484 99 28
-0.9536429 0.54722029 0.12996167 92 27
-0.86163133 0.65551102 0.10014623 98 26
-0.95374072 0.54771119 0.074093312 92 25
-0.86451453 0.65772152 0.049029056 98 24
-0.94685936 0.54421175 0.024545414 90 23
-0.85736239 0.65249383 0 97 22
-0.94666928 0.54454219 -0.024545414 85 21
-0.85833329 0.65347284 -0.048679676 98 20
-0.94472188 0.54343492 -0.073030978 92 19
-0.86150306 0.65660268 -0.094110139 98 18
-0.95820141 0.55115545 -0.122537 95 17
-0.8606059 0.65638405 -0.14553043 100 16
-0.95055133 0.54635787 -0.18506834 96 15
-0.85057378 0.65052962 -0.29645687 64 13
-0.94515938 0.54307675 -0.24166825 96 14
-0.84531629 0.64785898 -0.35630795 124 12
-0.95785987 0.54755044 -0.43210709 57 11
nan nan nan 0 9
nan nan nan 0 10
nan nan nan 0 8
-0.93352497 0.52727336 -0.70201933 4 7
-0.77447057 0.60315156 -0.72096092 4 6
-0.97944963 0.54828036 -0.92072666 4 5
nan nan nan 0 4
-0.98432821 0.54533905 -1.1571586 3 3
-0.85372061 0.67714983 -1.2459769 1 2
nan nan nan 0 1
nan nan nan 0 0
-0.95320976 0.54924005 0.28423262 87 31
-0.85687542 0.65705687 0.24180713 98 30
-0.93794918 0.54155445 0.20222527 95 29
-0.8550663 0.6552121 0.16303752 98 28
-0.95172697 0.55054581 0.12996167 89 27
-0.85550773 0.65532988 0.099670477 99 26
-0.94533962 0.54730284 0.073572747 88 25
-0.86221343 0.66073525 0.049029056 98 24
-0.94928467 0.55000991 0.024661468 87 23
-0.85111755 0.65243256 0 99 22
-0.94702339 0.54892701 -0.024603439 91 21
-0.85604697 0.65646499 -0.048679676 98 20
-0.93849856 0.54423672 -0.072685681 91 19
-0.859321 0.65945596 -0.094110139 98 18
-0.95627171 0.55449682 -0.122537 95 17
-0.86234623 0.6622588 -0.14621851 99 16
-0.95077217 0.55090255 -0.18549772 95 15
-0.85209978 0.65643638 -0.29783255 19 13
-0.9433533 0.54620802 -0.24166825 95 14
-0.84304976 0.65080571 -0.35630795 125 12
-0.95402789 0.54957163 -0.43116975 60 11
nan nan nan 0 9
nan nan nan 0 10
